# .PCD v0.7 - Point Cloud Data file format
VERSION 0.7
FIELDS x y z
SIZE 4 4 4
TYPE F F F
COUNT 1 1 1
WIDTH 1374
HEIGHT 1
VIEWPOINT 0 0 0 1 0 0 0
POINTS 1374
DATA ascii
0.50225329 0.048870165 0.052808728
0.50227922 0.049723826 0.052803528
0.50373846 0.02323235 0.053357713
0.50376427 0.024082826 0.053352527
0.50379014 0.024933303 0.053347345
0.50381601 0.025783781 0.053342164
0.50384182 0.026634259 0.053336982
0.50386769 0.027484735 0.0533318
0.50303251 0.028348504 0.05279978
0.50305837 0.029200573 0.052794587
0.5030843 0.030052643 0.052789398
0.50311017 0.030904714 0.052784204
0.5031361 0.031756785 0.052779011
0.50316197 0.032608852 0.052773818
0.50318789 0.033460923 0.052768625
0.50321376 0.034312993 0.052763436
0.50323969 0.035165064 0.052758243
0.50326556 0.036017135 0.05275305
0.50329149 0.036869206 0.052747857
0.50331736 0.037721273 0.052742664
0.50420374 0.038540944 0.053264424
0.50336915 0.039425414 0.052732281
0.50339508 0.040277485 0.052727088
0.50342095 0.041129556 0.052721895
0.50344688 0.041981623 0.052716702
0.50347275 0.042833693 0.052711513
0.50349867 0.043685764 0.05270632
0.50352454 0.044537835 0.052701127
0.50355047 0.045389906 0.052695934
0.50357634 0.046241976 0.052690741
0.50360227 0.047094043 0.052685551
0.50362813 0.047946114 0.052680358
0.50365406 0.048798185 0.052675165
0.50367993 0.049650256 0.052669972
0.50370586 0.050502326 0.052664783
0.50500864 0.01896384 0.053253412
0.50503445 0.019812724 0.053248238
0.50506026 0.020661609 0.053243063
0.50508606 0.021510493 0.053237893
0.50511187 0.022359379 0.053232718
0.50513768 0.023208262 0.053227548
0.50430316 0.024062436 0.052694354
0.50518924 0.024906032 0.053217199
0.50435489 0.025763391 0.052683987
0.5043807 0.026613869 0.052678805
0.50440657 0.027464345 0.052673623
0.50443244 0.028314823 0.052668441
0.50445825 0.029165301 0.052663259
0.50448412 0.030015778 0.052658074
0.50450999 0.030866256 0.052652892
0.503676 0.031736355 0.052119598
0.50370187 0.032588426 0.052114405
0.50372779 0.033440497 0.052109212
0.5046134 0.034268167 0.05263216
0.50463921 0.035118643 0.052626979
0.50380546 0.035996705 0.052093636
0.50469095 0.0368196 0.052616615
0.50471675 0.037670076 0.052611433
0.50474262 0.038520552 0.052606251
0.50476849 0.039371032 0.052601065
0.50479436 0.040221509 0.052595884
0.50482017 0.041071985 0.052590702
0.50484604 0.041922461 0.05258552
0.5048719 0.042772941 0.052580338
0.50489771 0.043623418 0.052575152
0.50492358 0.044473894 0.05256997
0.50494945 0.04532437 0.052564789
0.50411624 0.046221547 0.052031327
0.50414217 0.047073618 0.052026134
0.50416803 0.047925688 0.052020945
0.50505286 0.048726283 0.052544057
0.50507867 0.049576759 0.052538875
0.50510454 0.050427236 0.052533694
0.50513041 0.051277716 0.052528512
0.50640613 0.018947793 0.053125694
0.50643188 0.019795084 0.053120531
0.50645763 0.020642377 0.053115368
0.50648338 0.021489669 0.053110205
0.50564975 0.022339027 0.052575778
0.50567555 0.023187911 0.052570604
0.5057013 0.024036797 0.052565429
0.50572711 0.024885681 0.052560259
0.50575292 0.025734566 0.052555084
0.50577873 0.02658345 0.052549914
0.50494546 0.027443955 0.052015446
0.50497133 0.028294433 0.052010264
0.50499713 0.029144911 0.052005082
0.505023 0.029995387 0.0519999
0.50504887 0.030845866 0.051994719
0.50507474 0.031696342 0.051989533
0.50510055 0.032546822 0.051984351
0.50512642 0.033397298 0.051979169
0.50515229 0.034247775 0.051973987
0.50517809 0.035098251 0.051968805
0.50520396 0.035948731 0.05196362
0.50522983 0.036799207 0.051958438
0.50525564 0.037649684 0.051953256
0.50528151 0.038500164 0.051948074
0.50530738 0.03935064 0.051942892
0.50619155 0.040165607 0.052467145
0.50535905 0.041051596 0.051932525
0.50538492 0.041902073 0.051927343
0.50541079 0.042752549 0.051922161
0.5054366 0.043603025 0.051916979
0.50546247 0.044453505 0.051911797
0.50548834 0.045303982 0.051906612
0.50551414 0.046154458 0.05190143
0.50554001 0.047004938 0.051896248
0.50556588 0.047855414 0.051891066
0.50559175 0.048705891 0.051885884
0.50561756 0.049556371 0.051880699
0.50564343 0.050406847 0.051875517
0.5056693 0.051257323 0.051870335
0.5056951 0.0521078 0.051865153
0.50691724 0.018080188 0.052475151
0.50694299 0.018927479 0.052469987
0.50782728 0.019777523 0.052995261
0.50699449 0.020622063 0.052459661
0.50702024 0.021469355 0.052454498
0.50704604 0.022316648 0.052449334
0.50621343 0.023167558 0.051913664
0.50709754 0.024011232 0.052439008
0.50626498 0.024865327 0.051903315
0.50629079 0.025714213 0.051898144
0.5063166 0.026563099 0.05189297
0.50634241 0.027411982 0.051887799
0.50636822 0.028260868 0.051882625
0.50639403 0.029109752 0.05187745
0.50641984 0.029958637 0.051872279
0.50644565 0.030807523 0.051867105
0.50647146 0.031656407 0.051861934
0.5064972 0.032505292 0.05185676
0.50652301 0.033354178 0.051851589
0.50654882 0.03420306 0.051846415
0.50657463 0.035051946 0.05184124
0.50660044 0.035900831 0.05183607
0.50662625 0.036749717 0.051830895
0.50665206 0.037598599 0.051825725
0.50667787 0.038447484 0.05182055
0.50670367 0.03929637 0.051815376
0.50672942 0.040145256 0.051810205
0.50675523 0.040994141 0.051805031
0.50678104 0.041843023 0.05179986
0.50680685 0.042691909 0.051794685
0.50683266 0.043540794 0.051789515
0.50685847 0.04438968 0.05178434
0.50688428 0.045238566 0.051779166
0.50691009 0.046087448 0.051773995
0.5060789 0.046984546 0.051238071
0.50610477 0.047835026 0.051232889
0.50698745 0.048634104 0.051758476
0.50701326 0.049482986 0.051753301
0.50703907 0.050331872 0.05174813
0.50706488 0.051180758 0.051742956
0.50709069 0.052029643 0.051737785
0.5071165 0.052878529 0.051732611
0.508286 0.017220151 0.052356239
0.50831169 0.018065847 0.052351087
0.50833744 0.018911548 0.052345935
0.50836313 0.019757247 0.052340779
0.50838882 0.020602947 0.052335627
0.50841451 0.021448646 0.052330475
0.5075829 0.022296334 0.05179362
0.50760865 0.023143625 0.051788457
0.5076344 0.023990918 0.051783293
0.50766015 0.024838209 0.05177813
0.5076859 0.025685502 0.051772967
0.50771165 0.026532793 0.051767804
0.5077374 0.027380086 0.05176264
0.50776315 0.028227378 0.051757477
0.5077889 0.029074671 0.051752314
0.50781465 0.029921962 0.051747151
0.50784039 0.030769255 0.051741987
0.5078662 0.031616546 0.051736824
0.50789195 0.032463837 0.051731661
0.5079177 0.033311132 0.051726498
0.50794345 0.034158424 0.051721334
0.5079692 0.035005715 0.051716171
0.50799495 0.035853006 0.051711008
0.5080207 0.036700297 0.051705845
0.50804645 0.037547592 0.051700681
0.5080722 0.038394883 0.051695518
0.50809795 0.039242174 0.051690355
0.5081237 0.040089466 0.051685192
0.50814945 0.040936761 0.051680028
0.50817519 0.041784052 0.051674865
0.508201 0.042631343 0.051669702
0.50822675 0.043478634 0.051664539
0.5082525 0.044325929 0.051659375
0.50827825 0.04517322 0.051654216
0.50744796 0.046067096 0.051117048
0.50747377 0.046915982 0.051111873
0.50749958 0.047764868 0.051106703
0.50752532 0.048613749 0.051101528
0.508407 0.04940968 0.0516284
0.50757694 0.050311521 0.051091183
0.5084585 0.051104262 0.051618073
0.50762856 0.052009288 0.051080838
0.50765437 0.052858174 0.051075663
0.42591599 -0.0054993592 0.00067904219
0.43280765 -0.0041723512 0.004934385
0.50879616 0.016354173 0.051706918
0.50882185 0.017199874 0.051701766
0.50884759 0.018045573 0.051696613
0.50887328 0.018891271 0.051691458
0.50889897 0.019736972 0.051686306
0.50892466 0.02058267 0.05168115
0.50895041 0.021428371 0.051675998
0.5089761 0.022274069 0.051670846
0.50900179 0.023119768 0.05166569
0.50902748 0.023965469 0.051660538
0.50905323 0.024811167 0.051655386
0.50907892 0.025656868 0.05165023
0.50910461 0.026502566 0.051645078
0.5091303 0.027348267 0.051639926
0.50915605 0.028193966 0.05163477
0.50918174 0.029039666 0.051629618
0.50920743 0.029885365 0.051624462
0.50923318 0.030731063 0.05161931
0.50840306 0.031596232 0.051081117
0.50842881 0.032443523 0.051075954
0.50845456 0.033290818 0.051070791
0.50933599 0.034113862 0.051598698
0.50936168 0.034959562 0.051593542
0.50938737 0.035805263 0.05158839
0.50941306 0.036650959 0.051583234
0.50943881 0.03749666 0.051578082
0.5094645 0.03834236 0.05157293
0.50949019 0.039188057 0.051567774
0.50951588 0.040033758 0.051562622
0.50954163 0.040879458 0.05155747
0.50956732 0.041725155 0.051552314
0.50873786 0.042611029 0.051013995
0.50876361 0.04345832 0.051008832
0.50878936 0.044305615 0.051003668
0.50881511 0.045152906 0.050998505
0.50884086 0.046000198 0.050993342
0.50886661 0.046847489 0.050988179
0.50889236 0.047694784 0.050983015
0.50891811 0.048542075 0.050977852
0.50894386 0.049389366 0.050972689
0.5089696 0.050236657 0.050967526
0.50899535 0.051083948 0.050962362
0.5090211 0.051931243 0.050957199
0.50904691 0.052778535 0.050952036
0.42569202 -0.0055659809 -0.00062765216
0.43171898 -0.0042781699 0.0031036043
0.509332 0.016333899 0.051052436
0.51021338 0.017187241 0.051581394
0.50938344 0.018025298 0.051042132
0.50940913 0.018870996 0.051036976
0.51029032 0.019719562 0.051565964
0.50946057 0.020562395 0.051026672
0.50948626 0.021408094 0.051021516
0.50951195 0.022253795 0.051016364
0.50953764 0.023099493 0.051011208
0.50956339 0.023945194 0.051006056
0.50958908 0.024790892 0.051000904
0.50961477 0.025636591 0.050995748
0.50964046 0.026482292 0.050990596
0.5096662 0.02732799 0.050985444
0.50969189 0.028173689 0.050980289
0.50971758 0.029019389 0.050975136
0.50974333 0.02986509 0.050969981
0.50976902 0.030710788 0.050964829
0.50979471 0.031556487 0.050959677
0.5098204 0.032402188 0.050954521
0.50984615 0.033247888 0.050949369
0.50987184 0.034093585 0.050944217
0.50989753 0.034939285 0.050939061
0.50992322 0.035784986 0.050933909
0.50994897 0.036630683 0.050928753
0.50997466 0.037476383 0.050923601
0.51000035 0.038322084 0.050918449
0.51002604 0.039167784 0.050913293
0.51005179 0.040013481 0.050908141
0.51007748 0.040859181 0.050902989
0.51010317 0.041704882 0.050897833
0.51012886 0.042550582 0.050892681
0.5101546 0.043396279 0.050887525
0.51018029 0.04424198 0.050882373
0.51020598 0.045087676 0.050877221
0.50937772 0.045979884 0.050337635
0.50940347 0.046827175 0.050332472
0.50942922 0.04767447 0.050327308
0.50945497 0.048521761 0.050322145
0.50948071 0.049369052 0.050316982
0.51036024 0.050161876 0.050846301
0.50953227 0.051063638 0.050306655
0.50955802 0.051910929 0.050301492
0.50958377 0.052758221 0.050296329
0.42547008 -0.0056326822 -0.0019368073
0.43063441 -0.0043841354 0.0012679283
0.5106712 0.014634683 0.050943583
0.51069689 0.01547879 0.050938439
0.51072252 0.016322898 0.050933294
0.51074821 0.017167004 0.050928149
0.51077384 0.01801111 0.050923008
0.51079953 0.018855218 0.050917864
0.50997072 0.01969642 0.050377347
0.51085085 0.020543432 0.050907575
0.51087648 0.021387538 0.050902434
0.51090211 0.022231644 0.050897289
0.5109278 0.023075752 0.050892144
0.51095343 0.023919858 0.050887
0.51097912 0.024763964 0.050881859
0.51100475 0.025608072 0.050876714
0.51103044 0.026452178 0.05087157
0.51105607 0.027296286 0.050866425
0.51108176 0.028140392 0.05086128
0.51110739 0.028984498 0.05085614
0.51113307 0.029828606 0.050850995
0.5111587 0.030672712 0.05084585
0.51118433 0.03151682 0.050840706
0.51121002 0.032360926 0.050835565
0.510382 0.033227611 0.050294895
0.51126134 0.034049138 0.050825275
0.51128697 0.034893248 0.050820131
0.51131266 0.035737354 0.05081499
0.51048481 0.03661041 0.050274279
0.5105105 0.037456106 0.050269127
0.51053619 0.038301807 0.050263971
0.51056194 0.039147507 0.050258819
0.51058763 0.039993208 0.050253667
0.51061332 0.040838905 0.050248511
0.51063901 0.041684605 0.050243359
0.51066476 0.042530306 0.050238203
0.51069045 0.043376002 0.050233051
0.51071614 0.044221703 0.050227899
0.51074183 0.045067403 0.050222743
0.51076758 0.045913104 0.050217591
0.51079327 0.046758801 0.050212439
0.51081896 0.047604501 0.050207283
0.51084465 0.048450202 0.050202131
0.5108704 0.049295899 0.050196975
0.51004338 0.050196029 0.049656108
0.51092178 0.0509873 0.050186671
0.51094753 0.051832996 0.050181516
0.51097322 0.052678697 0.050176363
0.51014638 0.053585198 0.049635455
0.42610484 -0.0056567006 -0.0027120786
0.43040848 -0.0044490905 -3.6309142e-05
0.51032662 0.013756247 0.049758948
0.51035231 0.014601948 0.049753793
0.51123172 0.015458552 0.05028519
0.51040375 0.016293347 0.049743488
0.51128304 0.017146766 0.050274905
0.51130873 0.017990872 0.05026976
0.51133436 0.01883498 0.050264616
0.51135999 0.019679086 0.050259471
0.51138568 0.020523194 0.050254326
0.51141131 0.0213673 0.050249185
0.511437 0.022211406 0.050244041
0.51146263 0.023055514 0.050238896
0.51148832 0.02389962 0.050233752
0.51151395 0.024743726 0.050228611
0.51153964 0.025587834 0.050223466
0.51156527 0.02643194 0.050218321
0.5115909 0.027276048 0.050213177
0.51161659 0.028120155 0.050208036
0.51164222 0.028964261 0.050202891
0.51166791 0.029808369 0.050197747
0.51169354 0.030652475 0.050192602
0.51171923 0.031496581 0.050187461
0.51174486 0.032340687 0.050182316
0.51177055 0.033184797 0.050177172
0.51179618 0.034028903 0.050172027
0.51182187 0.034873009 0.050166883
0.5118475 0.035717115 0.050161742
0.51187313 0.036561221 0.050156597
0.51189882 0.037405331 0.050151452
0.51107204 0.03828153 0.049609497
0.51109779 0.039127231 0.049604345
0.51112348 0.039972931 0.049599189
0.51114917 0.040818632 0.049594037
0.51117492 0.041664328 0.049588881
0.51120061 0.042510029 0.049583729
0.5112263 0.043355729 0.049578577
0.51125199 0.04420143 0.049573421
0.51127774 0.045047127 0.049568269
0.51130342 0.045892827 0.049563117
0.51132911 0.046738528 0.049557962
0.5113548 0.047584224 0.049552809
0.51138055 0.048429925 0.049547654
0.51140624 0.049275625 0.049542502
0.51143193 0.050121326 0.049537349
0.51145762 0.050967023 0.049532194
0.51148337 0.051812723 0.049527042
0.51065749 0.052717593 0.048984904
0.43018457 -0.0045141224 -0.0013430131
0.5099839 0.012874552 0.048571866
0.51086247 0.013735971 0.049104467
0.51088816 0.014581672 0.049099311
0.51091391 0.015427371 0.049094159
0.5109396 0.01627307 0.049089007
0.51181787 0.01712653 0.04962166
0.51184356 0.017970635 0.049616516
0.51186919 0.018814743 0.049611375
0.51189488 0.019658849 0.04960623
0.51192051 0.020502957 0.049601085
0.5119462 0.021347063 0.049595941
0.51197183 0.022191169 0.0495908
0.51199746 0.023035277 0.049585655
0.51202315 0.023879383 0.049580511
0.51204878 0.024723489 0.049575366
0.51207447 0.025567597 0.049570225
0.5121001 0.026411703 0.049565081
0.51212579 0.027255811 0.049559936
0.51215142 0.028099917 0.049554791
0.51217711 0.028944023 0.049549647
0.51220274 0.029788131 0.049544506
0.51222843 0.030632237 0.049539361
0.51225406 0.031476345 0.049534217
0.51227969 0.032320451 0.049529072
0.51230538 0.033164557 0.049523931
0.51233101 0.034008663 0.049518786
0.5123567 0.034852773 0.049513642
0.51238233 0.035696879 0.049508497
0.51240802 0.036540985 0.049503356
0.5115822 0.037415557 0.048960168
0.51160794 0.038261257 0.048955016
0.51163363 0.039106958 0.048949864
0.51165932 0.039952654 0.048944708
0.51168501 0.040798355 0.048939556
0.51171076 0.041644052 0.0489344
0.51173645 0.042489752 0.048929248
0.51176214 0.043335453 0.048924096
0.51178789 0.044181153 0.04891894
0.51181358 0.04502685 0.048913788
0.51183927 0.04587255 0.048908636
0.51186496 0.046718251 0.04890348
0.51189071 0.047563951 0.048898328
0.5119164 0.048409648 0.048893172
0.51194209 0.049255349 0.04888802
0.51196778 0.050101049 0.048882868
0.51114285 0.051002696 0.048339523
0.5111686 0.051849987 0.04833436
0.51119435 0.052697279 0.048329197
0.51036954 0.053605299 0.047785781
0.51052082 0.012854238 0.047916155
0.51054657 0.01370153 0.047910992
0.51142401 0.014561396 0.048444837
0.51144975 0.015407095 0.048439685
0.51232708 0.016262185 0.048973557
0.51150113 0.017098496 0.048429377
0.51237839 0.017950397 0.048963271
0.51240402 0.018794505 0.048958126
0.51242971 0.019638611 0.048952982
0.51245534 0.020482719 0.048947837
0.51248103 0.021326825 0.048942693
0.51250666 0.022170931 0.048937552
0.51253235 0.023015039 0.048932407
0.51255798 0.023859145 0.048927262
0.51258367 0.024703251 0.048922118
0.5126093 0.025547359 0.048916977
0.51263499 0.026391465 0.048911832
0.51266062 0.027235573 0.048906688
0.51268625 0.028079679 0.048901543
0.51271194 0.028923785 0.048896402
0.51273757 0.029767893 0.048891257
0.51276326 0.030611999 0.048886113
0.51278889 0.031456105 0.048880968
0.51281458 0.032300215 0.048875824
0.51284021 0.033144321 0.048870683
0.5128659 0.033988427 0.048865538
0.51289153 0.034832533 0.048860393
0.51291722 0.03567664 0.048855249
0.51294285 0.036520749 0.048850108
0.5121181 0.03739528 0.048305694
0.51214379 0.03824098 0.048300538
0.51216948 0.039086681 0.048295386
0.51219517 0.039932381 0.048290234
0.51222092 0.040778078 0.048285078
0.51224661 0.041623779 0.048279926
0.5122723 0.042469479 0.048274774
0.51229799 0.043315176 0.048269618
0.51232374 0.044160876 0.048264466
0.51234943 0.045006577 0.048259314
0.51237512 0.045852274 0.048254158
0.51240087 0.046697974 0.048249006
0.51242656 0.047543675 0.04824385
0.51245224 0.048389375 0.048238698
0.51247793 0.049235072 0.048233546
0.51250368 0.050080772 0.048228391
0.51252937 0.050926473 0.048223238
0.51170546 0.051829673 0.047678649
0.51173121 0.052676965 0.047673486
0.51005793 0.053645633 0.046589386
0.51105767 0.012833924 0.047260448
0.51108342 0.013681216 0.047255285
0.51195991 0.01454112 0.04779036
0.5119856 0.015386819 0.047785208
0.51201129 0.016232518 0.047780056
0.51203698 0.017078219 0.0477749
0.51206273 0.017923918 0.047769748
0.51208842 0.018769618 0.047764596
0.51296455 0.019618373 0.048299741
0.51299024 0.020462481 0.048294596
0.51301587 0.021306587 0.048289452
0.51304156 0.022150693 0.048284307
0.51306719 0.022994801 0.048279166
0.51309282 0.023838909 0.048274022
0.51311851 0.024683014 0.048268877
0.51314414 0.025527121 0.048263732
0.51316983 0.026371228 0.048258591
0.51319546 0.027215336 0.048253447
0.51322114 0.028059442 0.048248302
0.51324677 0.02890355 0.048243158
0.51327246 0.029747656 0.048238013
0.51329809 0.030591762 0.048232872
0.51332372 0.03143587 0.048227727
0.51334941 0.032279976 0.048222583
0.51337504 0.033124082 0.048217438
0.51340073 0.033968188 0.048212297
0.51342636 0.034812298 0.048207153
0.51260251 0.035683606 0.047661524
0.5126282 0.036529306 0.047656372
0.51265395 0.037375003 0.047651216
0.51267964 0.038220704 0.047646064
0.51270533 0.039066404 0.047640912
0.51273108 0.039912105 0.047635756
0.51275676 0.040757801 0.047630604
0.51278245 0.041603502 0.047625452
0.51280814 0.042449202 0.047620296
0.51283389 0.043294899 0.047615144
0.51201051 0.044183731 0.047069412
0.51203632 0.045031022 0.047064248
0.51206207 0.045878313 0.047059085
0.51208782 0.046725605 0.047053922
0.51211357 0.0475729 0.047048759
0.51213932 0.048420191 0.047043595
0.51216507 0.049267482 0.047038432
0.51219082 0.050114773 0.047033269
0.51221657 0.050962068 0.047028106
0.51224232 0.051809359 0.047022942
0.51141948 0.052715711 0.046477068
0.51059681 0.053625245 0.045931209
0.50977421 0.054537963 0.045385331
0.50811738 0.010189276 0.044454493
0.50899321 0.011061959 0.044990726
0.51071888 0.011948886 0.046068426
0.51074463 0.012797773 0.046063252
0.51162028 0.013660903 0.046599574
0.51164603 0.014508192 0.046594411
0.51167178 0.015355485 0.046589248
0.51254714 0.016212244 0.047125574
0.51257288 0.017057944 0.047120418
0.51259857 0.017903643 0.047115266
0.51262426 0.018749341 0.047110114
0.51264995 0.01959504 0.047104958
0.5126757 0.020440741 0.047099806
0.51270139 0.021286439 0.047094654
0.51272708 0.02213214 0.047089498
0.51275283 0.022977838 0.047084346
0.51277852 0.023823539 0.047079191
0.51280421 0.024669237 0.047074039
0.5128299 0.025514936 0.047068886
0.51285565 0.026360637 0.047063731
0.51288134 0.027206335 0.047058579
0.51290703 0.028052036 0.047053427
0.51293272 0.028897734 0.047048271
0.51295847 0.029743435 0.047043119
0.51298416 0.030589134 0.047037963
0.51300985 0.031434834 0.047032811
0.51303554 0.032280531 0.047027659
0.51306129 0.033126231 0.047022503
0.51308697 0.033971932 0.047017351
0.51311266 0.034817632 0.047012199
0.51313835 0.035663329 0.047007043
0.5131641 0.03650903 0.047001891
0.51318979 0.03735473 0.046996735
0.51321548 0.038200427 0.046991583
0.51324123 0.039046127 0.046986431
0.51326692 0.039891828 0.046981275
0.51329261 0.040737528 0.046976123
0.51247013 0.04162154 0.046429191
0.51249588 0.042468831 0.046424028
0.51252168 0.043316122 0.046418864
0.51254743 0.044163417 0.046413701
0.51257318 0.045010708 0.046408538
0.51259893 0.045857999 0.046403375
0.51262468 0.046705291 0.046398211
0.51265043 0.047552586 0.046393048
0.51267618 0.048399877 0.046387885
0.51270193 0.049247168 0.046382722
0.51272768 0.050094459 0.046377558
0.51275343 0.050941754 0.046372395
0.51277918 0.051789045 0.046367232
0.51195735 0.052695356 0.045820128
0.51028818 0.053665463 0.044731114
0.50946665 0.054579735 0.044183992
0.50864518 0.055497196 0.043636855
0.50697643 0.056483231 0.04254771
0.50446057 0.057542618 0.040916577
0.50279236 0.058542982 0.039827377
0.50197148 0.059479553 0.03928012
0.50521016 0.0083661312 0.041633677
0.50693429 0.0092706531 0.042713728
0.50865829 0.01016881 0.043793857
0.50953311 0.01104153 0.04433132
0.51040787 0.011911067 0.044868805
0.5112825 0.012777421 0.045406308
0.51130831 0.013626306 0.045401137
0.51218289 0.014487878 0.0459387
0.51220864 0.015335171 0.045933537
0.51223439 0.016182465 0.045928374
0.51226014 0.017029757 0.045923211
0.51313442 0.017883366 0.046460792
0.51316011 0.018729066 0.046455637
0.51318586 0.019574765 0.046450485
0.51321155 0.020420464 0.046445329
0.51323724 0.021266164 0.046440177
0.51326293 0.022111865 0.046435025
0.51328868 0.022957563 0.046429869
0.51331437 0.023803262 0.046424717
0.51334006 0.024648961 0.046419565
0.51336575 0.025494661 0.046414409
0.51339149 0.02634036 0.046409257
0.51341718 0.02718606 0.046404105
0.51344287 0.028031759 0.046398949
0.51346862 0.028877459 0.046393797
0.51349431 0.029723158 0.046388641
0.51352 0.030568859 0.046383489
0.51354569 0.031414557 0.046378337
0.51357144 0.032260258 0.046373181
0.51359713 0.033105955 0.046368029
0.51362282 0.033951655 0.046362877
0.51364851 0.034797356 0.046357721
0.51367426 0.035643056 0.046352569
0.51369995 0.036488753 0.046347413
0.51372564 0.037334453 0.046342261
0.51290399 0.038212057 0.045794133
0.51292974 0.039059348 0.04578897
0.51295549 0.039906643 0.045783807
0.51298124 0.040753935 0.045778643
0.51300699 0.041601226 0.04577348
0.51303279 0.042448517 0.045768317
0.51305854 0.043295808 0.045763154
0.51308429 0.044143103 0.04575799
0.51311004 0.044990394 0.045752827
0.51313579 0.045837685 0.045747664
0.51316154 0.046684977 0.045742501
0.51318729 0.047532272 0.045737337
0.51321304 0.048379563 0.045732174
0.51239204 0.049279466 0.045183875
0.51241785 0.050128352 0.045178704
0.5124436 0.050977238 0.04517353
0.51246941 0.051826119 0.045168359
0.51164871 0.052733984 0.044620041
0.51082808 0.053645033 0.044071704
0.50916111 0.054621436 0.04298019
0.50834066 0.05554045 0.042431775
0.50667405 0.056527998 0.041340191
0.50500757 0.057521921 0.040248539
0.50418752 0.058453675 0.039700076
0.50252146 0.05945874 0.038608391
0.50170171 0.060398459 0.038059879
0.50088197 0.061341368 0.037511315
0.50053465 0.0038543104 0.037731353
0.50056106 0.0047238986 0.037726052
0.50228387 0.0056507946 0.038808435
0.50315833 0.0065442617 0.039347004
0.50403273 0.0074345409 0.039885595
0.50575507 0.0083455127 0.040968109
0.50747722 0.00925011 0.042050626
0.50835127 0.010127652 0.042589325
0.50922513 0.011002004 0.043128014
0.51094675 0.011890677 0.044210628
0.51097262 0.012741156 0.044205446
0.51184618 0.013605954 0.04474419
0.51187199 0.014454838 0.044739019
0.5127455 0.015314857 0.045277826
0.51277125 0.016162151 0.045272663
0.512797 0.017009443 0.0452675
0.51282275 0.017856734 0.045262337
0.51284856 0.018704027 0.045257173
0.51287431 0.019551318 0.04525201
0.51290005 0.020398611 0.045246847
0.51377308 0.021245888 0.045785699
0.51379883 0.022091588 0.045780547
0.51382452 0.022937287 0.045775391
0.51385021 0.023782987 0.045770239
0.5138759 0.024628686 0.045765083
0.51390165 0.025474386 0.045759931
0.51392734 0.026320085 0.045754779
0.51395303 0.027165784 0.045749623
0.51397872 0.028011484 0.045744471
0.51400447 0.028857183 0.045739319
0.51403016 0.029702883 0.045734163
0.51405585 0.030548582 0.045729011
0.51408154 0.03139428 0.045723855
0.51410729 0.032239981 0.045718703
0.51413298 0.033085681 0.045713551
0.51415867 0.033931378 0.045708396
0.51333785 0.034802575 0.045159072
0.5133636 0.035649866 0.045153908
0.51338935 0.036497161 0.045148745
0.5134151 0.037344452 0.045143582
0.51344085 0.038191743 0.045138419
0.5134666 0.039039034 0.045133255
0.51349235 0.039886329 0.045128092
0.51351815 0.040733621 0.045122929
0.5135439 0.041580912 0.045117766
0.51356965 0.042428203 0.045112602
0.5135954 0.043275494 0.045107439
0.51277506 0.044165805 0.04455797
0.51280087 0.045014691 0.044552796
0.51282668 0.045863576 0.044547621
0.51285249 0.046712458 0.04454245
0.5128783 0.047561344 0.044537276
0.51290411 0.048410229 0.044532105
0.51292992 0.049259115 0.044526931
0.51295573 0.050108001 0.044521756
0.51298153 0.050956883 0.044516586
0.51216173 0.051863119 0.043967046
0.51134205 0.052772533 0.043417491
0.51136798 0.053624608 0.043412298
0.50970304 0.054600928 0.042318318
0.50803822 0.055583626 0.041224267
0.50721896 0.056507379 0.040674623
0.5055545 0.057501227 0.039580505
0.50473553 0.05843294 0.039030809
0.50391662 0.059367843 0.038481098
0.5022527 0.060377609 0.037386913
0.50143397 0.06132048 0.03683712
0.50018537 0.0020592175 0.036523912
0.50021183 0.0029304016 0.036518604
0.50108564 0.0038334616 0.037058383
0.5011121 0.00470305 0.037053082
0.50283283 0.0056300224 0.038137931
0.50370634 0.0065235277 0.038677733
0.50457966 0.007413845 0.039217558
0.50630003 0.0083248932 0.040302534
0.50717312 0.0092072459 0.040842406
0.50889313 0.010107148 0.041927449
0.50976604 0.010981537 0.042467371
0.51063883 0.011852744 0.04300731
0.5115115 0.012720766 0.043547269
0.51153737 0.013571244 0.043542087
0.51240987 0.014434486 0.044082075
0.51243567 0.015283369 0.044076901
0.51246148 0.016132256 0.044071727
0.51333392 0.016989129 0.044611786
0.51335967 0.01783642 0.044606626
0.51338542 0.018683713 0.044601463
0.51341116 0.019531004 0.0445963
0.51343691 0.020378297 0.044591136
0.51346266 0.021225588 0.044585973
0.51348841 0.022072881 0.04458081
0.51351416 0.022920173 0.044575647
0.51353991 0.023767464 0.044570483
0.51356566 0.024614755 0.04456532
0.51359141 0.025462048 0.044560157
0.51361716 0.026309341 0.044554994
0.51364291 0.027156632 0.04454983
0.51366872 0.028003925 0.044544667
0.51369447 0.028851217 0.044539504
0.51372021 0.02969851 0.044534341
0.51374596 0.030545801 0.044529177
0.51377171 0.031393092 0.044524014
0.51379746 0.032240383 0.044518851
0.51382321 0.033087678 0.044513687
0.51384896 0.033934969 0.044508524
0.51387471 0.034782261 0.044503361
0.51390046 0.035629552 0.044498198
0.51392621 0.036476847 0.044493034
0.51395196 0.037324138 0.044487871
0.51397771 0.038171429 0.044482708
0.51400352 0.03901872 0.044477545
0.51402926 0.039866015 0.044472381
0.51320976 0.040749915 0.043921717
0.51323557 0.041598801 0.043916542
0.51326138 0.042447682 0.043911368
0.51328719 0.043296568 0.043906197
0.51331294 0.044145454 0.043901023
0.51333874 0.044994339 0.043895852
0.51336455 0.045843221 0.043890677
0.51339036 0.046692107 0.043885503
0.51341617 0.047540992 0.043880332
0.51344198 0.048389878 0.043875158
0.51346779 0.049238764 0.043869987
0.51264894 0.05014177 0.043319233
0.51267475 0.05099225 0.043314051
0.51270062 0.051842727 0.043308869
0.51188195 0.052752107 0.042758081
0.51021892 0.053725168 0.041661654
0.50940049 0.054642517 0.041110784
0.50858217 0.055563044 0.040559925
0.50776392 0.056486759 0.040009052
0.50610149 0.057480529 0.038912464
0.50528347 0.058412205 0.038361538
0.50446558 0.059347071 0.037810594
0.50280368 0.060356762 0.036713947
0.50283015 0.061226349 0.036708646
0.50201249 0.062170774 0.036157612
0.50073737 0.002038331 0.035849717
0.50076383 0.0029095148 0.035844408
0.50163662 0.0038126132 0.036385417
0.50166309 0.0046822014 0.03638012
0.50338185 0.0056092502 0.037467431
0.50425428 0.0065027936 0.038008466
0.50512666 0.0073931492 0.03854952
0.50684494 0.0083042737 0.039636966
0.50771707 0.0091866646 0.040178068
0.50943506 0.010086643 0.041265577
0.51030695 0.010961071 0.041806731
0.51117873 0.011832315 0.042347904
0.51205039 0.012700375 0.042889096
0.51207626 0.013550853 0.042883914
0.51210207 0.014401329 0.042878728
0.51297355 0.015263017 0.043419957
0.51299936 0.016111903 0.043414786
0.51302516 0.016960789 0.043409612
0.51305097 0.017809672 0.043404441
0.51307678 0.018658558 0.043399267
0.51394802 0.01951069 0.043940589
0.51397377 0.020357983 0.043935426
0.51399952 0.021205274 0.043930262
0.51402527 0.022052567 0.043925099
0.51405102 0.022899859 0.043919936
0.51407677 0.023747152 0.043914773
0.51410252 0.024594443 0.043909609
0.51412827 0.025441734 0.043904446
0.51415402 0.026289027 0.043899283
0.51417983 0.027136318 0.04389412
0.51420557 0.027983611 0.043888956
0.51423132 0.028830903 0.043883793
0.51425707 0.029678196 0.04387863
0.51428282 0.030525487 0.043873467
0.51430857 0.031372778 0.043868303
0.51433432 0.032220069 0.04386314
0.51436007 0.033067364 0.043857977
0.51438582 0.033914655 0.043852814
0.51441157 0.034761947 0.04384765
0.51359284 0.035636254 0.043295808
0.51361865 0.036485139 0.043290637
0.5136444 0.037334021 0.043285463
0.51367021 0.038182907 0.043280292
0.51369601 0.039031792 0.043275118
0.51372182 0.039880678 0.043269947
0.51374763 0.040729564 0.043264773
0.51377344 0.041578446 0.043259598
0.51379925 0.042427331 0.043254428
0.51382506 0.043276217 0.043249253
0.51385087 0.044125102 0.043244082
0.51387662 0.044973984 0.043238908
0.51305854 0.045868997 0.042686976
0.51308441 0.046719473 0.042681791
0.51311028 0.047569949 0.042676609
0.51313609 0.048420426 0.042671427
0.51316196 0.049270906 0.042666245
0.51318783 0.050121382 0.042661063
0.51321363 0.050971858 0.042655878
0.51239598 0.051879607 0.042103864
0.51157838 0.052790541 0.041551836
0.51076084 0.053704664 0.040999781
0.50994337 0.054621972 0.040447678
0.50912607 0.055542465 0.03989559
0.50746554 0.056531373 0.0387966
0.50664842 0.057459835 0.03824443
0.50583148 0.058391474 0.037692271
0.5050146 0.059326299 0.037140094
0.50419778 0.060264308 0.036587898
0.50338113 0.061205503 0.036035683
0.50340754 0.062075093 0.036030382
0.50210834 0.0011829956 0.03572835
0.50128937 0.0020174442 0.035175521
0.5021612 0.0029221762 0.035717752
0.50218761 0.0037917646 0.035712451
0.50221407 0.0046613528 0.035707153
0.50393081 0.0055884779 0.036796931
0.50480223 0.0064820596 0.037339199
0.50567359 0.0073724538 0.037881486
0.50654489 0.0082596624 0.038423825
0.50826102 0.0091660833 0.039513733
0.50913203 0.010045331 0.040056087
0.51000297 0.010921393 0.040598493
0.51087379 0.011794267 0.041140888
0.5117445 0.012663959 0.041683305
0.51261514 0.013530463 0.042225737
0.51264095 0.014380938 0.042220555
0.51266682 0.015231416 0.042215373
0.51269269 0.016081896 0.042210188
0.51356304 0.016940437 0.042752672
0.51358885 0.017789319 0.042747498
0.51361465 0.018638205 0.042742327
0.51364046 0.019487089 0.042737152
0.51366627 0.020335974 0.042731978
0.51369208 0.02118486 0.042726807
0.51371783 0.022033745 0.042721633
0.51374364 0.022882629 0.042716462
0.51376945 0.023731515 0.042711288
0.51379526 0.024580399 0.042706113
0.51382107 0.025429284 0.042700943
0.51384687 0.026278168 0.042695768
0.51387268 0.027127054 0.042690597
0.51389849 0.027975937 0.042685423
0.5139243 0.028824823 0.042680252
0.51395005 0.029673707 0.042675078
0.51397586 0.030522592 0.042669903
0.51400167 0.031371478 0.042664733
0.51402748 0.032220364 0.042659558
0.51405329 0.033069246 0.042654388
0.51407909 0.033918131 0.042649213
0.5141049 0.034767017 0.042644043
0.51413071 0.035615902 0.042638868
0.51415652 0.036464784 0.042633694
0.51418227 0.03731367 0.042628523
0.51420808 0.038162556 0.042623349
0.51423389 0.039011441 0.042618178
0.5142597 0.039860327 0.042613003
0.5142855 0.040709209 0.042607829
0.51346821 0.041596215 0.042054713
0.51349401 0.042446695 0.042049531
0.51351988 0.043297172 0.042044345
0.51354575 0.044147648 0.042039163
0.51357156 0.044998128 0.042033982
0.51359743 0.045848604 0.0420288
0.5136233 0.046699081 0.042023618
0.51364917 0.047549561 0.042018436
0.51367497 0.048400037 0.04201325
0.51285815 0.049302969 0.041460037
0.51288408 0.05015504 0.041454844
0.51290995 0.051007111 0.041449651
0.51293588 0.051859181 0.041444458
0.51211923 0.052770074 0.040891193
0.51130277 0.05368416 0.040337909
0.50964391 0.054663442 0.039236482
0.50882769 0.055585489 0.03868315
0.50801152 0.056510717 0.038129799
0.50719541 0.057439137 0.037576396
0.50637943 0.058370739 0.037023004
0.50640571 0.05923555 0.037017737
0.5055899 0.060171928 0.036464315
0.50477415 0.061111495 0.035910875
0.50480056 0.061979491 0.035905585
0.50265932 0.001162147 0.035055384
0.50268579 0.0020317372 0.035050083
0.50271219 0.0029013276 0.035044786
0.50273865 0.003770916 0.035039485
0.50360924 0.0046709045 0.035582948
0.50447977 0.0055677062 0.036126431
0.50535023 0.0064613256 0.036669932
0.50622052 0.007351758 0.037213452
0.50709087 0.0082390048 0.037757024
0.50880492 0.009145502 0.038849395
0.50967491 0.010024788 0.039392982
0.5105449 0.010900888 0.039936621
0.51141471 0.0117738 0.040480249
0.5122844 0.01264353 0.041023895
0.51315403 0.013510073 0.04156756
0.51317984 0.014360548 0.041562378
0.51320571 0.015211025 0.041557197
0.51323158 0.016061505 0.041552015
0.51325738 0.016911982 0.041546833
0.51412672 0.017768968 0.042090558
0.51415253 0.018617854 0.042085383
0.51417834 0.019466737 0.042080209
0.51420414 0.020315623 0.042075038
0.51422995 0.021164507 0.042069864
0.51425576 0.022013392 0.042064693
0.51428151 0.022862276 0.042059518
0.51430732 0.023711162 0.042054348
0.51433313 0.024560045 0.042049173
0.51435894 0.025408931 0.042043999
0.51438475 0.026257817 0.042038828
0.51441056 0.0271067 0.042033654
0.51443636 0.027955586 0.042028483
0.51446217 0.02880447 0.042023309
0.51448798 0.029653355 0.042018134
0.51451373 0.030502241 0.042012963
0.51453954 0.031351127 0.042007789
0.51456535 0.032200009 0.042002618
0.51459116 0.033048894 0.041997444
0.51461697 0.03389778 0.041992273
0.51464278 0.034746666 0.041987099
0.51466858 0.035595547 0.041981924
0.51385194 0.036472961 0.041427631
0.51387781 0.037323438 0.041422449
0.51390368 0.038173918 0.041417267
0.51392955 0.039024394 0.041412085
0.51395535 0.03987487 0.041406903
0.51398122 0.04072535 0.041401718
0.51400709 0.041575827 0.041396536
0.5140329 0.042426303 0.041391354
0.51405877 0.043276783 0.041386172
0.51408464 0.044127259 0.04138099
0.51411045 0.044977736 0.041375808
0.51413631 0.045828216 0.041370623
0.51332033 0.046726331 0.040816203
0.51334625 0.047578402 0.040811013
0.51337212 0.048430473 0.04080582
0.51339805 0.049282543 0.040800627
0.51342392 0.050134614 0.040795434
0.51260829 0.051042285 0.040240958
0.51263422 0.051895946 0.040235754
0.51181865 0.0528084 0.039681248
0.5110032 0.053724039 0.03912669
0.51018786 0.05464286 0.038572144
0.50937259 0.055564869 0.038017578
0.50855744 0.05649006 0.037462994
0.50774235 0.057418443 0.036908358
0.50692737 0.058350004 0.036353737
0.50695366 0.059214815 0.036348466
0.50613886 0.060151156 0.035793815
0.50616521 0.061017562 0.035788532
0.50619155 0.061883964 0.035783254
0.5062179 0.062750369 0.035777975
0.50405371 0.0011781078 0.034932371
0.50408012 0.0020461045 0.034927081
0.50410646 0.0029141011 0.034921795
0.50413287 0.0037820977 0.034916505
0.50415921 0.0046500945 0.034911215
0.50502878 0.005546934 0.035455931
0.50589818 0.0064405915 0.036000665
0.50676751 0.0073310621 0.036545414
0.50763679 0.008218348 0.03709022
0.50850594 0.009102447 0.037635013
0.51021785 0.010004245 0.038729876
0.51108682 0.010880383 0.039274748
0.51195556 0.011753334 0.039819609
0.5128243 0.012623101 0.040364485
0.51285017 0.013475171 0.040359296
0.51287609 0.01432724 0.040354103
0.51374459 0.015190635 0.04089902
0.51377046 0.016041115 0.040893838
0.51379627 0.016891591 0.040888656
0.51382214 0.017742068 0.040883474
0.51384801 0.018592546 0.040878292
0.51387382 0.019443024 0.040873107
0.51389968 0.0202935 0.040867925
0.51476783 0.021144155 0.041412923
0.51479363 0.021993041 0.041407749
0.51481938 0.022841925 0.041402578
0.51484519 0.02369081 0.041397404
0.514871 0.024539694 0.041392229
0.51489681 0.02538858 0.041387059
0.51408064 0.026246842 0.040831648
0.51410651 0.02709732 0.040826466
0.51413232 0.027947798 0.040821284
0.51415819 0.028798275 0.040816098
0.51418406 0.029648753 0.040810917
0.51420993 0.030499229 0.040805735
0.51423573 0.031349707 0.040800553
0.5142616 0.032200184 0.040795371
0.51428747 0.033050664 0.040790189
0.51431328 0.03390114 0.040785003
0.51433915 0.034751616 0.040779822
0.51436502 0.035602093 0.04077464
0.51439083 0.036452573 0.040769458
0.51441669 0.037303049 0.040764276
0.51444256 0.038153525 0.04075909
0.51446843 0.039004005 0.040753908
0.51449424 0.039854482 0.040748727
0.51452011 0.040704958 0.040743545
0.51370484 0.041593481 0.040187951
0.51373076 0.042445552 0.040182758
0.51375663 0.043297622 0.040177565
0.51378256 0.044149693 0.040172372
0.51380843 0.045001764 0.040167179
0.51383436 0.045853835 0.04016199
0.51386023 0.046705902 0.040156797
0.51388615 0.047557972 0.040151604
0.5130713 0.04846083 0.039595924
0.51309729 0.049314491 0.039590724
0.51312321 0.050168157 0.03958552
0.5123086 0.051077385 0.039029799
0.51233459 0.05193264 0.039024588
0.51236057 0.052787893 0.039019376
0.51154613 0.053703494 0.038463585
0.51073176 0.054622281 0.037907809
0.50991756 0.05554425 0.037352011
0.50910342 0.056469403 0.036796194
0.50828928 0.057397746 0.036240324
0.50831556 0.058260966 0.036235064
0.50750166 0.059194081 0.035679199
0.50752795 0.060058892 0.035673928
0.50755423 0.060923707 0.03566866
0.50674051 0.061863195 0.035112754
0.5076068 0.062653325 0.035658121
0.50763309 0.063518137 0.03565285
0.50768566 0.065247759 0.035642311
0.50541973 0.00032773835 0.034817107
0.50460368 0.0011572976 0.034260642
0.50463009 0.0020252941 0.034255352
0.50465643 0.0028932907 0.034250062
0.50468284 0.0037612875 0.034244772
0.5055514 0.0046597589 0.03479071
0.50641984 0.0055550444 0.035336666
0.50644612 0.0064198575 0.035331395
0.50731444 0.0073103663 0.035877381
0.50818276 0.0081976904 0.036423419
0.50905085 0.0090818275 0.036969446
0.51076078 0.0099837016 0.038066771
0.51078683 0.010840548 0.038061548
0.51165468 0.011715133 0.038607664
0.51252246 0.01258653 0.039153766
0.51339006 0.013454743 0.03969989
0.51341599 0.014306812 0.039694697
0.51344186 0.015158881 0.039689504
0.51346779 0.016010953 0.039684311
0.51433516 0.016871201 0.040230479
0.51436102 0.017721677 0.040225297
0.51438689 0.018572155 0.040220115
0.5144127 0.019422634 0.040214933
0.51443857 0.02027311 0.040209752
0.51446444 0.021123588 0.04020457
0.51449025 0.021974066 0.040199384
0.51451612 0.022824543 0.040194202
0.51454198 0.023675021 0.04018902
0.51456785 0.024525497 0.040183838
0.51459366 0.025375975 0.040178657
0.51461953 0.026226452 0.040173471
0.5146454 0.02707693 0.040168289
0.51467121 0.027927408 0.040163107
0.51469707 0.028777884 0.040157925
0.51472294 0.029628363 0.040152743
0.51474875 0.030478839 0.040147558
0.51477462 0.031329315 0.040142376
0.51480049 0.032179795 0.040137194
0.51482636 0.033030272 0.040132012
0.51485217 0.033880748 0.04012683
0.51487803 0.034731228 0.040121648
0.51406348 0.035608564 0.039564889
0.51408935 0.036460634 0.039559696
0.51411527 0.037312705 0.039554507
0.51414114 0.038164772 0.039549313
0.51416707 0.039016843 0.03954412
0.51419294 0.039868914 0.039538927
0.51421887 0.040720984 0.039533734
0.51424474 0.041573055 0.039528545
0.51427066 0.042425126 0.039523352
0.51429653 0.043277193 0.039518159
0.51432246 0.044129264 0.039512966
0.51434833 0.044981334 0.039507773
0.51353437 0.045879375 0.038950887
0.51356035 0.046733037 0.038945686
0.51358628 0.047586702 0.038940486
0.5127725 0.048491113 0.038383562
0.51279849 0.049346369 0.03837835
0.51282454 0.050201625 0.038373139
0.51285052 0.051056881 0.038367927
0.51203692 0.051969256 0.037810922
0.51206297 0.052826103 0.037805699
0.5112496 0.053743258 0.037248701
0.51127571 0.054601699 0.037243471
0.51046246 0.05552363 0.036686439
0.50964934 0.056448743 0.036129389
0.50967556 0.057310373 0.03612414
0.5088625 0.058240268 0.03556703
0.50888872 0.059103489 0.03556177
0.50807589 0.060038161 0.03500466
0.50810218 0.060902972 0.034999389
0.50812846 0.061767783 0.034994122
0.50815475 0.062632591 0.03498885
0.50818104 0.063497402 0.034983579
0.50820732 0.06436222 0.034978312
0.50823361 0.065227024 0.03497304
0.50681013 0.00034544556 0.034699019
0.50599504 0.0011733692 0.034141328
0.50602138 0.002039776 0.034136049
0.50604773 0.0029061788 0.034130771
0.50607401 0.0037725836 0.034125488
0.50610036 0.0046389867 0.03412021
0.50696784 0.0055343108 0.034667399
0.50783521 0.0064264513 0.035214607
0.50786144 0.0072896704 0.035209347
0.50956964 0.0082011763 0.036309112
0.51043671 0.0090837581 0.036856383
0.51130366 0.0099631594 0.037403665
0.51132971 0.010820006 0.037398446
0.5121966 0.011694628 0.037945792
0.51306331 0.012566064 0.038493127
0.5130893 0.013419727 0.038487926
0.51395589 0.014286383 0.039035287
0.51398176 0.015138453 0.039030094
0.51400769 0.015990524 0.039024904
0.51403356 0.016842593 0.039019711
0.51405948 0.017694663 0.039014518
0.51408535 0.018546734 0.039009325
0.51495159 0.019402243 0.039556757
0.51497746 0.02025272 0.039551575
0.51500332 0.021103198 0.039546393
0.51502913 0.021953676 0.039541211
0.515055 0.022804152 0.039536029
0.51508087 0.02365463 0.039530843
0.51510674 0.024505107 0.039525662
0.51513255 0.025355585 0.03952048
0.51515841 0.026206061 0.039515298
0.51518428 0.027056539 0.039510116
0.51521009 0.027907018 0.03950493
0.51523596 0.028757494 0.039499748
0.51442206 0.029623644 0.038941827
0.51444793 0.030475715 0.038936634
0.51447386 0.031327784 0.038931441
0.51449972 0.032179855 0.038926251
0.51452565 0.033031926 0.038921058
0.51455152 0.033883996 0.038915865
0.51457745 0.034736063 0.038910672
0.51460332 0.035588134 0.038905479
0.51462924 0.036440205 0.03890029
0.51465511 0.037292276 0.038895097
0.51468104 0.038144346 0.038889904
0.51470697 0.038996417 0.038884711
0.51473284 0.039848484 0.038879521
0.51391959 0.040736932 0.038321462
0.51394558 0.041590594 0.038316257
0.51397151 0.042444259 0.038311057
0.51399744 0.04329792 0.038305856
0.51402336 0.044151582 0.038300652
0.51404935 0.045005247 0.038295452
0.51323646 0.045904841 0.037737325
0.51326245 0.046760097 0.037732113
0.51328844 0.047615353 0.037726901
0.51331443 0.048470609 0.03772169
0.51250172 0.049378168 0.037163481
0.51252776 0.050235018 0.037158262
0.51255381 0.051091865 0.037153039
0.51257986 0.051948711 0.03714782
0.51176745 0.052864235 0.036589596
0.51179355 0.05372268 0.036584362
0.51098126 0.054642975 0.036026109
0.51100743 0.055503011 0.036020868
0.51019531 0.056428086 0.035462588
0.51022148 0.057289716 0.035457335
0.50940943 0.058219574 0.034898993
0.50943571 0.059082791 0.034893733
0.50946194 0.059946008 0.034888472
0.50948817 0.060809229 0.034883212
0.50951439 0.061672449 0.034877952
0.50954062 0.062535666 0.034872692
0.50872898 0.063476667 0.034314312
0.50875527 0.064341486 0.034309044
0.50878155 0.065206289 0.034303773
0.50797015 0.066153668 0.033745356
0.50733179 -0.00054010149 0.03403502
0.50735807 0.00032471152 0.034029748
0.50738436 0.0011895208 0.034024477
0.50741065 0.0020543321 0.034019209
0.50743693 0.0029191449 0.034013938
0.50746322 0.0037839543 0.034008667
0.5074895 0.0046487655 0.034003399
0.50835592 0.0055425358 0.034551829
0.50838214 0.0064057554 0.034546569
0.50924844 0.0072947489 0.035095062
0.51011461 0.0081805568 0.035643544
0.51098067 0.0090631768 0.036192041
0.5118466 0.0099426163 0.03674056
0.51187265 0.010799463 0.036735341
0.51273853 0.011674123 0.03728392
0.51276451 0.01252938 0.037278708
0.51363021 0.01339926 0.037827287
0.51365614 0.014252922 0.037822083
0.51368207 0.015106584 0.037816882
0.51454759 0.015970096 0.038365498
0.51457345 0.016822165 0.038360305
0.51459938 0.017674236 0.038355112
0.51462525 0.018526305 0.038349919
0.51465118 0.019378375 0.03834473
0.51467705 0.020230446 0.038339537
0.51470298 0.021082515 0.038334344
0.51472884 0.021934586 0.038329151
0.51475477 0.022786656 0.038323957
0.51478064 0.023638725 0.038318768
0.51480657 0.024490796 0.038313575
0.51483244 0.025342865 0.038308382
0.51485837 0.026194936 0.038303189
0.51488423 0.027047006 0.038297996
0.51491016 0.027899075 0.038292807
0.51493603 0.028751146 0.038287614
0.51496196 0.029603217 0.03828242
0.51498783 0.030455286 0.038277227
0.51501375 0.031307355 0.038272038
0.51503962 0.032159425 0.038266845
0.51506555 0.033011496 0.038261652
0.51509142 0.033863567 0.038256459
0.51427889 0.034740828 0.037697237
0.51430482 0.035594489 0.037692033
0.51433074 0.036448151 0.037686832
0.51435673 0.037301816 0.037681628
0.51438266 0.038155477 0.037676428
0.51440859 0.039009143 0.037671227
0.51443458 0.039862804 0.037666023
0.5144605 0.040716466 0.037660822
0.51364839 0.041608062 0.037101511
0.51367438 0.042463318 0.037096299
0.51370037 0.04331857 0.037091088
0.51372635 0.044173826 0.037085876
0.51375234 0.045029081 0.037080664
0.51377833 0.045884337 0.037075453
0.51296651 0.046787083 0.036516041
0.51299256 0.04764393 0.036510821
0.51301861 0.048500776 0.036505599
0.51304466 0.049357627 0.036500376
0.51223308 0.050268333 0.035940949
0.51225919 0.051126774 0.035935719
0.51228529 0.051985215 0.035930488
0.5123114 0.052843653 0.035925258
0.51150006 0.053762324 0.035365779
0.51152623 0.054622356 0.035360537
0.51155233 0.055482391 0.0353553
0.51074123 0.056407429 0.034795783
0.5107674 0.057269055 0.034790535
0.51079363 0.058130682 0.034785282
0.50998265 0.059062097 0.034225699
0.51000887 0.059925314 0.034220435
0.5100351 0.060788535 0.034215175
0.51006138 0.061651751 0.034209915
0.51008761 0.062514968 0.034204654
0.50927699 0.063455939 0.033645045
0.50930327 0.064320751 0.033639774
0.50849277 0.065266497 0.033080135
0.50768238 0.066215418 0.032520477
0.42448589 0.11776248 -0.023735989
0.50787973 -0.00056083553 0.033365749
0.50874543 0.00034252953 0.033915356
0.50793231 0.0011687868 0.03335521
0.50795859 0.002033598 0.033349939
0.50798488 0.0028984109 0.033344667
0.50801116 0.0037632203 0.0333394
0.50887662 0.0046586227 0.033889055
0.50890285 0.00552184 0.033883795
0.50976819 0.0064124656 0.034433506
0.50979441 0.0072740912 0.034428257
0.51065952 0.0081599373 0.034977969
0.51152456 0.0090425955 0.035527702
0.51155066 0.0099010384 0.035522472
0.51241559 0.01077892 0.036072232
0.51244164 0.011635768 0.036067009
0.51330644 0.012508875 0.036616832
0.51333243 0.013364129 0.03661162
0.51335841 0.014219384 0.036606409
0.51422298 0.015086117 0.037156239
0.51424891 0.015939781 0.037151039
0.5142749 0.016793443 0.037145834
0.51430082 0.017647106 0.037140634
0.51432675 0.01850077 0.03713543
0.51519108 0.019357948 0.037685316
0.51521695 0.020210017 0.037680123
0.51524287 0.021062087 0.037674934
0.51526874 0.021914156 0.037669741
0.51529467 0.022766227 0.037664548
0.51532054 0.023618298 0.037659355
0.51534647 0.024470367 0.037654161
0.51537234 0.025322437 0.037648972
0.51539826 0.026174508 0.037643779
0.51542413 0.027026577 0.037638586
0.51545006 0.027878648 0.037633393
0.51463813 0.028744722 0.037073009
0.51466411 0.029598383 0.037067804
0.51469004 0.030452047 0.037062604
0.51471597 0.031305708 0.037057403
0.51474196 0.032159373 0.037052199
0.51476789 0.033013035 0.037046999
0.51479381 0.033866696 0.037041795
0.5148198 0.034720361 0.037036594
0.51400834 0.035600767 0.036476117
0.51403433 0.036456022 0.036470905
0.51406032 0.037311278 0.036465693
0.51408631 0.038166534 0.036460482
0.51411229 0.03902179 0.03645527
0.51413828 0.039877046 0.036450058
0.51416427 0.040732302 0.036444847
0.51419032 0.041587554 0.036439635
0.5142163 0.04244281 0.036434423
0.51424229 0.043298066 0.036429211
0.51343131 0.044195995 0.035868596
0.51345736 0.045052841 0.035863377
0.51348341 0.045909692 0.035858154
0.51350945 0.046766538 0.035852931
0.5135355 0.047623388 0.035847712
0.51272482 0.048530869 0.035287071
0.51275092 0.04938931 0.035281841
0.51277703 0.050247751 0.03527661
