# .PCD v0.7 - Point Cloud Data file format
VERSION 0.7
FIELDS x y z
SIZE 4 4 4
TYPE F F F
COUNT 1 1 1
WIDTH 1352
HEIGHT 1
VIEWPOINT 0 0 0 1 0 0 0
POINTS 1352
DATA ascii
0.49364507 0.0095230415 0.025800677
0.49367213 0.010413335 0.025795251
0.49369919 0.011303628 0.025789827
0.49372625 0.012193922 0.025784401
0.49375331 0.013084217 0.025778975
0.49378037 0.01397451 0.025773551
0.49380744 0.014864803 0.025768125
0.4938345 0.015755098 0.0257627
0.49386156 0.016645391 0.025757276
0.49388862 0.017535685 0.02575185
0.49391568 0.018425979 0.025746424
0.4931024 0.019312833 0.025188375
0.49312952 0.020204721 0.02518294
0.49315661 0.021096606 0.025177507
0.49318373 0.021988492 0.025172072
0.49321082 0.022880379 0.025166636
0.49323794 0.023772266 0.025161201
0.49326506 0.024664152 0.025155766
0.49329215 0.025556039 0.025150331
0.49331927 0.026447924 0.025144897
0.49250641 0.027350707 0.024586719
0.49253359 0.028244186 0.024581274
0.49256074 0.029137665 0.02457583
0.49174812 0.030046817 0.024017645
0.49177533 0.030941889 0.024012191
0.49180254 0.03183696 0.024006736
0.49099013 0.032752484 0.023448514
0.49101737 0.033649147 0.023443049
0.49020511 0.034569446 0.022884797
0.49023241 0.035467703 0.022879323
0.48942029 0.036392782 0.022321042
0.48944765 0.037292633 0.022315558
0.48947501 0.038192481 0.022310074
0.48950234 0.039092332 0.022304591
0.48869044 0.040025376 0.021746226
0.48871782 0.040926818 0.021740733
0.49106288 -0.038788177 0.024298165
0.49109006 -0.037894692 0.02429272
0.49195963 -0.036897391 0.024840556
0.49198675 -0.036005508 0.024835121
0.49201387 -0.035113618 0.024829688
0.49204096 -0.034221735 0.024824252
0.49206808 -0.033329844 0.024818817
0.49209517 -0.032437962 0.024813382
0.49212229 -0.031546071 0.024807947
0.49299145 -0.030561522 0.025355823
0.49301851 -0.029671231 0.025350397
0.49304557 -0.028780935 0.025344972
0.49307263 -0.027890643 0.025339548
0.49309969 -0.027000349 0.025334122
0.49312675 -0.026110057 0.025328698
0.49315381 -0.025219763 0.025323272
0.49318087 -0.024329467 0.025317846
0.49320793 -0.023439171 0.025312422
0.49323499 -0.022548877 0.025306996
0.49326205 -0.021658584 0.02530157
0.49328911 -0.020768292 0.025296146
0.49331617 -0.019877998 0.02529072
0.49334323 -0.018987706 0.025285294
0.49337029 -0.018097412 0.02527987
0.49339736 -0.017207116 0.025274444
0.49342442 -0.016316824 0.02526902
0.49345148 -0.01542653 0.025263594
0.49347854 -0.014536237 0.025258169
0.4935056 -0.01364594 0.025252745
0.49353266 -0.012755647 0.025247319
0.49355972 -0.011865354 0.025241893
0.49358678 -0.010975062 0.025236469
0.49361384 -0.010084765 0.025231043
0.4936409 -0.0091944719 0.025225617
0.49366796 -0.0083041787 0.025220193
0.49369502 -0.007413886 0.025214767
0.49372208 -0.0065235929 0.025209343
0.49374914 -0.0056333002 0.025203917
0.4937762 -0.004743007 0.025198491
0.49380326 -0.0038527143 0.025193067
0.49383032 -0.0029624139 0.025187641
0.49385738 -0.0020721208 0.025182215
0.49388444 -0.001181828 0.025176791
0.4939115 -0.00029153499 0.025171366
0.4939386 0.00059875794 0.02516594
0.49396566 0.0014890509 0.025160516
0.49399272 0.0023793457 0.02515509
0.49401978 0.0032696405 0.025149666
0.49404684 0.0041599334 0.02514424
0.4940739 0.0050502266 0.025138814
0.49410096 0.0059405211 0.02513339
0.49412802 0.0068308143 0.025127964
0.49415508 0.007721107 0.025122538
0.49418214 0.0086114015 0.025117114
0.4942092 0.0095016966 0.025111688
0.49339643 0.010372587 0.024552507
0.49342355 0.011264471 0.024547072
0.49345064 0.01215636 0.024541637
0.49347776 0.013048247 0.024536202
0.49350485 0.013940131 0.024530767
0.49353197 0.014832018 0.024525331
0.49355909 0.015723906 0.024519896
0.49358618 0.016615791 0.024514463
0.4936133 0.017507678 0.024509028
0.49364042 0.018399565 0.024503592
0.49366751 0.019291449 0.024498157
0.49369463 0.020183338 0.024492722
0.49372172 0.021075223 0.024487287
0.49374884 0.021967109 0.024481853
0.49377596 0.022858996 0.024476418
0.49296391 0.02375537 0.023917042
0.49299109 0.024648847 0.023911597
0.49301824 0.025542328 0.023906153
0.49304539 0.026435805 0.023900708
0.49307257 0.027329285 0.023895264
0.49309972 0.028222764 0.023889819
0.49228805 0.029130286 0.023330415
0.49231526 0.030025357 0.023324959
0.49234247 0.030920429 0.023319505
0.49236968 0.031815499 0.023314051
0.49155828 0.032730985 0.022754595
0.49158552 0.033627648 0.02274913
0.49077427 0.03454791 0.022189645
0.49164003 0.035420977 0.022738202
0.49082887 0.036344428 0.022178696
0.4908562 0.037242685 0.022173224
0.49004516 0.038170908 0.021613689
0.49007252 0.039070759 0.021608206
0.4892616 0.040003762 0.021048611
0.48928899 0.040905204 0.021043116
0.48847827 0.041842986 0.020483525
0.48850572 0.042746022 0.020478021
0.48769516 0.04368858 0.019918401
0.48688465 0.044634324 0.019358762
0.49247053 -0.038702548 0.024161203
0.49249765 -0.037810657 0.024155768
0.49252477 -0.036918774 0.024150332
0.49255186 -0.036026891 0.024144897
0.49257898 -0.035135001 0.024139462
0.4926061 -0.034243118 0.024134027
0.49263319 -0.033351228 0.024128594
0.49266031 -0.032459345 0.024123158
0.49268743 -0.031567454 0.024117723
0.49271452 -0.030675573 0.024112288
0.49274164 -0.029783683 0.024106853
0.4936097 -0.028802281 0.024655981
0.49363676 -0.027911987 0.024650557
0.49366382 -0.027021695 0.024645131
0.49369088 -0.026131401 0.024639705
0.49371794 -0.025241109 0.024634281
0.493745 -0.024350813 0.024628855
0.49377206 -0.023460515 0.024623429
0.49379912 -0.022570223 0.024618005
0.49382618 -0.021679929 0.024612579
0.49385324 -0.020789636 0.024607154
0.4938803 -0.019899344 0.02460173
0.49390736 -0.01900905 0.024596304
0.49309406 -0.018189164 0.024036199
0.49312118 -0.017297274 0.024030764
0.49314827 -0.016405387 0.02402533
0.49317539 -0.0155135 0.024019895
0.49320251 -0.014621614 0.02401446
0.4932296 -0.013729731 0.024009025
0.49325672 -0.012837844 0.02400359
0.49328381 -0.011945958 0.023998154
0.49331093 -0.011054072 0.023992719
0.49333805 -0.010162181 0.023987286
0.49336514 -0.0092702983 0.023981851
0.49339226 -0.0083784116 0.023976415
0.49341938 -0.007486525 0.02397098
0.49344647 -0.0065946383 0.023965545
0.49347359 -0.0057027517 0.02396011
0.49350071 -0.0048108688 0.023954676
0.4935278 -0.0039189821 0.023949241
0.49355492 -0.0030270917 0.023943806
0.49358201 -0.0021352051 0.023938371
0.49360913 -0.0012433185 0.023932936
0.49363625 -0.00035143193 0.0239275
0.49366334 0.00054045097 0.023922065
0.49369046 0.0014323376 0.023916632
0.49371758 0.0023242279 0.023911197
0.49374467 0.0032161127 0.023905762
0.49377179 0.0041079973 0.023900326
0.49379891 0.0049998839 0.023894891
0.493826 0.0058917725 0.023889456
0.49385312 0.0067836572 0.023884023
0.49388021 0.0076755439 0.023878587
0.49390733 0.0085674282 0.023873152
0.49393445 0.0094593167 0.023867717
0.49396154 0.010351203 0.023862282
0.49398866 0.011243088 0.023856847
0.49401578 0.012134977 0.023851411
0.49404287 0.013026863 0.023845978
0.49406999 0.013918748 0.023840543
0.49409708 0.014810635 0.023835108
0.4941242 0.015702523 0.023829672
0.49415132 0.016594408 0.023824237
0.49333996 0.017479593 0.0232637
0.49336711 0.018373074 0.023258256
0.49339426 0.019266551 0.023252811
0.49342144 0.020160031 0.023247367
0.49344859 0.02105351 0.023241922
0.49347574 0.021946989 0.023236478
0.49350289 0.022840468 0.023231033
0.49353006 0.023733947 0.023225587
0.49355721 0.024627427 0.023220142
0.49358436 0.025520906 0.023214698
0.49361151 0.026414385 0.023209253
0.4928008 0.027318683 0.022648633
0.49282801 0.028213754 0.022643177
0.49285522 0.029108826 0.022637723
0.4928824 0.030003898 0.022632269
0.49290961 0.03089897 0.022626815
0.49293682 0.031794041 0.02262136
0.49296403 0.032689113 0.022615906
0.49215367 0.033606153 0.022055209
0.49218094 0.034502815 0.022049746
0.49220818 0.035399482 0.022044281
0.49223545 0.036296144 0.022038817
0.49142534 0.037221149 0.021478068
0.49145266 0.038119402 0.021472596
0.4906427 0.039049182 0.02091182
0.49067006 0.039949033 0.020906337
0.48986018 0.040883593 0.020345498
0.48905048 0.041821335 0.019784672
0.48824084 0.042762265 0.01922383
0.48826835 0.043666892 0.019218318
0.48662186 0.04465368 0.01810205
0.49306276 -0.03783204 0.023465546
0.49308988 -0.036940157 0.023460111
0.493117 -0.036048274 0.023454675
0.49314409 -0.035156384 0.02344924
0.49317122 -0.034264501 0.023443807
0.49319834 -0.033372611 0.023438372
0.49322543 -0.032480728 0.023432937
0.49325255 -0.031588838 0.023427501
0.49327967 -0.030696956 0.023422066
0.49330676 -0.029805066 0.023416631
0.49333388 -0.028913183 0.023411198
0.49336097 -0.028021296 0.023405762
0.49338809 -0.02712941 0.023400327
0.49341521 -0.026237523 0.023394892
0.4934423 -0.025345637 0.023389457
0.49346942 -0.024453746 0.023384022
0.49349654 -0.023561863 0.023378586
0.49352363 -0.022669977 0.023373153
0.49355075 -0.02177809 0.023367718
0.49357784 -0.020886203 0.023362283
0.49360496 -0.019994317 0.023356847
0.49363208 -0.019102434 0.023351412
0.49365917 -0.018210547 0.023345977
0.49368629 -0.017318657 0.023340544
0.49371341 -0.01642677 0.023335109
0.4937405 -0.015534883 0.023329673
0.49376762 -0.014642997 0.023324238
0.49379474 -0.013751114 0.023318803
0.49382183 -0.012859227 0.023313368
0.49384895 -0.01196734 0.023307933
0.49387604 -0.011075455 0.023302499
0.49390316 -0.010183564 0.023297064
0.49393028 -0.0092916815 0.023291629
0.49395737 -0.0083997948 0.023286194
0.49398449 -0.0075079077 0.023280758
0.49401161 -0.0066160215 0.023275323
0.4940387 -0.0057241349 0.02326989
0.49322715 -0.0048788087 0.02270836
0.4932543 -0.0039853286 0.022702916
0.49328145 -0.0030918447 0.022697471
0.4933086 -0.0021983681 0.022692027
0.49333578 -0.0013048879 0.022686582
0.49336293 -0.00041141137 0.022681138
0.49339008 0.00048206889 0.022675693
0.49341726 0.0013755454 0.022670249
0.49428269 0.0023028448 0.023220975
0.49430981 0.0031947296 0.02321554
0.4943369 0.0040866141 0.023210105
0.49436402 0.0049785008 0.023204669
0.49439114 0.0058703893 0.023199236
0.49358019 0.0067364234 0.022637581
0.49360734 0.0076299016 0.022632137
0.49363452 0.0085233804 0.022626692
0.49366167 0.0094168605 0.022621246
0.49368882 0.010310339 0.022615802
0.49371597 0.011203817 0.022610357
0.49374315 0.012097299 0.022604913
0.4937703 0.012990777 0.022599468
0.49379745 0.013884256 0.022594023
0.4938246 0.014777735 0.022588579
0.49385178 0.015671214 0.022583134
0.49387893 0.016564693 0.02257769
0.49390608 0.017458171 0.022572245
0.49393323 0.018351652 0.022566801
0.49312308 0.019241577 0.022005036
0.49315029 0.020136649 0.021999581
0.4931775 0.021031721 0.021994127
0.49320471 0.021926792 0.021988673
0.49323189 0.022821864 0.021983217
0.4932591 0.023716936 0.021977764
0.49328631 0.024612008 0.02197231
0.49331352 0.025507079 0.021966856
0.49334073 0.026402151 0.0219614
0.49336794 0.027297223 0.021955946
0.49339515 0.028192295 0.021950493
0.49342236 0.029087367 0.021945039
0.49344957 0.029982438 0.021939583
0.49347675 0.03087751 0.021934129
0.49350396 0.03177258 0.021928675
0.49353117 0.032667652 0.021923222
0.49272183 0.033584654 0.021361291
0.49274909 0.034481317 0.021355826
0.49277633 0.035377983 0.021350363
0.4919672 0.036301356 0.02078839
0.49283084 0.037171312 0.021339435
0.4920218 0.038097866 0.020777443
0.49121284 0.039027609 0.020215435
0.4912402 0.03992746 0.020209951
0.49043137 0.040861979 0.01964788
0.48962265 0.041799687 0.019085824
0.48881403 0.042740576 0.018523749
0.48800552 0.04368465 0.017961653
0.48803306 0.044590872 0.01795613
0.49278843 -0.037958954 0.02221836
0.49281561 -0.03706548 0.022212915
0.49284276 -0.036171995 0.022207471
0.49286991 -0.035278518 0.022202026
0.49373633 -0.034285884 0.022753585
0.49376345 -0.033393994 0.02274815
0.49295139 -0.032598082 0.022185693
0.49381766 -0.031610221 0.02273728
0.49300569 -0.03081112 0.022174804
0.4938719 -0.029826449 0.022726411
0.49389899 -0.028934566 0.022720976
0.49308717 -0.028130684 0.022158468
0.49311432 -0.027237207 0.022153024
0.49398032 -0.026258906 0.02270467
0.49400744 -0.02536702 0.022699235
0.49403453 -0.024475129 0.0226938
0.49406165 -0.023583246 0.022688366
0.49325013 -0.022769809 0.022125801
0.49327728 -0.02187633 0.022120357
0.49330443 -0.020982852 0.022114912
0.49333158 -0.020089373 0.022109468
0.49335876 -0.019195896 0.022104023
0.49338591 -0.018302416 0.022098579
0.49341306 -0.017408932 0.022093134
0.49344024 -0.016515454 0.022087689
0.49346739 -0.015621975 0.022082245
0.49349454 -0.014728499 0.0220768
0.49352169 -0.013835018 0.022071356
0.49354887 -0.012941541 0.02206591
0.49357602 -0.012048061 0.022060465
0.49360317 -0.011154585 0.022055021
0.49363032 -0.010261101 0.022049576
0.4936575 -0.0093676206 0.022044132
0.49368465 -0.0084741442 0.022038687
0.4937118 -0.0075806635 0.022033243
0.49373895 -0.0066871871 0.022027798
0.49376613 -0.005793707 0.022022353
0.49379328 -0.0049002301 0.022016909
0.49382043 -0.00400675 0.022011464
0.49384758 -0.0031132658 0.02200602
0.49387476 -0.0022197894 0.022000575
0.49390191 -0.0013263092 0.021995131
0.49392906 -0.0004328326 0.021989686
0.49395621 0.00046064766 0.021984242
0.49398339 0.0013541242 0.021978797
0.49401054 0.0022476083 0.021973351
0.49403769 0.0031410847 0.021967907
0.49406484 0.004034563 0.021962462
0.49409202 0.0049280417 0.021957017
0.49411917 0.0058215237 0.021951573
0.49414632 0.006715002 0.021946128
0.49417347 0.0076084803 0.021940684
0.49420065 0.008501959 0.021935239
0.4942278 0.0093954392 0.021929795
0.49341816 0.0102694 0.021366894
0.49344537 0.011164472 0.021361439
0.49347258 0.012059544 0.021355985
0.49349979 0.012954616 0.021350531
0.493527 0.013849687 0.021345077
0.4935542 0.014744759 0.021339621
0.49358138 0.015639832 0.021334168
0.49360859 0.016534902 0.021328714
0.4936358 0.017429974 0.02132326
0.49366301 0.018325048 0.021317804
0.49369022 0.019220117 0.02131235
0.49371743 0.020115189 0.021306897
0.49374464 0.021010261 0.021301441
0.49377185 0.021905333 0.021295987
0.49379906 0.022800405 0.021290533
0.49382624 0.023695476 0.021285079
0.49385345 0.024590548 0.021279624
0.49388066 0.02548562 0.02127417
0.49390787 0.026380692 0.021268716
0.49393508 0.027275763 0.021263262
0.49396229 0.028170835 0.021257807
0.4939895 0.029065907 0.021252353
0.49401671 0.029960979 0.021246899
0.49320823 0.030873163 0.020683764
0.49323547 0.031769827 0.0206783
0.49326274 0.032666493 0.020672835
0.49328998 0.033563156 0.020667372
0.49331725 0.034459822 0.020661907
0.49334449 0.035356484 0.020656444
0.49253637 0.03627982 0.020093242
0.49256366 0.037178077 0.020087767
0.49259096 0.038076334 0.020082295
0.49178302 0.039006036 0.019519053
0.49097514 0.039938927 0.018955758
0.49100253 0.040840369 0.018950265
0.49019483 0.041778035 0.018386975
0.49022228 0.042681072 0.018381473
0.48857972 0.043662924 0.017260337
0.48860729 0.044569146 0.017254815
0.48613006 0.045603152 0.015575755
0.49338174 -0.0370869 0.02152146
0.49340889 -0.036193416 0.021516016
0.49343604 -0.035299938 0.021510571
0.49346322 -0.034406465 0.021505127
0.49349037 -0.03351298 0.021499682
0.49351752 -0.032619502 0.021494238
0.49354467 -0.031726018 0.021488793
0.49357185 -0.030832542 0.021483349
0.493599 -0.029939065 0.021477904
0.49362615 -0.029045582 0.02147246
0.4936533 -0.028152104 0.021467013
0.49368048 -0.027258629 0.021461569
0.49370763 -0.026365148 0.021456124
0.49373478 -0.025471672 0.02145068
0.49376193 -0.024578188 0.021445235
0.49378911 -0.023684707 0.021439791
0.49381626 -0.022791231 0.021434346
0.49384341 -0.02189775 0.021428902
0.49387056 -0.021004274 0.021423457
0.49306029 -0.020184498 0.020859653
0.4930875 -0.019289428 0.020854197
0.49311471 -0.018394358 0.020848744
0.49314192 -0.017499281 0.02084329
0.49316913 -0.016604209 0.020837836
0.49319634 -0.015709139 0.02083238
0.49322355 -0.014814069 0.020826926
0.49325073 -0.013918996 0.020821473
0.49327794 -0.013023926 0.020816019
0.49330515 -0.012128855 0.020810563
0.49333236 -0.011233785 0.020805109
0.49335957 -0.010338708 0.020799655
0.49338678 -0.009443637 0.0207942
0.49341398 -0.0085485671 0.020788746
0.49344119 -0.0076534934 0.020783292
0.4934684 -0.0067584231 0.020777838
0.49349558 -0.0058633527 0.020772383
0.49352279 -0.004968279 0.020766929
0.49355 -0.0040732087 0.020761475
0.49357721 -0.0031781348 0.020756021
0.49360442 -0.0022830646 0.020750565
0.49363163 -0.0013879907 0.020745112
0.49365884 -0.00049292046 0.020739658
0.49368605 0.00040214972 0.020734204
0.49371323 0.0012972236 0.020728748
0.49374044 0.0021922938 0.020723294
0.49376765 0.003087366 0.020717841
0.49379486 0.0039824378 0.020712385
0.49382207 0.00487751 0.020706931
0.49384928 0.0057725823 0.020701477
0.49387649 0.006667654 0.020696023
0.4939037 0.0075627244 0.020690568
0.49393091 0.0084577966 0.020685114
0.49395809 0.0093528703 0.02067966
0.4939853 0.01024794 0.020674206
0.4940125 0.011143013 0.020668751
0.49403971 0.012038085 0.020663297
0.4932313 0.012918378 0.020099126
0.49325854 0.013815043 0.020093663
0.4932858 0.014711706 0.020088198
0.49331304 0.015608372 0.020082735
0.49334031 0.016505037 0.02007727
0.49336755 0.017401699 0.020071806
0.49339482 0.018298365 0.020066341
0.49342206 0.019195028 0.020060878
0.49344933 0.020091694 0.020055413
0.49347657 0.020988356 0.02004995
0.49350384 0.021885023 0.020044485
0.49353108 0.022781687 0.020039022
0.49355835 0.023678351 0.020033557
0.49358559 0.024575016 0.020028094
0.49361286 0.025471678 0.020022631
0.49364009 0.026368344 0.020017166
0.49366736 0.027265009 0.020011703
0.4936946 0.028161673 0.020006238
0.49372187 0.029058337 0.020000774
0.49374911 0.029955002 0.019995309
0.49377638 0.030851666 0.019989846
0.49380362 0.031748328 0.019984381
0.49383089 0.032644995 0.019978918
0.49385813 0.033541657 0.019973453
0.4938854 0.034438323 0.01996799
0.4930782 0.035360027 0.019403564
0.49310553 0.036258284 0.019398089
0.49313283 0.037156541 0.019392617
0.49232584 0.038084611 0.018828152
0.4923532 0.038984463 0.018822668
0.4915463 0.039917316 0.018258141
0.49157372 0.040818758 0.018252648
0.49076703 0.041756384 0.017688125
0.49079448 0.042659421 0.017682623
0.48915392 0.043641198 0.016559025
0.48834747 0.044588383 0.015994411
0.48754117 0.045538753 0.015429812
0.48506728 0.046580609 0.013747037
0.49394786 -0.037108321 0.020830009
0.49397501 -0.036214836 0.020824565
0.49400216 -0.035321362 0.02081912
0.49402934 -0.034427885 0.020813674
0.49405649 -0.0335344 0.020808229
0.49324656 -0.032736965 0.020243328
0.49327376 -0.031841893 0.020237874
0.49330097 -0.030946815 0.020232419
0.49332818 -0.030051745 0.020226965
0.49335539 -0.029156676 0.020221511
0.49338257 -0.028261604 0.020216057
0.49340978 -0.027366534 0.020210601
0.49343699 -0.02647146 0.020205148
0.4934642 -0.02557639 0.020199694
0.49349141 -0.024681317 0.020194238
0.49351862 -0.023786243 0.020188784
0.49354583 -0.022891171 0.02018333
0.49357304 -0.021996101 0.020177877
0.49360022 -0.021101031 0.020172421
0.49362743 -0.020205958 0.020166967
0.49365464 -0.019310888 0.020161513
0.49368185 -0.018415818 0.020156059
0.49370906 -0.017520741 0.020150604
0.49373627 -0.016625669 0.02014515
0.49376348 -0.015730599 0.020139696
0.49379069 -0.014835529 0.020134242
0.4938179 -0.013940455 0.020128787
0.49384508 -0.013045385 0.020123333
0.49387228 -0.012150315 0.020117879
0.49389949 -0.011255245 0.020112423
0.4939267 -0.010360167 0.020106969
0.49395391 -0.0094650965 0.020101516
0.49314532 -0.0086230626 0.019536344
0.49317259 -0.0077263992 0.019530881
0.49319983 -0.0068297354 0.019525416
0.49322709 -0.0059330715 0.019519953
0.49325433 -0.0050364076 0.019514488
0.4932816 -0.0041397437 0.019509025
0.49330884 -0.0032430761 0.01950356
0.49333611 -0.0023464123 0.019498097
0.49336335 -0.0014497484 0.019492632
0.49339062 -0.0005530846 0.019487169
0.49341786 0.00034357925 0.019481704
0.49344513 0.0012402431 0.019476241
0.49347237 0.0021369071 0.019470775
0.49349964 0.0030335726 0.019465312
0.49352688 0.0039302367 0.019459847
0.49355415 0.0048269005 0.019454384
0.49358138 0.0057235663 0.019448919
0.49360865 0.0066202302 0.019443456
0.49363589 0.007516894 0.019437991
0.49366316 0.0084135579 0.019432528
0.4936904 0.0093102232 0.019427063
0.49371767 0.010206887 0.0194216
0.49374491 0.011103551 0.019416137
0.49377218 0.012000217 0.019410672
0.49379942 0.012896881 0.019405209
0.4929921 0.013780322 0.018839782
0.4930194 0.014678577 0.018834308
0.4930467 0.015576837 0.018828833
0.49307403 0.016475093 0.018823361
0.49310133 0.01737335 0.018817887
0.49312863 0.018271606 0.018812412
0.49315593 0.019169863 0.01880694
0.49318323 0.02006812 0.018801466
0.49321052 0.020966377 0.018795991
0.49323782 0.021864634 0.018790517
0.49326512 0.022762891 0.018785045
0.49329245 0.023661148 0.01877957
0.49331975 0.024559405 0.018774096
0.49334705 0.025457662 0.018768623
0.49420825 0.026346846 0.019323247
0.49423552 0.02724351 0.019317783
0.49426275 0.028140174 0.019312318
0.49345624 0.029050689 0.018746728
0.49348357 0.029948948 0.018741254
0.49351087 0.030847205 0.018735781
0.49353817 0.03174546 0.018730307
0.49356547 0.032643717 0.018724833
0.49359277 0.033541974 0.018719358
0.49362007 0.034440231 0.018713886
0.49364737 0.035338491 0.018708412
0.49367467 0.036236748 0.018702937
0.49370199 0.037135005 0.018697465
0.49289602 0.038063038 0.018131768
0.49292335 0.038962886 0.018126287
0.49211749 0.039895702 0.017560527
0.49214488 0.040797144 0.017555034
0.49133921 0.041734736 0.016989278
0.49053362 0.04267551 0.016423505
0.48972812 0.043619473 0.015857711
0.48892269 0.04456662 0.015291866
0.48728451 0.04555947 0.014165733
0.48481366 0.046602804 0.012479218
0.49284133 -0.037337825 0.019017275
0.49370486 -0.036338709 0.019572459
0.49373206 -0.035443641 0.019567005
0.49375927 -0.034548569 0.019561552
0.49378648 -0.033653494 0.019556098
0.49381369 -0.032758422 0.019550642
0.4938409 -0.03186335 0.019545188
0.49386811 -0.030968275 0.019539734
0.49389532 -0.030073205 0.019534279
0.49392253 -0.029178135 0.019528825
0.49394971 -0.028283063 0.019523371
0.49397692 -0.027387993 0.019517917
0.49400413 -0.02649292 0.019512461
0.49403134 -0.02559785 0.019507008
0.49322289 -0.024784522 0.018940778
0.49325016 -0.023887858 0.018935313
0.4932774 -0.022991193 0.01892985
0.49330467 -0.022094529 0.018924385
0.49333191 -0.021197867 0.018918922
0.49335918 -0.020301202 0.018913459
0.49338642 -0.019404538 0.018907994
0.49341369 -0.018507874 0.018902531
0.49344093 -0.017611207 0.018897066
0.4934682 -0.016714543 0.018891603
0.49349543 -0.015817879 0.018886138
0.4935227 -0.014921215 0.018880675
0.49354994 -0.014024551 0.01887521
0.49357721 -0.013127888 0.018869746
0.49360445 -0.012231223 0.018864281
0.49363172 -0.01133456 0.018858818
0.49365896 -0.010437888 0.018853353
0.49368623 -0.0095412247 0.01884789
0.49371347 -0.0086445604 0.018842425
0.49374074 -0.0077478969 0.018836962
0.49376798 -0.0068512331 0.018831497
0.4929606 -0.0060028704 0.018265055
0.4929879 -0.0051046126 0.018259581
0.4930152 -0.0042063589 0.018254107
0.4930425 -0.0033080976 0.018248633
0.49306983 -0.0024098402 0.01824316
0.49309713 -0.0015115826 0.018237686
0.49312443 -0.00061332888 0.018232211
0.49315172 0.00028492865 0.018226739
0.49317902 0.0011831862 0.018221265
0.49320632 0.0020814438 0.01821579
0.49323362 0.0029797012 0.018210318
0.49326092 0.0038779569 0.018204844
0.49328825 0.0047762142 0.018199369
0.49331555 0.0056744721 0.018193897
0.49334285 0.0065727294 0.018188423
0.49337015 0.0074709849 0.018182948
0.49339744 0.0083692428 0.018177476
0.49342474 0.0092674997 0.018172001
0.49345204 0.010165757 0.018166527
0.49347934 0.011064013 0.018161053
0.49350667 0.011962272 0.01815558
0.49353397 0.012860528 0.018150106
0.49356127 0.013758786 0.018144632
0.49358857 0.014657041 0.018139159
0.49361587 0.015555301 0.018133685
0.49364316 0.016453557 0.018128211
0.4928371 0.017344922 0.017561503
0.49286446 0.018244771 0.017556019
0.49289179 0.019144621 0.017550536
0.49291915 0.02004447 0.017545054
0.49294651 0.02094432 0.01753957
0.49297386 0.021844171 0.017534086
0.49300122 0.02274402 0.017528603
0.49386159 0.023639614 0.018084422
0.49388888 0.024537869 0.018078947
0.49391621 0.025436126 0.018073473
0.49394351 0.026334383 0.018068001
0.49397081 0.027232639 0.018062526
0.49399811 0.028130896 0.018057052
0.49402541 0.029029155 0.01805158
0.49405271 0.029927412 0.018046105
0.49408001 0.030825669 0.018040631
0.49410734 0.031723924 0.018035159
0.49413463 0.032622181 0.018029684
0.49416193 0.033520438 0.01802421
0.49418923 0.034418698 0.018018737
0.49338412 0.035341915 0.017451834
0.49341148 0.036241766 0.01744635
0.49343884 0.037141614 0.017440867
0.49346617 0.038041465 0.017435385
0.49349353 0.038941313 0.017429901
0.49268866 0.039874092 0.01686291
0.49271607 0.040775534 0.016857417
0.49191138 0.041713085 0.016290432
0.49110681 0.042653821 0.015723422
0.49030235 0.043597743 0.015156397
0.4894979 0.044544853 0.01458932
0.48869362 0.045495149 0.014022253
0.48539391 0.046580847 0.011770508
0.47876745 0.047861952 0.0072724754
0.4754687 0.048979506 0.0050205365
0.49262875 -0.035666887 0.017750535
0.49349123 -0.034669325 0.018306965
0.49435362 -0.033674952 0.018863412
0.49438083 -0.032779884 0.018857958
0.49357301 -0.031979334 0.018290572
0.49443525 -0.030989734 0.018847048
0.49362752 -0.030186005 0.018279644
0.49365476 -0.029289342 0.018274181
0.49368203 -0.028392678 0.018268716
0.4937093 -0.027496014 0.018263252
0.49373654 -0.026599351 0.018257787
0.4937638 -0.025702687 0.018252324
0.49379104 -0.024806019 0.018246859
0.4929837 -0.023989545 0.017679377
0.493011 -0.023091288 0.017673904
0.4930383 -0.02219303 0.01766843
0.49306563 -0.021294776 0.017662955
0.49309292 -0.020396519 0.017657483
0.49312022 -0.019498261 0.017652009
0.49314752 -0.018600004 0.017646534
0.49317482 -0.017701747 0.017641062
0.49320212 -0.016803488 0.017635588
0.49322942 -0.015905231 0.017630113
0.49325672 -0.015006973 0.017624641
0.49328405 -0.01410872 0.017619167
0.49331135 -0.013210462 0.017613692
0.49333864 -0.012312205 0.01760822
0.49336594 -0.011413951 0.017602745
0.49339324 -0.01051569 0.017597271
0.49342054 -0.009617432 0.017591797
0.49344784 -0.0087191751 0.017586324
0.49347517 -0.0078209173 0.01758085
0.49350247 -0.0069226637 0.017575376
0.49352977 -0.0060244063 0.017569903
0.49355707 -0.0051261485 0.017564429
0.49275082 -0.0042730467 0.016996723
0.49277818 -0.0033731919 0.016991239
0.49280554 -0.0024733443 0.016985757
0.4928329 -0.0015734932 0.016980274
0.49286023 -0.00067364582 0.01697479
0.49288759 0.00022620536 0.016969306
0.49291494 0.0011260528 0.016963823
0.4929423 0.0020259039 0.016958339
0.49380279 0.0029581652 0.017515166
0.49383008 0.003856421 0.017509691
0.49302435 0.004725452 0.016941888
0.49305171 0.0056253029 0.016936406
0.49307907 0.0065251524 0.016930923
0.4931064 0.0074250018 0.016925439
0.49313375 0.0083248513 0.016919956
0.49316111 0.0092247026 0.016914472
0.49318847 0.010124549 0.016908988
0.4932158 0.011024399 0.016903505
0.49324316 0.01192425 0.016898021
0.49327052 0.0128241 0.016892537
0.49329787 0.013723949 0.016887054
0.4933252 0.014623798 0.016881572
0.49335256 0.01552365 0.016876088
0.49337992 0.016423499 0.016870605
0.49340728 0.017323349 0.016865121
0.49343461 0.018223198 0.016859638
0.49346197 0.019123048 0.016854154
0.49348933 0.020022897 0.01684867
0.49351668 0.020922747 0.016843187
0.49354401 0.021822596 0.016837703
0.49357137 0.022722445 0.016832219
0.49359873 0.023622297 0.016826738
0.49362609 0.024522144 0.016821254
0.49365342 0.025421994 0.01681577
0.49368078 0.026321845 0.016810287
0.49370813 0.027221695 0.016804803
0.49373549 0.028121544 0.01679932
0.49376282 0.029021394 0.016793836
0.49379018 0.029921243 0.016788352
0.49381754 0.030821092 0.016782869
0.4938449 0.031720944 0.016777385
0.49387223 0.032620791 0.016771903
0.49389958 0.033520643 0.01676642
0.49392694 0.03442049 0.016760936
0.4939543 0.035320342 0.016755452
0.49398163 0.036220189 0.016749969
0.49400899 0.037120041 0.016744485
0.49403635 0.038019888 0.016739001
0.49323243 0.038951036 0.016170785
0.49325985 0.039852478 0.016165292
0.49245614 0.040788401 0.015597085
0.49248359 0.041691434 0.015591582
0.49168003 0.042632133 0.015023343
0.49087656 0.043576017 0.014455084
0.49007311 0.04452309 0.013886771
0.48843899 0.045515787 0.012755711
0.48431253 0.04664696 0.0099362498
0.47935578 0.04783969 0.0065539079
0.47356886 0.049098752 0.0026086222
0.46944401 0.050282486 -0.00021115842
0.48819253 -0.036294036 0.01367657
0.49072269 -0.035088193 0.015360476
0.49241841 -0.03398966 0.016481292
0.49327984 -0.032993656 0.017038964
0.49247313 -0.032189958 0.016470324
0.49333444 -0.031197134 0.017028015
0.49419567 -0.030207504 0.017585725
0.49422291 -0.029310839 0.017580261
0.49341634 -0.028502369 0.017011594
0.49344364 -0.027604111 0.01700612
0.49347097 -0.026705854 0.017000647
0.49349827 -0.025807597 0.016995173
0.49352556 -0.024909334 0.016989699
0.49355286 -0.024011081 0.016984226
0.49358016 -0.023112824 0.016978752
0.49277398 -0.02229161 0.016410006
0.49280134 -0.021391764 0.016404524
0.4928287 -0.020491913 0.016399041
0.49285603 -0.019592065 0.016393557
0.49288338 -0.018692214 0.016388074
0.49291074 -0.017792363 0.01638259
0.4929381 -0.016892511 0.016377106
0.49296543 -0.015992664 0.016371623
0.49299279 -0.015092812 0.016366139
0.49302015 -0.014192965 0.016360655
0.49304751 -0.013293114 0.016355172
0.49307483 -0.012393267 0.01634969
0.49310219 -0.011493416 0.016344206
0.49312955 -0.010593564 0.016338723
0.49315691 -0.0096937129 0.016333239
0.49318424 -0.0087938653 0.016327756
0.4932116 -0.0078940177 0.016322272
0.49323896 -0.0069941669 0.016316788
0.49326631 -0.0060943193 0.016311305
0.49329364 -0.0051944684 0.016305821
0.493321 -0.0042946208 0.016300337
0.49334836 -0.003394766 0.016294856
0.49337572 -0.0024949184 0.016289372
0.49340305 -0.0015950673 0.016283888
0.49343041 -0.0006952199 0.016278405
0.49345776 0.0002046313 0.016272921
0.49348512 0.0011044787 0.016267437
0.49351245 0.0020043298 0.016261954
0.49353981 0.0029041793 0.01625647
0.49356717 0.0038040285 0.016250987
0.49359453 0.004703878 0.016245503
0.49362186 0.0056037288 0.016240021
0.49364921 0.0065035783 0.016234538
0.49367657 0.0074034277 0.016229054
0.49370393 0.0083032772 0.01622357
0.49373126 0.0092031285 0.016218087
0.49375862 0.010102975 0.016212603
0.49378598 0.011002825 0.016207119
0.49381334 0.011902676 0.016201636
0.49384069 0.012802525 0.016196152
0.49303642 0.013689036 0.015626978
0.49306384 0.014590478 0.015621485
0.49309123 0.015491922 0.015615992
0.49311861 0.016393363 0.015610498
0.49314603 0.017294805 0.015605005
0.49317342 0.018196249 0.015599512
0.49320084 0.01909769 0.01559402
0.49322823 0.019999133 0.015588527
0.49325562 0.020900575 0.015583033
0.49328303 0.021802017 0.01557754
0.49331042 0.022703459 0.015572047
0.49416891 0.023600722 0.016130352
0.49419624 0.024500571 0.016124869
0.49422359 0.025400421 0.016119385
0.49425095 0.02630027 0.016113902
0.49427831 0.02720012 0.016108418
0.49430564 0.028099969 0.016102934
0.494333 0.028999818 0.016097451
0.49436036 0.02989967 0.016091967
0.49438772 0.030799519 0.016086483
0.49441504 0.031699367 0.016081002
0.4944424 0.032599218 0.016075518
0.49446976 0.033499066 0.016070034
0.49449712 0.034398917 0.016064551
0.49452445 0.035298768 0.016059067
0.49372143 0.036225095 0.01548965
0.49374881 0.037126537 0.015484156
0.49377623 0.038027979 0.015478663
0.49380362 0.038929421 0.01547317
0.49300086 0.039863713 0.014903739
0.49302831 0.04076675 0.014898236
0.49305576 0.041669782 0.014892734
0.49225321 0.042610444 0.014323261
0.49145076 0.043554291 0.013753769
0.48981842 0.044542138 0.012620239
0.48901621 0.045493945 0.012050698
0.48655441 0.046536937 0.010353091
0.48160365 0.047726251 0.0069633713
0.48546273 -0.035805497 0.010711024
0.48882294 -0.034500174 0.012962957
0.48885053 -0.033592362 0.012957425
0.4913772 -0.032400735 0.014645115
0.49223763 -0.031404693 0.015204017
0.49309799 -0.03041183 0.015762974
0.49312535 -0.029511979 0.01575749
0.4939855 -0.028523905 0.01631644
0.49318004 -0.027712284 0.015746523
0.4932074 -0.026812434 0.015741039
0.49323475 -0.025912587 0.015735555
0.49326208 -0.025012732 0.015730072
0.49328944 -0.024112884 0.015724588
0.4933168 -0.023213033 0.015719105
0.49334416 -0.022313185 0.015713621
0.49337149 -0.021413337 0.015708139
0.49339885 -0.020513486 0.015702656
0.4934262 -0.019613639 0.015697172
0.49345356 -0.018713787 0.015691688
0.49348092 -0.017813936 0.015686205
0.49350825 -0.016914085 0.015680721
0.49353561 -0.016014237 0.015675237
0.49356297 -0.015114387 0.015669754
0.49359033 -0.014214539 0.01566427
0.49361765 -0.013314688 0.015658788
0.49364501 -0.012414841 0.015653305
0.49367237 -0.01151499 0.015647821
0.49369973 -0.010615138 0.015642338
0.49372706 -0.009715287 0.015636854
0.49375442 -0.0088154394 0.01563137
0.49295002 -0.0079671936 0.015061195
0.49297741 -0.007065753 0.015055702
0.49300483 -0.0061643082 0.015050209
0.49303222 -0.0052628666 0.015044716
0.49305961 -0.0043614255 0.015039222
0.49308702 -0.0034599809 0.015033729
0.49311441 -0.0025585399 0.015028236
0.4931418 -0.0016570949 0.015022743
0.49316922 -0.00075565383 0.01501725
0.49319661 0.00014578729 0.015011757
0.49322402 0.0010472283 0.015006264
0.49325141 0.0019486733 0.015000771
0.4932788 0.0028501144 0.014995278
0.49330622 0.0037515573 0.014989784
0.49333361 0.0046529984 0.014984291
0.493361 0.0055544432 0.014978798
0.49338841 0.0064558843 0.014973305
0.4934158 0.0073573273 0.014967811
0.49344322 0.0082587684 0.014962318
0.49347061 0.0091602132 0.014956825
0.493498 0.010061654 0.014951332
0.49352542 0.010963095 0.01494584
0.4935528 0.01186454 0.014940346
0.49358019 0.012765981 0.014934853
0.49360761 0.013667424 0.01492936
0.493635 0.014568865 0.014923867
0.49366242 0.01547031 0.014918373
0.49368981 0.016371751 0.01491288
0.49371719 0.017273193 0.014907387
0.49374461 0.018174637 0.014901894
0.493772 0.019076077 0.014896401
0.49379942 0.019977521 0.014890907
0.49382681 0.020878963 0.014885414
0.49385419 0.021780405 0.014879921
0.49388161 0.022681847 0.014874429
0.493909 0.023583291 0.014868936
0.49393639 0.024484733 0.014863442
0.49396381 0.025386175 0.014857949
0.4939912 0.026287617 0.014852456
0.49401861 0.027189059 0.014846963
0.494046 0.028090501 0.014841469
0.49407339 0.028991945 0.014835976
0.49493054 0.029878095 0.015395583
0.4941282 0.030794829 0.01482499
0.49415559 0.031696271 0.014819497
0.494183 0.032597713 0.014814003
0.49421039 0.033499155 0.01480851
0.49423781 0.034400597 0.014803017
0.4942652 0.035302043 0.014797525
0.49429259 0.036203485 0.014792032
0.49432001 0.037104927 0.014786538
0.49351817 0.038035993 0.014215893
0.49354562 0.038939029 0.01421039
0.49357307 0.039842062 0.014204888
0.49360052 0.040745098 0.014199384
0.49279892 0.041684128 0.013628689
0.49199742 0.042626344 0.013057975
0.49202496 0.043532565 0.013052453
0.49039465 0.044520333 0.011916457
0.48959345 0.045472104 0.011345683
0.48796353 0.046471018 0.010209653
0.48384747 0.047612965 0.0073777651
0.48138937 0.048676543 0.0056763673
0.48862132 -0.032800946 0.011683719
0.4911449 -0.031612396 0.013375126
0.49283621 -0.030524867 0.014500909
0.4936955 -0.029533554 0.015061104
0.49372286 -0.028633706 0.015055621
0.49375021 -0.027733859 0.015050137
0.49377757 -0.026834007 0.015044654
0.4938049 -0.02593416 0.01503917
0.49383226 -0.025034305 0.015033687
0.49385962 -0.024134457 0.015028204
0.4930554 -0.023313323 0.014456963
0.49308279 -0.022411883 0.01445147
0.49311021 -0.021510441 0.014445976
0.4931376 -0.020609001 0.014440483
0.49316499 -0.019707559 0.01443499
0.4931924 -0.018806115 0.014429498
0.49321979 -0.017904669 0.014424005
0.49324718 -0.017003229 0.014418511
0.4932746 -0.016101787 0.014413018
0.49330199 -0.015200346 0.014407525
0.49332941 -0.014298901 0.014402032
0.49335679 -0.01339746 0.014396538
0.49338418 -0.012496019 0.014391045
0.4934116 -0.011594578 0.014385552
0.49343899 -0.010693129 0.014380059
0.49346638 -0.0097916881 0.014374566
0.4934938 -0.008890247 0.014369072
0.49352118 -0.0079888059 0.014363579
0.4935486 -0.0070873648 0.014358087
0.4927454 -0.0062343739 0.013786684
0.49277285 -0.0053313393 0.013781181
0.4928003 -0.0044283043 0.013775678
0.49282774 -0.003525266 0.013770175
0.49285519 -0.0026222311 0.013764672
0.49288264 -0.0017191964 0.01375917
0.49291009 -0.00081616163 0.013753667
0.49293754 8.6873129e-05 0.013748163
0.49296498 0.00098990416 0.013742661
0.49299243 0.0018929427 0.013737158
0.49384999 0.0028285021 0.014297662
0.49387738 0.003729945 0.014292168
0.4939048 0.0046313861 0.014286675
0.49393219 0.005532831 0.014281183
0.49312967 0.0064081163 0.013709644
0.49315712 0.0073111514 0.013704141
0.49318457 0.0082141859 0.013698638
0.49321201 0.0091172224 0.013693135
0.49323946 0.010020258 0.013687632
0.49326691 0.010923292 0.01368213
0.49329436 0.011826329 0.013676627
0.49332181 0.012729362 0.013671124
0.49334925 0.013632396 0.013665621
0.4933767 0.014535432 0.013660118
0.49340415 0.015438468 0.013654616
0.4934316 0.016341502 0.013649113
0.49345905 0.017244538 0.013643609
0.49348649 0.018147573 0.013638107
0.49351394 0.019050607 0.013632604
0.49354139 0.019953642 0.013627101
0.49356884 0.020856677 0.013621598
0.49359629 0.021759713 0.013616095
0.49362373 0.022662748 0.013610593
0.49365118 0.023565782 0.01360509
0.49450758 0.024463121 0.014165826
0.49453497 0.025364563 0.014160333
0.49456239 0.026266005 0.01415484
0.49458978 0.027167447 0.014149347
0.49461716 0.028068889 0.014143853
0.49464458 0.028970333 0.014138361
0.49467197 0.029871775 0.014132868
0.49469939 0.030773217 0.014127375
0.49472678 0.031674661 0.014121882
0.49475417 0.032576103 0.014116388
0.49478158 0.033477545 0.014110895
0.49480897 0.034378987 0.014105402
0.494008 0.035305239 0.013533553
0.49403545 0.036208272 0.01352805
0.4940629 0.037111308 0.013522547
0.49409035 0.038014341 0.013517044
0.4941178 0.038917378 0.013511541
0.49414524 0.039820414 0.013506038
0.4933446 0.040757813 0.012934121
0.49337211 0.04166244 0.012928609
0.49257162 0.042604618 0.012356663
0.49177116 0.043549981 0.011784662
0.49097088 0.044498529 0.011212677
0.49017069 0.045450263 0.010640672
0.4885428 0.046449102 0.0095021762
0.48691505 0.047454312 0.0083636064
0.48445979 0.048513003 0.0066585061
0.48200488 0.049581245 0.0049533821
0.48922521 -0.031913344 0.010974398
0.49091467 -0.030820949 0.01210265
0.49260393 -0.029734936 0.013230909
0.49346218 -0.028743593 0.013792306
0.49432039 -0.027755432 0.014353755
0.49434772 -0.026855581 0.014348271
0.49354437 -0.026039267 0.013775826
0.49357179 -0.025137821 0.013770333
0.49359918 -0.024236381 0.013764841
0.49362656 -0.023334935 0.013759348
0.49365398 -0.022433495 0.013753855
0.49368137 -0.021532053 0.013748361
0.49370876 -0.020630613 0.013742868
0.49290586 -0.01980155 0.013170377
0.4929333 -0.018898515 0.013164875
0.49296075 -0.017995477 0.013159372
0.4929882 -0.017092442 0.013153869
0.49301565 -0.016189408 0.013148366
0.49304309 -0.015286372 0.013142863
0.49307054 -0.014383341 0.01313736
0.49309799 -0.013480307 0.013131858
0.49312544 -0.012577271 0.013126355
0.49315289 -0.011674237 0.013120852
0.49318033 -0.010771198 0.013115349
0.49320778 -0.0098681636 0.013109846
0.49323523 -0.008965129 0.013104344
0.49326268 -0.0080620935 0.013098841
0.49329013 -0.0071590589 0.013093337
0.49331757 -0.0062560244 0.013087835
0.49334502 -0.0053529898 0.013082332
0.49337247 -0.0044499547 0.013076829
0.49339992 -0.0035469164 0.013071327
0.49342737 -0.0026438816 0.013065823
0.49345481 -0.0017408468 0.01306032
0.49348226 -0.00083781203 0.013054818
0.49350971 6.5222732e-05 0.013049315
0.49353716 0.00096825376 0.013043812
0.49356461 0.0018712922 0.013038309
0.49359205 0.0027743271 0.013032806
0.4936195 0.0036773619 0.013027304
0.49364695 0.0045803948 0.013021801
0.4936744 0.0054834313 0.013016297
0.49370185 0.0063864663 0.013010795
0.49372929 0.0072895009 0.013005292
0.49375674 0.0081925355 0.012999789
0.49378419 0.0090955719 0.012994287
0.49381164 0.0099986074 0.012988783
0.49383909 0.010901642 0.012983281
0.49386653 0.011804678 0.012977778
0.49389398 0.012707711 0.012972275
0.49392143 0.013610746 0.012966773
0.49394888 0.014513781 0.012961269
0.49397632 0.015416818 0.012955766
0.49400377 0.016319852 0.012950264
0.49403122 0.017222887 0.012944761
0.49405867 0.018125921 0.012939258
0.49408612 0.019028956 0.012933755
0.49411356 0.019931993 0.012928252
0.49414101 0.020835027 0.01292275
0.49416846 0.021738062 0.012917247
0.49419591 0.022641096 0.012911743
0.49422336 0.023544133 0.012906241
0.4942508 0.024447167 0.012900738
0.49427825 0.025350202 0.012895235
0.4943057 0.026253236 0.012889733
0.49433315 0.027156271 0.012884229
0.4943606 0.028059307 0.012878726
0.49438804 0.028962342 0.012873224
0.49441549 0.029865377 0.012867721
0.49444294 0.030768411 0.012862219
0.49447039 0.031671446 0.012856715
0.49449784 0.032574482 0.012851212
0.49452528 0.033477519 0.01284571
0.49455273 0.034380551 0.012840207
0.49458018 0.035283588 0.012834704
0.49460763 0.036186621 0.012829201
0.49463508 0.037089657 0.012823698
0.4938353 0.038022239 0.012250577
0.49386281 0.038926866 0.012245065
0.49389032 0.039831497 0.012239552
0.49391779 0.040736124 0.01223404
0.49311829 0.04167667 0.011660869
0.49314582 0.042582892 0.011655347
0.49234638 0.043528218 0.011082117
0.49154711 0.044476725 0.010508898
0.4907479 0.045428421 0.0099356603
0.48994881 0.046383303 0.0093624033
0.48914981 0.047341369 0.0087891296
0.48752418 0.04834969 0.0076480736
0.48589879 0.049364377 0.0065070163
0.48344696 0.050435692 0.0047981408
0.44547489 0.136178 -0.023529172
0.44550538 0.13718137 -0.023535287
0.44553587 0.13818474 -0.0235414
0.48899919 -0.031117273 0.009696966
0.49151644 -0.029936457 0.011395815
0.49320355 -0.028853551 0.012526557
0.493231 -0.027950516 0.012521055
0.49408814 -0.026962319 0.013083702
0.49411556 -0.026060879 0.013078208
0.49331334 -0.025241408 0.012504546
0.49334079 -0.024338374 0.012499043
0.49336824 -0.023435339 0.01249354
0.49339569 -0.022532305 0.012488037
0.49342313 -0.02162927 0.012482534
0.49345058 -0.020726236 0.012477032
0.49347803 -0.019823199 0.012471529
0.49350548 -0.018920165 0.012466026
0.49353293 -0.018017126 0.012460523
0.49356037 -0.017114092 0.01245502
0.49358782 -0.016211057 0.012449517
0.49361527 -0.015308022 0.012444015
0.49364272 -0.014404992 0.012438511
0.49367017 -0.013501957 0.012433008
0.49369761 -0.012598922 0.012427506
0.49372506 -0.011695887 0.012422003
0.49375251 -0.010792849 0.012416501
0.49377996 -0.0098898141 0.012410997
0.49380741 -0.0089867795 0.012405494
0.4930062 -0.0081354585 0.011831635
0.49303368 -0.0072308299 0.011826122
0.49306118 -0.0063262051 0.01182061
0.49308869 -0.0054215766 0.011815097
0.49311617 -0.004516948 0.011809585
0.49314368 -0.0036123197 0.011804072
0.49317116 -0.0027076914 0.01179856
0.49319866 -0.0018030629 0.011793047
0.49322617 -0.00089843821 0.011787535
0.49325365 6.1902324e-06 0.011782022
0.49328116 0.00091081864 0.01177651
0.49330866 0.0018154471 0.011770997
0.49333614 0.0027200736 0.011765485
0.49336365 0.0036247002 0.011759971
0.49339113 0.0045293267 0.011754459
0.49341863 0.0054339571 0.011748946
0.49344614 0.0063385838 0.011743434
0.49347362 0.0072432118 0.011737921
0.49350113 0.0081478385 0.011732409
0.49352863 0.0090524675 0.011726896
0.49355611 0.0099570956 0.011721384
0.49358362 0.010861722 0.011715871
0.49361113 0.011766351 0.011710359
0.4936386 0.012670979 0.011704846
0.49366611 0.013575605 0.011699334
0.49369359 0.014480232 0.011693821
0.4937211 0.015384862 0.011688309
0.49374861 0.016289489 0.011682796
0.49377608 0.017194115 0.011677284
0.49380359 0.018098744 0.011671771
0.4938311 0.019003371 0.011666258
0.49385858 0.019908 0.011660745
0.49388608 0.020812627 0.011655233
0.49391356 0.021717254 0.01164972
0.49394107 0.022621881 0.011644208
0.49479556 0.023522481 0.012207392
0.49482301 0.024425516 0.012201889
0.49485046 0.025328552 0.012196386
0.4948779 0.026231587 0.012190883
0.49490535 0.027134622 0.012185381
0.4949328 0.028037656 0.012179878
0.49496025 0.028940691 0.012174374
0.4949877 0.029843727 0.012168872
0.49501514 0.030746762 0.012163369
0.49504259 0.031649798 0.012157867
0.49507004 0.032552831 0.012152364
0.49509749 0.033455867 0.01214686
0.49512494 0.0343589 0.012141358
0.49432603 0.035286669 0.011567032
0.4943535 0.036191296 0.011561519
0.49438101 0.037095923 0.011556007
0.49440852 0.03800055 0.011550494
0.494436 0.038905181 0.011544982
0.49363738 0.039842501 0.010970601
0.49366492 0.040748723 0.010965079
0.49369249 0.041654944 0.010959557
0.49372002 0.042561162 0.010954035
0.49292159 0.043506451 0.010379571
0.49212334 0.044454925 0.0098051187
0.49132514 0.04540658 0.009230651
0.49052706 0.046361424 0.00865616
0.48972908 0.047319449 0.0080816532
0.48975685 0.048233632 0.008076082
0.48895898 0.049196441 0.0075015086
0.48816124 0.050162435 0.0069269529
0.4469018 0.13496974 -0.023729747
0.44693226 0.13597153 -0.023735853
0.44696271 0.13697331 -0.023741957
0.44699314 0.13797508 -0.023748061
0.47457069 -0.035606362 -0.0012392189
0.48960409 -0.030228116 0.0089864023
0.49211818 -0.029051965 0.010688977
0.49297446 -0.028058957 0.011252832
0.49383065 -0.027069133 0.011816703
0.4938581 -0.026166098 0.0118112
0.49388555 -0.02526306 0.011805696
0.49391299 -0.024360023 0.011800194
0.49311194 -0.023535816 0.011225269
0.49313945 -0.022631191 0.011219757
0.49316692 -0.021726562 0.011214244
0.49319443 -0.020821933 0.011208732
0.49322194 -0.019917309 0.011203219
0.49324942 -0.01901268 0.011197706
0.49327692 -0.018108048 0.011192193
0.49330443 -0.017203424 0.011186681
0.49333191 -0.016298795 0.011181168
0.49335942 -0.015394167 0.011175656
0.49338689 -0.014489542 0.011170143
0.4934144 -0.013584914 0.011164631
0.49344191 -0.012680285 0.011159118
0.49346939 -0.01177566 0.011153606
0.49349689 -0.010871029 0.011148093
0.4935244 -0.0099663995 0.011142581
0.49355188 -0.0090617752 0.011137068
0.49357939 -0.0081571471 0.011131556
0.49360687 -0.0072525181 0.011126043
0.49363437 -0.0063478937 0.011120531
0.49366188 -0.0054432652 0.011115018
0.49368936 -0.0045386367 0.011109506
0.49371687 -0.0036340083 0.011103992
0.49374437 -0.0027293798 0.01109848
0.49377185 -0.0018247514 0.011092967
0.49379936 -0.00092012674 0.011087455
0.49382687 -1.5498283e-05 0.011081942
0.49385434 0.00088913017 0.01107643
0.49388185 0.0017937586 0.011070917
0.49390933 0.0026983852 0.011065405
0.49393684 0.0036030116 0.011059892
0.49396434 0.004507638 0.01105438
0.49399182 0.0054122685 0.011048867
0.49401933 0.0063168951 0.011043355
0.49404684 0.0072215237 0.011037842
0.49407431 0.0081261499 0.01103233
0.49410182 0.0090307789 0.011026817
0.4941293 0.009935407 0.011021305
0.49415681 0.010840033 0.011015792
0.49418432 0.011744662 0.011010279
0.49338526 0.012634168 0.010434953
0.49341279 0.013540386 0.010429432
0.49344033 0.014446607 0.010423909
0.4934679 0.015352829 0.010418387
0.49349543 0.01625905 0.010412864
0.49352297 0.01716527 0.010407343
0.49355051 0.018071489 0.01040182
0.49357808 0.018977709 0.010396298
0.49360561 0.019883931 0.010390775
0.49445927 0.020790938 0.010955154
0.49448678 0.021695565 0.010949641
0.49451426 0.022600193 0.010944129
0.49454176 0.023504822 0.010938616
0.49456927 0.024409449 0.010933104
0.49459675 0.025314076 0.010927591
0.49462426 0.026218703 0.010922079
0.49465173 0.027123332 0.010916566
0.49467924 0.028027959 0.010911053
0.49470675 0.028932586 0.010905541
0.49473423 0.029837215 0.010900028
0.49476174 0.030741842 0.010894516
0.49478924 0.031646471 0.010889003
0.49481672 0.032551099 0.010883491
0.49484423 0.033455726 0.010877978
0.49487171 0.034360353 0.010872466
0.49489921 0.03526498 0.010866953
0.49492672 0.036169607 0.010861441
0.49412897 0.037102114 0.010285852
0.49415651 0.038008336 0.010280331
0.49418405 0.038914554 0.010274808
0.49421158 0.039820775 0.010269286
0.49423915 0.040726997 0.010263763
0.49426669 0.041633215 0.010258242
0.49346921 0.042576876 0.0096825566
0.49267191 0.043523714 0.009106881
0.49269953 0.044433121 0.0091013396
0.49190238 0.045384739 0.0085256379
0.49110529 0.046339542 0.0079499166
0.49030831 0.047297534 0.0073741768
0.49033612 0.048211716 0.007368606
0.48953924 0.049174488 0.0067928014
0.4887425 0.05014044 0.0062170099
0.48938125 -0.029427379 0.0077052438
0.49106443 -0.028341137 0.0088408934
0.49274749 -0.027261252 0.0099766199
0.49360266 -0.02627139 0.010541724
0.49363014 -0.025366761 0.010536212
0.49365765 -0.024462132 0.010530699
0.49368513 -0.023557503 0.010525187
