# .PCD v0.7 - Point Cloud Data file format
VERSION 0.7
FIELDS x y z
SIZE 4 4 4
TYPE F F F
COUNT 1 1 1
WIDTH 1420
HEIGHT 1
VIEWPOINT 0 0 0 1 0 0 0
POINTS 1420
DATA ascii
0.40725511 0.14866163 0.059785433
0.40636784 0.14983988 0.059326693
0.40639728 0.15080822 0.059320793
0.40642673 0.15177655 0.059314892
0.40645614 0.15274489 0.059308991
0.40556911 0.1539311 0.058850203
0.40130517 0.11475106 0.056527
0.40316966 0.11541907 0.057428543
0.40411657 0.11623644 0.057876352
0.40506339 0.11705064 0.058324184
0.40601015 0.11786164 0.058772024
0.40695676 0.11866947 0.059219897
0.40698615 0.11963621 0.059214003
0.40701553 0.12060296 0.059208114
0.40796202 0.12140439 0.05965605
0.40799135 0.12236955 0.059650168
0.4080207 0.1233347 0.059644286
0.40805003 0.12429984 0.059638407
0.40807936 0.125265 0.059632525
0.40902552 0.12605689 0.060080491
0.40905479 0.12702045 0.06007462
0.40908408 0.127984 0.060068749
0.40911338 0.12894756 0.060062878
0.40914264 0.12991111 0.060057007
0.40917194 0.13087466 0.060051132
0.40920123 0.13183823 0.060045261
0.40923053 0.13280177 0.06003939
0.4092598 0.13376534 0.060033519
0.40928909 0.13472889 0.060027648
0.40931839 0.13569245 0.060021777
0.40934768 0.136656 0.060015906
0.40937695 0.13761955 0.060010031
0.40940624 0.13858312 0.06000416
0.40943554 0.13954666 0.059998289
0.4103809 0.14031309 0.060446411
0.41041014 0.14127505 0.060440551
0.4095234 0.14243734 0.059980676
0.40955269 0.14340089 0.059974801
0.40958196 0.14436445 0.05996893
0.40961125 0.14532802 0.059963059
0.40872476 0.14649826 0.059503134
0.40875408 0.14746341 0.059497252
0.40786767 0.14863844 0.059037272
0.40789706 0.14960518 0.059031382
0.40701085 0.150785 0.058571398
0.4070403 0.15175334 0.058565497
0.40706971 0.15272167 0.058559597
0.40618369 0.15390785 0.058099587
0.40621316 0.15487778 0.058093678
0.38985851 0.11172529 0.049887363
0.39080551 0.11257613 0.050336219
0.39358547 0.11312836 0.051694937
0.40195343 0.11570395 0.055765513
0.40381584 0.11636885 0.05666953
0.40567797 0.11702739 0.057573568
0.40662369 0.11783843 0.058022656
0.40665314 0.11880677 0.058016755
0.4075987 0.11961303 0.058465868
0.40762806 0.12057978 0.058459975
0.40765744 0.12154651 0.058454085
0.40768683 0.12251326 0.058448192
0.40863225 0.12331156 0.058897369
0.40866157 0.12427671 0.05889149
0.4086909 0.12524186 0.058885608
0.40872025 0.12620699 0.058879726
0.40874958 0.12717214 0.058873843
0.40877891 0.12813729 0.058867965
0.40880826 0.12910245 0.058862083
0.40883759 0.1300676 0.0588562
0.40886691 0.13103274 0.058850318
0.40889627 0.1319979 0.05884444
0.40892559 0.13296303 0.058838557
0.40895492 0.13392819 0.058832675
0.40989962 0.13470578 0.059281964
0.40992892 0.13566935 0.059276093
0.40995821 0.1366329 0.059270222
0.40998748 0.13759646 0.059264351
0.41001678 0.13856003 0.059258476
0.41004607 0.13952357 0.059252605
0.41007537 0.14048712 0.059246734
0.41010463 0.14145067 0.059240863
0.41013393 0.14241424 0.059234992
0.41016322 0.1433778 0.059229121
0.40927762 0.14454482 0.058767982
0.40930697 0.14550997 0.0587621
0.4093363 0.14647512 0.058756217
0.40936562 0.14744027 0.058750335
0.40848023 0.14861527 0.058289137
0.40850961 0.14958201 0.058283243
0.40762439 0.15076178 0.057822026
0.40765384 0.15173012 0.057816125
0.40768328 0.15269846 0.057810225
0.40679827 0.15388459 0.05734897
0.40682775 0.15485452 0.057343062
0.38957459 0.11184589 0.048659652
0.39052054 0.11269838 0.049109705
0.39238203 0.11339999 0.050015975
0.3951588 0.11394595 0.051378418
0.39701983 0.11463322 0.052284777
0.40165669 0.11583461 0.054553762
0.40351704 0.11650118 0.055460222
0.40537727 0.11716138 0.056366734
0.40632203 0.11797405 0.056817044
0.40635151 0.11894399 0.056811132
0.40729612 0.11975188 0.057261471
0.40732554 0.12072022 0.05725557
0.40827003 0.12152334 0.057705924
0.40829942 0.12249008 0.057700031
0.4083288 0.12345683 0.057694141
0.40835819 0.12442356 0.057688251
0.40930244 0.12521872 0.058138691
0.40933177 0.12618385 0.058132809
0.40936112 0.12714902 0.05812693
0.40939045 0.12811415 0.058121048
0.4094198 0.12907931 0.058115166
0.40944913 0.13004446 0.058109283
0.40947846 0.13100961 0.058103405
0.40950781 0.13197476 0.058097523
0.40953714 0.13293989 0.05809164
0.40956646 0.13390505 0.058085758
0.40959582 0.1348702 0.058079876
0.40962514 0.13583535 0.058073997
0.40965447 0.13680048 0.058068115
0.40968382 0.13776565 0.058062233
0.40971315 0.13873079 0.058056351
0.40974247 0.13969594 0.058050472
0.40977183 0.14066109 0.05804459
0.41071516 0.14142758 0.058495179
0.41074446 0.14239113 0.058489308
0.40985984 0.14355654 0.058026947
0.40988916 0.14452168 0.058021065
0.40991852 0.14548683 0.058015183
0.40994784 0.14645198 0.0580093
0.4090634 0.14762536 0.057546865
0.40909278 0.1485921 0.057540972
0.40912217 0.14955883 0.057535082
0.40915155 0.15052557 0.057529192
0.40826741 0.1517069 0.057066742
0.40829682 0.15267524 0.057060841
0.40832627 0.15364358 0.057054941
0.40835571 0.1546119 0.057049043
0.38926226 0.11096623 0.047435578
0.38929266 0.11196641 0.047429483
0.39023766 0.11282054 0.047880761
0.39209718 0.11352382 0.04878949
0.39487097 0.11407148 0.050155621
0.39673004 0.11476042 0.051064428
0.40136194 0.11596519 0.05333956
0.40322033 0.11663343 0.054248475
0.40507859 0.1172953 0.055157445
0.40602237 0.1181096 0.055608977
0.40696609 0.11892074 0.056060515
0.40699556 0.11989065 0.056054603
0.40793911 0.12069701 0.056506187
0.40796855 0.12166533 0.056500286
0.40891194 0.1224669 0.056951895
0.40894133 0.12343365 0.056946002
0.40897071 0.12440038 0.056940112
0.4090001 0.12536713 0.056934219
0.40902948 0.12633386 0.056928329
0.40905887 0.12730061 0.056922439
0.40908825 0.12826735 0.056916546
0.40911764 0.12923409 0.056910656
0.40914702 0.13020083 0.056904767
0.40917641 0.13116758 0.056898873
0.40920579 0.13213432 0.056892984
0.40923518 0.13310105 0.056887094
0.40926456 0.1340678 0.056881201
0.40929395 0.13503455 0.056875311
0.40932333 0.13600127 0.056869417
0.40935272 0.13696802 0.056863528
0.41029537 0.1377425 0.057315316
0.41032469 0.13870765 0.057309438
0.41035402 0.1396728 0.057303555
0.41038337 0.14063795 0.057297673
0.4104127 0.1416031 0.057291791
0.41044202 0.14256825 0.057285909
0.41047138 0.14353339 0.05728003
0.41050071 0.14449854 0.057274148
0.41053006 0.14546371 0.057268266
0.40964657 0.14663544 0.056804616
0.40967596 0.14760217 0.056798726
0.40970531 0.14856891 0.056792837
0.4097347 0.14953566 0.056786943
0.40885153 0.15071535 0.05632326
0.40888095 0.15168369 0.056317359
0.40891039 0.15265203 0.056311458
0.40893984 0.15362036 0.056305557
0.40805689 0.15480801 0.05584183
0.38989601 0.11094224 0.046661541
0.3899264 0.11194243 0.046655446
0.39087042 0.1127966 0.047107957
0.39181429 0.11364758 0.047560498
0.39458516 0.11419694 0.048930347
0.3964422 0.11488756 0.049841583
0.39829913 0.1155718 0.050752882
0.40106916 0.1160957 0.052122861
0.40292564 0.1167656 0.05303425
0.40478188 0.11742915 0.053945649
0.40572476 0.11824507 0.054398432
0.4066675 0.11905783 0.054851193
0.40761012 0.1198674 0.055303987
0.40763962 0.12083732 0.055298079
0.40858209 0.12164211 0.055750903
0.40861154 0.12261046 0.055745002
0.40864098 0.12357879 0.055739101
0.4086704 0.12454712 0.0557332
0.40961266 0.12534395 0.056186058
0.40964204 0.12631069 0.056180168
0.40967143 0.12727743 0.056174278
0.40970081 0.12824418 0.056168385
0.4097302 0.12921092 0.056162495
0.40975958 0.13017766 0.056156605
0.40978897 0.13114439 0.056150712
0.40981835 0.13211115 0.056144822
0.40984774 0.13307787 0.056138933
0.40987712 0.13404462 0.056133039
0.40990651 0.13501136 0.05612715
0.40993589 0.1359781 0.056121256
0.40996528 0.13694485 0.056115367
0.40999466 0.13791159 0.056109477
0.41002405 0.13887833 0.056103583
0.41005343 0.13984507 0.056097694
0.41008282 0.14081182 0.056091804
0.4101122 0.14177854 0.056085911
0.41014159 0.14274529 0.056080021
0.41017097 0.14371203 0.056074128
0.41020036 0.14467877 0.056068238
0.41022974 0.14564551 0.056062348
0.41025913 0.14661226 0.056056455
0.41028851 0.147579 0.056050565
0.40940621 0.14875546 0.055585679
0.40943566 0.1497238 0.055579778
0.40946507 0.15069214 0.055573877
0.40949452 0.15166047 0.055567976
0.40952396 0.15262881 0.055562075
0.40955338 0.15359715 0.055556174
0.40867147 0.15478475 0.055091213
0.40870094 0.15575469 0.055085301
0.39052975 0.11091827 0.045887515
0.39056015 0.11191846 0.04588142
0.39150313 0.11277265 0.046335164
0.39244601 0.11362367 0.046788938
0.39430135 0.11432233 0.047702618
0.39706889 0.11486385 0.049076177
0.39892378 0.11554816 0.049989946
0.40263295 0.1168977 0.05181757
0.40448722 0.11756292 0.052731425
0.4054291 0.11838049 0.053185403
0.40728307 0.11903454 0.054099355
0.4073126 0.12000606 0.054093435
0.40825418 0.12081407 0.054547463
0.40828365 0.12178399 0.054541551
0.40831316 0.12275393 0.054535642
0.40925452 0.12355558 0.054989718
0.40928397 0.1245239 0.054983817
0.40931341 0.12549224 0.054977916
0.40934283 0.12646057 0.054972015
0.40937227 0.1274289 0.054966114
0.40940168 0.12839724 0.054960214
0.40943113 0.12936558 0.054954313
0.40946057 0.13033392 0.054948412
0.40948999 0.13130224 0.054942511
0.40951943 0.13227057 0.05493661
0.40954885 0.13323891 0.054930709
0.40957829 0.13420725 0.054924808
0.40960774 0.13517557 0.054918908
0.40963715 0.13614391 0.054913007
0.4096666 0.13711224 0.054907106
0.40969601 0.13808058 0.054901205
0.40972546 0.13904892 0.054895304
0.4097549 0.14001724 0.054889403
0.40978432 0.14098558 0.054883502
0.41072476 0.14175537 0.055337761
0.41075414 0.14272211 0.055331871
0.41078353 0.14368886 0.055325981
0.41081291 0.14465559 0.055320088
0.40993148 0.14582725 0.054853998
0.40996093 0.14679559 0.054848097
0.40999034 0.14776392 0.054842196
0.41001979 0.14873224 0.054836296
0.41004923 0.14970058 0.054830395
0.41007864 0.15066892 0.054824494
0.4091976 0.15185173 0.054358326
0.40922707 0.15282165 0.054352418
0.40925655 0.15379158 0.054346506
0.40928602 0.15476151 0.054340594
0.4093155 0.15573142 0.054334685
0.3911331 0.1098941 0.045119572
0.3911635 0.11089429 0.045113478
0.39210552 0.11175012 0.045568444
0.39304745 0.11260276 0.046023432
0.39398932 0.11345222 0.046478476
0.39584255 0.11414937 0.047394603
0.39678416 0.11499086 0.047849659
0.39863709 0.11567685 0.048765883
0.40048975 0.11635648 0.049682122
0.40234223 0.11702973 0.050598394
0.40419459 0.11769661 0.051514737
0.40513551 0.1185158 0.051969927
0.40698752 0.11917154 0.052886333
0.40701708 0.12014464 0.052880406
0.4079577 0.12095429 0.053335667
0.40798724 0.1219258 0.053329747
0.40892771 0.12273067 0.053785022
0.40895721 0.1237006 0.053779114
0.40898669 0.12467052 0.053773202
0.40901616 0.12564045 0.053767294
0.40904564 0.12661038 0.053761382
0.40998581 0.12740569 0.054216731
0.41001526 0.12837403 0.05421083
0.4100447 0.12934236 0.05420493
0.41007411 0.1303107 0.054199029
0.40919304 0.13146001 0.053731829
0.40922254 0.13242994 0.053725921
0.40925202 0.13339986 0.053720009
0.40928149 0.13436979 0.0537141
0.40931097 0.13533972 0.053708188
0.40934044 0.13630964 0.053702276
0.40936995 0.13727957 0.053696368
0.41030958 0.13805737 0.054151822
0.41033903 0.1390257 0.054145921
0.41036844 0.13999403 0.05414002
0.41039789 0.14096236 0.054134119
0.4104273 0.1419307 0.054128218
0.41045675 0.14289904 0.054122318
0.41048619 0.14386736 0.054116417
0.41051561 0.1448357 0.054110516
0.41054505 0.14580403 0.054104615
0.41057447 0.14677237 0.054098714
0.41060391 0.14774071 0.054092813
0.41063336 0.14870903 0.054086912
0.4097532 0.14988862 0.05361953
0.40978268 0.15085854 0.053613622
0.40981215 0.15182847 0.05360771
0.40984163 0.1527984 0.053601801
0.40987113 0.15376832 0.053595889
0.40990061 0.15473825 0.053589977
0.40902078 0.15592897 0.053122539
0.39170605 0.10786974 0.044357724
0.39173645 0.10886993 0.04435163
0.39176685 0.10987012 0.044345532
0.39270788 0.11072758 0.044801734
0.39273825 0.11172618 0.044795651
0.39367917 0.11257886 0.045251872
0.39462003 0.11342835 0.04570815
0.39647126 0.11412558 0.046626735
0.39832225 0.11481643 0.04754537
0.4001731 0.1155009 0.048464067
0.40202373 0.116179 0.04938278
0.40296388 0.11700621 0.049839158
0.40481418 0.11767316 0.050757963
0.40575412 0.11849239 0.05121439
0.40669391 0.11930846 0.051670831
0.40763366 0.1201213 0.052127335
0.40766326 0.12109443 0.052121405
0.4086028 0.12190251 0.052577894
0.40863234 0.12287403 0.052571975
0.40957177 0.12367735 0.053028509
0.40960124 0.12464727 0.053022597
0.40963072 0.12561721 0.053016689
0.40966019 0.12658712 0.053010777
0.40968969 0.12755705 0.053004868
0.40971917 0.12852697 0.052998956
0.40974864 0.1294969 0.052993044
0.40977812 0.13046683 0.052987136
0.40980762 0.13143677 0.052981224
0.4098371 0.13240668 0.052975316
0.40986657 0.13337661 0.052969404
0.40989605 0.13434654 0.052963495
0.40992555 0.13531646 0.052957583
0.40995502 0.13628639 0.052951671
0.4099845 0.13725631 0.052945763
0.41001397 0.13822624 0.052939851
0.41004345 0.13919617 0.052933943
0.41007295 0.14016609 0.05292803
0.41010243 0.14113602 0.052922122
0.4101319 0.14210595 0.05291621
0.41016138 0.14307587 0.052910298
0.41019088 0.1440458 0.05290439
0.41022035 0.14501573 0.052898478
0.41024983 0.14598566 0.052892569
0.4102793 0.14695558 0.052886657
0.41030878 0.14792551 0.052880745
0.41033828 0.14889543 0.052874837
0.41036776 0.14986536 0.052868925
0.40948871 0.15104808 0.052400291
0.40951824 0.15201961 0.052394371
0.40954778 0.15299113 0.052388452
0.40957731 0.15396264 0.052382529
0.40960681 0.15493417 0.052376609
0.40963635 0.15590568 0.05237069
0.39321923 0.10670927 0.044053271
0.39324957 0.10770786 0.044047188
0.39327994 0.10870646 0.044041101
0.39331028 0.10970505 0.044035017
0.3942503 0.11056095 0.04449245
0.39428058 0.11155796 0.044486377
0.39522052 0.11240908 0.044943865
0.39616027 0.11325703 0.045401361
0.39800942 0.11395273 0.04632242
0.39894894 0.11479271 0.046779964
0.3998884 0.1156295 0.047237542
0.40173706 0.11630929 0.048158713
0.40358552 0.11698268 0.049079906
0.40452459 0.11780673 0.049537573
0.40546355 0.1186276 0.049995221
0.40731153 0.11928508 0.050916515
0.40734115 0.12025978 0.050910577
0.40827984 0.12107109 0.051368322
0.40830943 0.1220442 0.051362392
0.40924793 0.12285074 0.051820125
0.40927747 0.12382226 0.051814206
0.409307 0.12479378 0.051808286
0.40933651 0.12576529 0.051802367
0.40936604 0.12673682 0.051796444
0.40939558 0.12770833 0.051790524
0.41033375 0.12850372 0.052248329
0.40945464 0.12965137 0.051778685
0.40948418 0.13062289 0.051772766
0.40951368 0.13159442 0.051766846
0.40954322 0.13256593 0.051760923
0.40957275 0.13353744 0.051755004
0.40960228 0.13450897 0.051749084
0.40963182 0.13548048 0.051743165
0.40966135 0.136452 0.051737245
0.40969089 0.13742353 0.051731322
0.40972039 0.13839504 0.051725402
0.40974993 0.13936657 0.051719483
0.40977946 0.14033808 0.051713564
0.40980899 0.1413096 0.051707644
0.40983853 0.14228113 0.051701721
0.40986806 0.14325264 0.051695801
0.4098976 0.14422415 0.051689882
0.4099271 0.14519568 0.051683962
0.40995663 0.1461672 0.051678043
0.40998617 0.14713871 0.051672123
0.4100157 0.14811024 0.0516662
0.41004524 0.14908175 0.051660281
0.41007477 0.15005328 0.051654361
0.41010427 0.15102479 0.051648442
0.40922633 0.15221067 0.051178563
0.40925592 0.15318379 0.051172633
0.40928549 0.15415689 0.051166706
0.40931508 0.15513001 0.051160775
0.40843731 0.15632385 0.050690811
0.39379126 0.10468814 0.043292638
0.3938216 0.10568674 0.043286555
0.39385197 0.10668533 0.043280467
0.3938823 0.10768392 0.043274384
0.39391267 0.10868251 0.043268297
0.39485171 0.10954006 0.043726955
0.39488202 0.11053705 0.043720879
0.39491233 0.11153406 0.043714803
0.39585122 0.11238521 0.044173528
0.39769849 0.11308578 0.045097038
0.39863709 0.11392898 0.045555782
0.39957562 0.114769 0.046014547
0.40142244 0.11545362 0.046938181
0.40236071 0.11628569 0.047396995
0.40420714 0.11695916 0.048320659
0.40514523 0.11778325 0.048779558
0.40608317 0.11860415 0.04923844
0.40702099 0.11942188 0.04969734
0.40795875 0.12023641 0.050156262
0.40889645 0.12104777 0.050615236
0.40892601 0.12202086 0.050609309
0.40895557 0.12299399 0.050603379
0.40989304 0.12379897 0.051062357
0.40992257 0.12477048 0.051056437
0.4099521 0.125742 0.051050514
0.40998164 0.12671353 0.051044594
0.41001117 0.12768504 0.051038675
0.41004068 0.12865655 0.051032756
0.41007021 0.12962808 0.051026836
0.41009974 0.1305996 0.051020917
0.41012928 0.13157111 0.051014993
0.41015881 0.13254264 0.051009074
0.40928096 0.13369821 0.050538149
0.40931052 0.13467133 0.050532218
0.40934011 0.13564444 0.050526291
0.40936968 0.13661756 0.05052036
0.40939927 0.13759066 0.05051443
0.40942883 0.13856377 0.050508499
0.40945843 0.13953689 0.050502568
0.40948799 0.14050999 0.050496642
0.41042456 0.14128631 0.050955795
0.41045409 0.14225782 0.050949872
0.41048363 0.14322935 0.050943952
0.41051316 0.14420086 0.050938033
0.4105427 0.14517239 0.050932113
0.41057223 0.14614391 0.050926194
0.41060176 0.14711542 0.05092027
0.41063127 0.14808695 0.050914351
0.40975419 0.149268 0.050443269
0.40978378 0.15024111 0.050437342
0.40981334 0.15121421 0.050431412
0.40984294 0.15218735 0.050425481
0.40896603 0.15337637 0.049954314
0.40899566 0.15435107 0.049948376
0.40902528 0.15532579 0.049942434
0.40814865 0.15652117 0.049471267
0.39533192 0.10453114 0.04298576
0.39536223 0.10552815 0.042979687
0.39539254 0.10652515 0.042973612
0.39542285 0.10752215 0.042967536
0.39545313 0.10851915 0.04296146
0.39548343 0.10951615 0.042955384
0.39642143 0.11037054 0.043415334
0.39645168 0.11136594 0.043409266
0.39738947 0.11221556 0.043869209
0.39832717 0.11306199 0.044329166
0.39926478 0.11390523 0.044789147
0.40110973 0.11459471 0.045715217
0.4020471 0.11542998 0.046175241
0.40389165 0.11610833 0.047101345
0.40482879 0.11693564 0.047561418
0.40576586 0.11775976 0.048021551
0.40670279 0.11858071 0.048481669
0.40763959 0.11939847 0.048941802
0.40857634 0.12021305 0.049401954
0.40860596 0.12118775 0.049396016
0.40863559 0.12216245 0.049390078
0.40957218 0.12297066 0.049850296
0.40960175 0.12394377 0.049844366
0.40963134 0.12491688 0.049838435
0.40966091 0.12588999 0.049832504
0.4096905 0.12686311 0.049826574
0.40972006 0.12783621 0.049820647
0.40974966 0.12880932 0.049814716
0.40977922 0.12978244 0.049808785
0.40980881 0.13075556 0.049802855
0.40983838 0.13172866 0.049796924
0.40986797 0.13270177 0.049790997
0.40989754 0.13367487 0.049785066
0.40992713 0.134648 0.049779136
0.40995669 0.1356211 0.049773205
0.40998626 0.13659422 0.049767278
0.41001585 0.13756733 0.049761347
0.41004542 0.13854045 0.049755417
0.41007501 0.13951355 0.049749486
0.41010457 0.14048666 0.049743555
0.41013417 0.14145978 0.049737629
0.41016373 0.14243288 0.049731698
0.41019332 0.143406 0.049725767
0.41022289 0.14437911 0.049719837
0.41025248 0.14535223 0.049713906
0.41028205 0.14632533 0.049707979
0.41031164 0.14729844 0.049702048
0.4103412 0.14827156 0.049696118
0.4103708 0.14924467 0.049690187
0.40949476 0.15042889 0.049217828
0.40952438 0.15140359 0.04921189
0.409554 0.15237829 0.049205948
0.40867823 0.15356888 0.048733577
0.40870789 0.15454517 0.048727628
0.40873757 0.15552147 0.048721679
0.40876725 0.15649776 0.048715729
0.40789169 0.15769631 0.048243307
0.39593336 0.10351024 0.042220265
0.39596364 0.10450723 0.042214189
0.39599395 0.10550424 0.042208117
0.39602426 0.10650124 0.042202041
0.39605457 0.10749825 0.042195965
0.39608487 0.10849524 0.042189889
0.39702189 0.10935126 0.042651061
0.39705214 0.11034667 0.042644996
0.39798898 0.11119791 0.043106157
0.39892572 0.11204597 0.043567341
0.39986238 0.11289085 0.044028543
0.40079892 0.11373254 0.044489767
0.40173542 0.11457103 0.044951033
0.40267175 0.11540635 0.045412295
0.40451431 0.11608477 0.04634086
0.4054504 0.11691212 0.046802182
0.40638646 0.11773628 0.047263537
0.40732241 0.11855727 0.047724884
0.4082582 0.11937506 0.048186254
0.40828788 0.12035136 0.048180304
0.40922356 0.12116438 0.0486417
0.40925318 0.12213908 0.048635758
0.4092828 0.1231138 0.04862982
0.40931243 0.1240885 0.048623882
0.41024792 0.12489355 0.049085353
0.41027752 0.12586667 0.049079422
0.41030708 0.12683977 0.049073491
0.41033667 0.12781289 0.049067561
0.41036624 0.128786 0.049061634
0.41039583 0.1297591 0.049055703
0.40951982 0.13091142 0.048582304
0.40954944 0.13188612 0.048576362
0.40957907 0.13286084 0.048570424
0.40960869 0.13383554 0.048564486
0.40963832 0.13481025 0.048558544
0.40966797 0.13578495 0.048552606
0.40969759 0.13675965 0.048546664
0.40972722 0.13773435 0.048540726
0.40975684 0.13870907 0.048534788
0.40978646 0.13968378 0.048528846
0.40981609 0.14065847 0.048522908
0.40984571 0.14163318 0.048516966
0.40987533 0.14260788 0.048511028
0.40990496 0.14358258 0.04850509
0.40993458 0.14455728 0.048499148
0.40996423 0.145532 0.04849321
0.40999386 0.14650671 0.048487268
0.41002348 0.14748141 0.04848133
0.4100531 0.14845611 0.048475392
0.41008273 0.14943081 0.04846945
0.40920782 0.15061657 0.047995877
0.40923747 0.15159287 0.047989927
0.40926716 0.15256917 0.047983978
0.40839243 0.15376131 0.047510359
0.40842214 0.15473919 0.047504403
0.40845188 0.15571709 0.047498442
0.40757734 0.15691558 0.04702479
0.40760711 0.15789506 0.047018819
0.39747107 0.10335495 0.041917115
0.39750132 0.10435034 0.041911051
0.3975316 0.10534576 0.041904986
0.39756185 0.10634117 0.041898921
0.3975921 0.10733658 0.041892853
0.39762235 0.10833199 0.041886788
0.39765263 0.10932739 0.041880723
0.39858848 0.11018027 0.04234311
0.39952427 0.11102996 0.042805515
0.40045995 0.11187647 0.043267943
0.40139553 0.11271979 0.043730389
0.4014256 0.11370882 0.043724362
0.40326646 0.11439686 0.044655364
0.40420175 0.11523063 0.045117866
0.40513694 0.1160612 0.045580391
0.40607205 0.1168886 0.046042934
0.4070071 0.1177128 0.046505533
0.407942 0.11853382 0.046968114
0.40797174 0.11951171 0.046962153
0.40890649 0.12032795 0.047424763
0.40893617 0.12130425 0.047418814
0.40896583 0.12228055 0.047412865
0.4099004 0.12309042 0.047875516
0.40993002 0.12406513 0.047869574
0.40995964 0.12503983 0.047863636
0.4099893 0.12601455 0.047857698
0.41001892 0.12698925 0.047851756
0.41004854 0.12796395 0.047845818
0.41007817 0.12893865 0.047839876
0.41010779 0.12991336 0.047833938
0.41013741 0.13088806 0.047828
0.41016704 0.13186276 0.047822058
0.40929225 0.13301982 0.047347423
0.40932193 0.13399611 0.047341473
0.40935162 0.13497242 0.047335524
0.40938127 0.1359487 0.047329575
0.40941095 0.13692501 0.047323626
0.40944064 0.13790131 0.047317676
0.40947032 0.1388776 0.047311727
0.40949997 0.13985391 0.047305778
0.40952966 0.14083019 0.047299828
0.40955934 0.1418065 0.047293879
0.40958902 0.14278279 0.04728793
0.40961868 0.14375909 0.047281981
0.40964836 0.14473538 0.047276031
0.40967804 0.14571168 0.047270082
0.4097077 0.14668798 0.047264133
0.40973738 0.14766428 0.047258183
0.40976706 0.14864057 0.047252234
0.40979674 0.14961687 0.047246285
0.4098264 0.15059318 0.047240335
0.40895259 0.15178207 0.046765506
0.40898231 0.15275997 0.04675955
0.40901205 0.15373786 0.046753589
0.40813842 0.15493312 0.046278723
0.4081682 0.15591262 0.046272751
0.40729466 0.15711267 0.045797817
0.40732449 0.15809377 0.045791838
0.40645117 0.15929858 0.045316912
0.39810181 0.10333107 0.041146778
0.39813206 0.10432648 0.041140713
0.39816231 0.1053219 0.041134648
0.39819255 0.1063173 0.041128583
0.39822283 0.10731272 0.041122515
0.39915779 0.10816881 0.041586116
0.40009263 0.10902172 0.04204974
0.40012279 0.11001395 0.04204369
0.40105751 0.11086208 0.042507339
0.40108764 0.11185271 0.042501304
0.40202221 0.11269607 0.042964984
0.40295672 0.11353624 0.043428708
0.40389112 0.11437322 0.043892425
0.40482539 0.11520703 0.044356164
0.4057596 0.11603764 0.044819918
0.40669367 0.11686508 0.045283694
0.40762773 0.11768932 0.045747515
0.4076575 0.11866879 0.045741547
0.40859136 0.11948826 0.046205372
0.40862107 0.12046615 0.046199411
0.40865079 0.12144405 0.046193454
0.40958443 0.12225714 0.046657316
0.40961412 0.12323344 0.046651367
0.4096438 0.12420974 0.046645418
0.40967348 0.12518604 0.046639469
0.40970314 0.12616234 0.046633519
0.40973282 0.12713863 0.04662757
0.4097625 0.12811492 0.046621621
0.40979218 0.12909122 0.046615671
0.40982184 0.13006753 0.046609722
0.40985152 0.13104382 0.046603773
0.4098812 0.13202012 0.046597824
0.40991086 0.13299641 0.046591874
0.40994054 0.1339727 0.046585925
0.40997022 0.13494901 0.046579976
0.40909663 0.13611239 0.04610407
0.40912637 0.13709028 0.046098109
0.40915608 0.13806817 0.046092149
0.40918583 0.13904606 0.046086192
0.40921554 0.14002396 0.046080232
0.40924525 0.14100184 0.046074275
0.409275 0.14197974 0.046068314
0.40930471 0.14295761 0.046062354
0.40933442 0.14393552 0.046056397
0.40936416 0.14491341 0.046050437
0.40939388 0.14589129 0.04604448
0.40942359 0.14686918 0.04603852
0.40945333 0.14784707 0.046032559
0.40948305 0.14882496 0.046026602
0.40951276 0.14980285 0.046020642
0.4095425 0.15078074 0.046014685
0.40957221 0.15175863 0.046008725
0.40869951 0.15295069 0.045532644
0.40872929 0.15393017 0.045526672
0.40785667 0.155127 0.045050535
0.40788648 0.15610808 0.045044556
0.40701407 0.1573097 0.044568419
0.40704393 0.15829235 0.044562429
0.4070738 0.15927503 0.044556443
0.39963645 0.1031759 0.040847294
0.39966667 0.10416972 0.040841237
0.39969686 0.10516354 0.040835179
0.39972708 0.10615736 0.040829126
0.40066102 0.10701349 0.04129396
0.40069118 0.10800571 0.041287914
0.40072134 0.10899794 0.041281868
0.40165511 0.1098477 0.041746739
0.40168521 0.11083833 0.041740704
0.40261883 0.11168332 0.042205606
0.40355238 0.11252512 0.042670552
0.40358239 0.11351256 0.042664535
0.40451577 0.11434958 0.043129489
0.40544906 0.11518344 0.043594457
0.40638223 0.11601409 0.044059448
0.40641209 0.11699676 0.044053458
0.40734512 0.11782264 0.044518478
0.40827811 0.11864532 0.044983543
0.40830788 0.11962479 0.044977572
0.40924069 0.12044271 0.045442641
0.40927041 0.12142061 0.04543668
0.40930012 0.12239849 0.045430724
0.40932986 0.12337638 0.045424763
0.40935957 0.12435428 0.045418806
0.40938929 0.12533216 0.045412846
0.40941903 0.12631005 0.045406885
0.40944874 0.12728794 0.045400929
0.40947846 0.12826583 0.045394968
0.4095082 0.12924372 0.045389012
0.40953791 0.13022161 0.045383051
0.40956762 0.13119951 0.045377091
0.40959737 0.1321774 0.045371134
0.40962708 0.13315529 0.045365173
0.40965679 0.13413318 0.045359217
0.40968654 0.13511105 0.045353256
0.40971625 0.13608894 0.045347296
0.40974596 0.13706684 0.045341339
0.4097757 0.13804471 0.045335378
0.40980542 0.13902262 0.045329418
0.40983516 0.14000051 0.045323461
0.40986487 0.1409784 0.045317501
0.40989459 0.14195628 0.045311544
0.40992433 0.14293417 0.045305584
0.40995404 0.14391206 0.045299623
0.40998375 0.14488995 0.045293666
0.4100135 0.14586784 0.045287706
0.41004321 0.14684574 0.045281749
0.41007292 0.14782363 0.045275789
0.40920106 0.14900927 0.044798512
0.40923083 0.14998874 0.044792544
0.40926057 0.15096824 0.044786576
0.40929034 0.15194771 0.044780608
0.40841866 0.15314133 0.044303253
0.40844849 0.15412241 0.044297278
0.40847829 0.15510347 0.044291299
0.40760684 0.15630347 0.043813933
0.4076367 0.15728614 0.043807946
0.40766656 0.15826879 0.04380196
0.40679532 0.15947515 0.043324556
0.40682524 0.16045941 0.043318558
0.40026617 0.10315207 0.040078189
0.40119925 0.10401303 0.040544227
0.40122941 0.10500526 0.040538181
0.40125957 0.10599748 0.040532134
0.40128973 0.1069897 0.040526088
0.40222257 0.10784269 0.040992174
0.40225267 0.10883332 0.040986139
0.40228277 0.10982395 0.040980101
0.40321544 0.11067057 0.041446228
0.40324551 0.11165961 0.0414402
0.40417805 0.11250145 0.041906383
0.40420806 0.11348889 0.041900367
0.40514046 0.11432595 0.042366538
0.40607271 0.11515984 0.04283274
0.40610263 0.1161441 0.042826742
0.40703475 0.1169732 0.043292977
0.40796676 0.11779912 0.043759227
0.40799659 0.11878018 0.043753251
0.40892851 0.11960132 0.044219557
0.40895829 0.12058079 0.044213589
0.40898806 0.12156028 0.044207621
0.40901783 0.12253976 0.04420165
0.40994948 0.12335294 0.044667982
0.40997919 0.12433083 0.044662021
0.41000891 0.12530871 0.044656064
0.41003865 0.12628661 0.044650104
0.41006836 0.12726448 0.044644143
0.41009808 0.12824239 0.044638187
0.40922624 0.12939613 0.044159871
0.40925601 0.13037562 0.044153903
0.40928578 0.13135511 0.044147931
0.40931556 0.13233459 0.044141963
0.40934533 0.13331407 0.044135995
0.4093751 0.13429356 0.044130027
0.40940487 0.13527304 0.044124059
0.40943465 0.13625251 0.044118088
0.40946442 0.13723199 0.04411212
0.40949419 0.13821147 0.044106152
0.40952396 0.13919096 0.044100184
0.40955374 0.14017045 0.044094216
0.40958351 0.14114992 0.044088244
0.40961328 0.14212941 0.044082277
0.40964305 0.14310889 0.044076309
0.40967283 0.14408837 0.044070341
0.4097026 0.14506786 0.044064373
0.40973234 0.14604734 0.044058401
0.40976211 0.14702682 0.044052433
0.40979189 0.14800631 0.044046465
0.40982166 0.14898579 0.044040497
0.40985143 0.14996526 0.044034526
0.40898064 0.15115567 0.043555964
0.40901047 0.15213673 0.043549985
0.40813988 0.15333191 0.043071415
0.40816975 0.15431458 0.043065429
0.40819961 0.15529723 0.043059438
0.40732923 0.15649877 0.042580832
0.40735915 0.15748303 0.042574834
0.40738904 0.15846729 0.042568836
0.40741897 0.15945154 0.042562839
0.40744889 0.16043581 0.042556841
0.40182793 0.10398924 0.039776355
0.40275994 0.10484705 0.040243637
0.40279004 0.10583768 0.040237598
0.40282017 0.10682831 0.040231563
0.40375194 0.10767975 0.040698893
0.40288037 0.10880957 0.040219489
0.40381208 0.10965782 0.040686838
0.40384212 0.11064686 0.040680811
0.40477374 0.11149032 0.041148216
0.40480375 0.11247777 0.041142199
0.40573514 0.11331646 0.041609608
0.40576512 0.11430231 0.041603599
0.40669635 0.11513624 0.042071037
0.40672627 0.1161205 0.042065039
0.40765738 0.11694964 0.042532492
0.40768728 0.1179323 0.042526506
0.40861824 0.11875666 0.042994
0.40864804 0.11973774 0.042988021
0.40957892 0.12055731 0.043455571
0.40960869 0.12153679 0.043449603
0.40963846 0.12251627 0.043443635
0.40966824 0.12349576 0.043437667
0.40969801 0.12447525 0.043431696
0.40972778 0.12545472 0.043425728
0.40975755 0.12643421 0.04341976
0.40978733 0.12741369 0.043413792
0.4098171 0.12839317 0.043407824
0.40984687 0.12937266 0.043401852
0.40987664 0.13035214 0.043395884
0.40990642 0.13133162 0.043389916
0.40993619 0.13231111 0.043383949
0.40996596 0.13329059 0.043377981
0.40999573 0.13427007 0.043372009
0.41002551 0.13524956 0.043366041
0.41005528 0.13622904 0.043360073
0.41008505 0.13720851 0.043354105
0.41011482 0.13818799 0.043348137
0.4101446 0.13916747 0.043342166
0.41017437 0.14014697 0.043336198
0.41020414 0.14112644 0.04333023
0.41023389 0.14210594 0.043324262
0.41026366 0.14308541 0.04331829
0.41029343 0.14406489 0.043312322
0.4103232 0.14504437 0.043306354
0.40945318 0.14622676 0.042826604
0.40948302 0.14720786 0.042820625
0.40951282 0.14818892 0.04281465
0.40954265 0.14917 0.042808671
0.40957248 0.15015107 0.042802691
0.40960228 0.15113214 0.042796712
0.40873265 0.15232567 0.042316921
0.40876254 0.15330835 0.042310935
0.40879241 0.154291 0.042304944
0.40792295 0.15549091 0.041825127
0.40795287 0.15647517 0.041819129
0.4079828 0.15745944 0.041813131
0.40801272 0.15844369 0.041807134
0.40804261 0.15942796 0.041801136
0.40717348 0.16063741 0.041321248
0.40338761 0.1048233 0.039477009
0.40341774 0.10581393 0.039470971
0.40344784 0.10680456 0.039464936
0.40437862 0.10765604 0.039933488
0.40440869 0.10864507 0.03992746
0.40443873 0.10963411 0.039921433
0.4044688 0.11062314 0.039915405
0.40539941 0.11146665 0.040384047
0.40542942 0.1124541 0.040378027
0.40635979 0.11329283 0.040846668
0.40638977 0.11427867 0.040840663
0.40732002 0.11511264 0.041309331
0.40734991 0.11609691 0.041303333
0.40737984 0.11708116 0.041297335
0.40830991 0.11790875 0.041766033
0.40833977 0.11889141 0.041760046
0.40836963 0.11987408 0.041754056
0.40929949 0.12069529 0.042222805
0.40932932 0.12167637 0.042216826
0.40935913 0.12265743 0.042210847
0.40938896 0.12363852 0.042204868
0.40941879 0.1246196 0.042198893
0.40944859 0.12560067 0.042192914
0.40947843 0.12658174 0.042186935
0.40950823 0.12756282 0.042180955
0.40953806 0.1285439 0.042174976
0.40956789 0.12952496 0.042169001
0.40959769 0.13050604 0.042163022
0.40962753 0.13148713 0.042157043
0.40965733 0.13246819 0.042151064
0.40968716 0.13344927 0.042145085
0.40971699 0.13443035 0.042139109
0.4097468 0.13541143 0.04213313
0.40977663 0.13639249 0.042127151
0.40980643 0.13737357 0.042121172
0.40983626 0.13835464 0.042115193
0.40986609 0.13933572 0.042109214
0.4098959 0.1403168 0.042103238
0.40992573 0.14129786 0.042097259
0.40995553 0.14227895 0.04209128
0.40998536 0.14326002 0.042085301
0.4100152 0.14424109 0.042079322
0.410045 0.14522217 0.042073347
0.41007483 0.14620325 0.042067368
0.40920597 0.14738879 0.041586392
0.40923584 0.14837144 0.041580401
0.4092657 0.14935412 0.041574415
0.40929556 0.15033677 0.041568425
0.40932542 0.15131944 0.041562438
0.40935531 0.15230212 0.041556448
0.40848678 0.1534988 0.041075416
0.40851668 0.15448305 0.041069418
0.4085466 0.15546732 0.04106342
0.40857652 0.15645158 0.041057423
0.40770823 0.15765621 0.040576331
0.40773821 0.15864207 0.040570322
0.40776816 0.15962791 0.040564317
0.40779814 0.16061378 0.040558308
0.40782809 0.16159964 0.040552299
0.40404543 0.10579018 0.038704321
0.40407553 0.1067808 0.038698286
0.40500531 0.10763232 0.039168082
0.40503538 0.10862136 0.039162055
0.40506542 0.1096104 0.039156027
0.40509549 0.11059944 0.039150003
0.40602508 0.11144298 0.039619874
0.40605509 0.11243042 0.039613858
0.4060851 0.11341786 0.039607838
0.40701443 0.11425504 0.040077712
0.40704441 0.11524089 0.040071703
0.40797359 0.1160733 0.040541619
0.40800351 0.11705756 0.040535621
0.40803343 0.11804182 0.04052962
0.4089624 0.11886785 0.040999573
0.40899229 0.11985052 0.040993586
0.40902215 0.12083318 0.040987596
0.40905201 0.12181586 0.040981609
0.40908188 0.12279852 0.040975623
0.40911177 0.12378119 0.040969633
0.40914163 0.12476386 0.040963646
0.40917149 0.12574653 0.040957656
0.40920135 0.12672919 0.040951669
0.40923122 0.12771186 0.040945683
0.40926111 0.12869453 0.040939692
0.40929097 0.12967719 0.040933706
0.40932083 0.13065986 0.040927716
0.40935069 0.13164254 0.040921729
0.40938058 0.13262519 0.040915739
0.40941045 0.13360788 0.040909752
0.40944031 0.13459054 0.040903766
0.40947017 0.13557321 0.040897775
0.40950003 0.13655587 0.040891789
0.40952992 0.13753854 0.040885799
0.40955979 0.13852119 0.040879812
0.40958965 0.13950388 0.040873822
0.40961951 0.14048654 0.040867835
0.4096494 0.14146921 0.040861849
0.40967926 0.14245188 0.040855858
0.40970913 0.14343454 0.040849872
0.40973899 0.14441721 0.040843882
0.40976885 0.14539988 0.040837895
0.40979874 0.14638254 0.040831909
0.4098286 0.14736523 0.040825918
0.40985847 0.14834788 0.040819932
0.40988833 0.14933056 0.040813942
0.40991822 0.15031321 0.040807955
0.40905058 0.15150668 0.040325698
0.40908051 0.15249093 0.0403197
0.40911043 0.1534752 0.040313702
0.40914035 0.15445946 0.040307704
0.40917027 0.15544371 0.040301707
0.40830293 0.15664673 0.03981939
0.40833291 0.15763257 0.039813381
0.40836287 0.15861844 0.039807372
0.40839285 0.15960428 0.039801367
0.4084228 0.16059014 0.039795358
0.40845278 0.16157599 0.039789353
0.40377435 0.10590232 0.037460648
0.4047032 0.10675706 0.037931658
0.40473333 0.10774769 0.037925623
0.40566203 0.10859765 0.038396653
0.4056921 0.10958669 0.038390625
0.40572217 0.11057572 0.038384598
0.40665072 0.1114193 0.038855702
0.40668076 0.11240675 0.038849685
0.40671077 0.11339419 0.038843669
0.40674078 0.11438163 0.038837649
0.40766904 0.11521726 0.039308779
0.40769902 0.11620312 0.03930277
0.40772897 0.11718897 0.039296761
0.40865707 0.11801822 0.039767917
0.408687 0.11900248 0.03976192
0.40871692 0.11998674 0.039755922
0.40874681 0.120971 0.039749924
0.40877673 0.12195526 0.039743926
0.40880665 0.12293952 0.039737929
0.40883657 0.12392379 0.039731931
0.40886649 0.12490805 0.039725933
0.40889642 0.12589231 0.039719936
0.40892631 0.12687658 0.039713938
0.40895623 0.12786083 0.03970794
0.40898615 0.1288451 0.039701942
0.40901607 0.12982935 0.039695945
0.40904599 0.13081361 0.039689947
0.40907592 0.13179787 0.039683949
0.40910584 0.13278213 0.039677951
0.40913573 0.1337664 0.039671954
0.40916565 0.13475065 0.039665956
0.40919557 0.13573492 0.039659955
0.40922549 0.13671917 0.039653957
0.40925542 0.13770343 0.039647959
0.40928534 0.13868769 0.039641961
0.40931523 0.13967195 0.039635964
0.40934515 0.14065622 0.039629966
0.40937507 0.14164047 0.039623968
0.40940499 0.14262474 0.039617971
0.40943491 0.14360899 0.039611973
0.40946484 0.14459325 0.039605975
0.40949476 0.14557751 0.039599977
0.40952465 0.14656177 0.03959398
0.40955457 0.14754604 0.039587982
0.40958449 0.14853029 0.039581984
0.40961441 0.14951456 0.039575987
0.40964434 0.15049881 0.039569989
0.40967426 0.15148307 0.039563991
0.40970415 0.15246734 0.039557993
0.40973407 0.15345159 0.039551996
0.40886766 0.15465139 0.039068475
0.40889764 0.15563723 0.03906247
0.40892759 0.1566231 0.039056461
0.40895757 0.15760894 0.039050456
0.40898752 0.1585948 0.039044447
0.40812141 0.15980414 0.03856086
0.40815142 0.16079158 0.03855484
0.40818143 0.16177903 0.038548823
0.40260759 0.10615025 0.035736229
0.40443322 0.10687076 0.03668673
0.40536103 0.10772394 0.037158974
0.40539113 0.10871457 0.037152939
0.40631878 0.10956297 0.03762522
0.40634885 0.11055201 0.037619192
0.4063789 0.11154105 0.037613165
0.40730643 0.11238308 0.038085513
0.40733644 0.11337052 0.038079496
0.40736645 0.11435796 0.03807348
0.40739647 0.11534541 0.03806746
0.40832368 0.11617948 0.038539819
0.40835366 0.11716533 0.038533814
0.40838361 0.11815119 0.038527805
0.40841359 0.11913703 0.038521796
0.40844354 0.12012289 0.038515791
0.40847352 0.12110874 0.038509782
0.40850347 0.1220946 0.038503777
0.40853345 0.12308045 0.038497768
0.40856341 0.12406631 0.038491759
0.40859339 0.12505217 0.038485754
0.40862334 0.12603801 0.038479745
0.40954998 0.12685297 0.038952228
0.4095799 0.12783723 0.03894623
0.40960982 0.12882149 0.038940232
0.40963972 0.12980574 0.038934235
0.40966964 0.13079001 0.038928237
0.40969956 0.13177428 0.038922235
0.40972948 0.13275853 0.038916238
0.4097594 0.13374279 0.03891024
0.40978932 0.13472705 0.038904242
0.40981922 0.13571131 0.038898245
0.40984914 0.13669558 0.038892247
0.40987906 0.13767983 0.038886249
0.40990898 0.1386641 0.038880251
0.4099389 0.13964835 0.038874254
0.40996882 0.14063261 0.038868256
0.40999874 0.14161687 0.038862258
0.41002864 0.14260113 0.03885626
0.41005856 0.14358538 0.038850263
0.41008848 0.14456965 0.038844265
0.4101184 0.1455539 0.038838267
0.41014832 0.14653818 0.03883227
0.41017824 0.14752245 0.038826272
0.41020814 0.1485067 0.038820274
0.41023806 0.14949097 0.038814276
0.41026798 0.15047522 0.038808279
0.4102979 0.15145949 0.038802281
0.40943241 0.15265603 0.038317543
0.40946236 0.15364189 0.038311534
0.40949234 0.15462776 0.038305528
0.40952229 0.1556136 0.03829952
0.40955228 0.15659945 0.038293511
0.40868706 0.15780558 0.03780872
0.40871707 0.15879302 0.037802704
0.40874708 0.15978047 0.037796687
0.407882 0.16099297 0.037311818
0.4088071 0.16175535 0.037784651
0.40794215 0.16297105 0.037299767
0.40141442 0.10539944 0.034012932
0.40234151 0.10626221 0.034486361
0.40416524 0.10698438 0.035439346
0.40509206 0.10783919 0.035912819
0.40601882 0.10869081 0.036386304
0.40604892 0.10968145 0.036380269
0.40697554 0.1105283 0.036853787
0.40700558 0.11151733 0.036847763
0.40703565 0.11250637 0.036841735
0.40706572 0.11349542 0.036835708
0.40799212 0.11433429 0.0373093
0.40802214 0.11532174 0.037303284
0.40805215 0.11630919 0.037297267
0.40808216 0.11729663 0.037291251
0.40811217 0.11828408 0.037285235
0.40814218 0.11927152 0.037279215
0.4090682 0.12009926 0.037752852
0.40909818 0.12108511 0.037746847
0.40912813 0.12207096 0.037740838
0.40915811 0.12305681 0.037734829
0.40918806 0.12404267 0.037728824
0.40921804 0.12502852 0.037722815
0.40924799 0.12601438 0.037716806
0.40927798 0.12700023 0.037710801
0.40930793 0.12798609 0.037704792
0.40933791 0.12897193 0.037698783
0.40936786 0.12995778 0.037692778
0.40939781 0.13094364 0.037686769
0.40942779 0.1319295 0.037680764
0.40945774 0.13291535 0.037674755
0.40948772 0.13390121 0.037668746
0.40951768 0.13488705 0.037662741
0.40954766 0.1358729 0.037656732
0.40957761 0.13685875 0.037650723
0.40960759 0.13784461 0.037644718
0.40963754 0.13883045 0.037638709
0.40966752 0.13981631 0.037632704
0.40969747 0.14080217 0.037626695
0.40972745 0.14178802 0.037620686
0.40975741 0.14277388 0.037614681
0.40978739 0.14375973 0.037608672
0.40981734 0.14474559 0.037602663
0.40984732 0.14573143 0.037596658
0.40987727 0.1467173 0.037590649
0.40990722 0.14770314 0.03758464
0.4099372 0.148689 0.037578635
0.40996715 0.14967485 0.037572626
0.40999714 0.15066071 0.037566621
0.41002709 0.15164655 0.037560612
0.41005707 0.1526324 0.037554603
0.41008702 0.15361826 0.037548598
0.410117 0.15460412 0.037542589
0.4092527 0.155807 0.03705658
0.40928271 0.15679446 0.03705056
0.40931273 0.1577819 0.037044544
0.40934274 0.15876935 0.037038527
0.40847865 0.15998022 0.03655244
0.40850869 0.16096926 0.036546413
0.40853876 0.16195828 0.036540389
0.40767491 0.16317552 0.036054291
0.39568466 0.10328559 0.029893456
0.40207753 0.10637408 0.033234049
0.40389928 0.10709793 0.034189492
0.40482515 0.10795438 0.03466418
0.40575093 0.10880763 0.035138898
0.40578109 0.10979985 0.035132848
0.40670672 0.11064833 0.035607595
0.40763226 0.11149362 0.03608235
0.40766233 0.11248267 0.036076322
0.4076924 0.1134717 0.036070298
0.40772244 0.11446074 0.036064271
0.40775251 0.11544978 0.036058243
0.40778258 0.11643882 0.036052216
0.40870783 0.11727296 0.036527075
0.40873784 0.1182604 0.036521055
0.40876785 0.11924784 0.036515038
0.40879789 0.12023529 0.036509022
0.4088279 0.12122273 0.036503006
0.40885791 0.12221018 0.036496986
0.40888792 0.12319762 0.036490969
0.40891793 0.12418507 0.036484953
0.40894794 0.12517253 0.036478937
0.40897796 0.12615997 0.036472917
0.40900797 0.12714742 0.0364669
0.40903798 0.12813485 0.036460884
0.40906799 0.1291223 0.036454868
0.40909803 0.13010974 0.036448848
0.40912804 0.1310972 0.036442831
0.40915805 0.13208464 0.036436815
0.41008243 0.1328917 0.036911812
0.41011238 0.13387758 0.036905803
0.41014236 0.13486341 0.036899798
0.41017231 0.13584927 0.036893789
0.41020229 0.13683511 0.03688778
0.41023225 0.13782097 0.036881775
0.4102622 0.13880682 0.036875766
0.41029218 0.13979268 0.036869757
0.41032213 0.14077854 0.036863752
0.41035211 0.14176439 0.036857743
0.41038206 0.14275025 0.036851734
0.41041204 0.14373609 0.036845729
0.41044199 0.14472196 0.03683972
0.41047198 0.1457078 0.036833715
0.41050193 0.14669365 0.036827706
0.41053191 0.14767951 0.036821697
0.41056186 0.14866535 0.036815692
0.41059184 0.14965121 0.036809683
0.41062179 0.15063706 0.036803674
0.41065177 0.15162292 0.036797669
0.40978834 0.15282099 0.036310453
0.40981835 0.15380844 0.036304437
0.40984836 0.1547959 0.03629842
0.40987837 0.15578333 0.0362924
0.40990838 0.15677078 0.036286384
0.4099384 0.15775822 0.036280368
0.40996841 0.15874568 0.036274351
0.40910533 0.1599565 0.035787031
0.40824237 0.16117051 0.035299726
0.40737951 0.1623877 0.034812395
0.40740967 0.16337992 0.034806348
0.40654698 0.16460191 0.034318987
0.39447302 0.10149428 0.028160475
0.3945038 0.1025072 0.028154304
0.39632446 0.10326138 0.02911203
0.39814487 0.10400919 0.030069761
0.39907026 0.10488319 0.030545583
0.40089038 0.10561986 0.031503409
0.40271026 0.10635015 0.032461248
0.40363526 0.10721141 0.03293715
0.40456024 0.10806946 0.033413094
0.40548506 0.10892435 0.033889025
0.40640977 0.10977606 0.034364983
0.40733442 0.11062457 0.034840956
0.40736452 0.1116152 0.034834918
0.40739465 0.11260584 0.034828883
0.40742475 0.11359648 0.034822844
0.40834913 0.11443703 0.035298869
0.4083792 0.11542607 0.035292845
0.40840927 0.11641511 0.035286818
0.40843931 0.11740414 0.03528079
0.40846938 0.11839319 0.035274763
0.40849945 0.11938222 0.035268735
0.40852949 0.12037126 0.035262708
0.40855956 0.12136029 0.035256684
0.40858963 0.12234933 0.035250656
0.40951359 0.12317394 0.035726804
0.4095436 0.1241614 0.035720788
0.40957361 0.12514885 0.035714772
0.40960363 0.12613629 0.035708752
0.40963364 0.12712374 0.035702735
0.40966365 0.12811117 0.035696719
0.40969366 0.12909862 0.035690702
0.40972367 0.13008606 0.035684682
0.40975368 0.13107352 0.035678666
0.40978372 0.13206097 0.03567265
0.40981373 0.13304842 0.035666633
0.40984374 0.13403586 0.035660613
0.40987375 0.1350233 0.035654597
0.40990376 0.13601075 0.035648581
0.40993378 0.13699819 0.035642564
0.40996379 0.13798565 0.035636544
0.4099938 0.13897307 0.035630528
0.41002381 0.13996053 0.035624512
0.41005382 0.14094798 0.035618495
0.41008383 0.14193542 0.035612475
0.41011387 0.14292286 0.035606459
0.41014388 0.14391032 0.035600442
0.41017389 0.14489776 0.035594426
0.4102039 0.1458852 0.03558841
0.41023391 0.14687265 0.03558239
0.41026393 0.14786009 0.035576373
0.41029394 0.14884754 0.035570357
0.41032395 0.14983499 0.035564341
0.41035396 0.15082243 0.035558321
0.41038397 0.15180987 0.035552304
0.41041401 0.15279733 0.035546288
0.41044402 0.15378477 0.035540272
0.41047403 0.15477222 0.035534251
0.40961173 0.15597664 0.035045739
0.4096418 0.15696569 0.035039712
0.40967187 0.15795471 0.035033684
0.40880984 0.1591655 0.034545161
0.40883994 0.16015613 0.034539122
0.40887004 0.16114676 0.034533087
0.40800822 0.16236392 0.034044527
0.40625456 0.16381237 0.03307341
0.40628481 0.16480778 0.033067346
0.40542322 0.16603449 0.032578696
0.39511484 0.10146999 0.027376583
0.39603958 0.10235517 0.027853565
0.39696425 0.10323717 0.028330598
0.39788878 0.10411599 0.028807623
0.39970705 0.1048591 0.029767845
0.40063134 0.10572995 0.03024492
0.40244928 0.10646191 0.031205242
0.40337333 0.10732479 0.031682361
0.40519094 0.1080456 0.032642756
0.40611476 0.10890052 0.033119921
0.40614498 0.10989434 0.033113867
0.40706864 0.1107445 0.033591062
0.40799221 0.11159146 0.034068279
0.40802231 0.11258209 0.034062244
0.40805244 0.11357272 0.034056209
0.40808254 0.11456335 0.03405017
0.40811265 0.11555398 0.034044135
0.40903595 0.11639139 0.034521405
0.40906599 0.11738043 0.034515381
0.40909606 0.11836948 0.034509353
0.40912613 0.1193585 0.034503326
0.40915617 0.12034754 0.034497298
0.40918624 0.12133659 0.034491271
0.40921631 0.12232562 0.034485243
0.40924639 0.12331466 0.034479219
0.40927643 0.1243037 0.034473192
0.4093065 0.12529275 0.034467164
0.40933657 0.12628177 0.034461137
0.40936664 0.12727082 0.034455109
0.40939668 0.12825985 0.034449082
0.40942675 0.12924889 0.034443058
0.40945682 0.13023792 0.034437031
0.40948686 0.13122697 0.034431003
0.40951693 0.13221601 0.034424976
0.409547 0.13320504 0.034418948
0.40957707 0.13419409 0.03441292
0.40960711 0.13518311 0.034406897
0.40963718 0.13617216 0.034400869
0.40966725 0.1371612 0.034394842
0.40969729 0.13815023 0.034388814
0.40972736 0.13913926 0.034382787
0.40975744 0.14012831 0.034376759
0.40978751 0.14111736 0.034370732
0.40981755 0.14210638 0.034364708
0.40984762 0.14309543 0.03435868
0.40987769 0.14408447 0.034352653
0.40990773 0.1450735 0.034346625
0.4099378 0.14606254 0.034340598
0.40996787 0.14705159 0.03433457
0.40999794 0.14804062 0.034328546
0.41002798 0.14902966 0.034322519
0.41005805 0.15001871 0.034316491
0.41008812 0.15100773 0.034310464
0.41011816 0.15199678 0.034304436
0.41014823 0.15298581 0.034298409
0.4101783 0.15397486 0.034292385
0.41020837 0.1549639 0.034286357
0.41023842 0.15595293 0.03428033
0.41026849 0.15694197 0.034274302
0.40940741 0.15815112 0.033784557
0.40943754 0.15914175 0.033778522
0.40946764 0.16013238 0.033772487
0.40771577 0.1615728 0.03279895
0.40774596 0.16256662 0.032792896
0.4068853 0.16378851 0.032303073
0.40602463 0.16501361 0.031813201
0.40516415 0.16624185 0.031323336
0.39572588 0.10043278 0.026598858
0.39664963 0.10131959 0.027077062
0.39668038 0.10233093 0.027070899
0.39760405 0.10321296 0.027549164
0.39852759 0.10409182 0.028027419
0.40034381 0.104835 0.028990114
0.40126711 0.1057059 0.029468415
0.40308303 0.10643793 0.030431205
0.40400609 0.10730086 0.030909555
0.40492901 0.1081606 0.031387933
0.40585193 0.10901715 0.031866346
0.4067747 0.10987052 0.032344762
0.40769735 0.11072071 0.03282319
0.40772751 0.11171293 0.032817144
0.40865001 0.11255834 0.033295602
0.40868014 0.11354897 0.033289563
0.40871024 0.1145396 0.033283528
