# .PCD v0.7 - Point Cloud Data file format
VERSION 0.7
FIELDS x y z
SIZE 4 4 4
TYPE F F F
COUNT 1 1 1
WIDTH 1372
HEIGHT 1
VIEWPOINT 0 0 0 1 0 0 0
POINTS 1372
DATA ascii
0.43283138 0.047187705 0.00018564732
0.44055989 0.048768613 0.0050056474
0.44916782 0.051206134 0.010357045
0.45090067 0.052065682 0.011425046
0.45178166 0.052971657 0.011956175
0.45351419 0.053820059 0.013024244
0.45354319 0.054774057 0.013018431
0.45357218 0.055728059 0.013012618
0.45360118 0.056682058 0.013006805
0.45448169 0.057575297 0.013537978
0.45451066 0.058527701 0.013532174
0.4545396 0.059480108 0.013526371
0.45541999 0.06036697 0.014057621
0.45544887 0.061317787 0.014051827
0.45547777 0.062268604 0.014046033
0.45635793 0.063149095 0.014577284
0.45638677 0.064098321 0.0145715
0.45726675 0.06497404 0.01510278
0.45729557 0.065921664 0.015097006
0.45817542 0.066792607 0.015628321
0.45820415 0.067738645 0.015622556
0.45908386 0.068604805 0.016153896
0.45911258 0.069549248 0.016148141
0.45999217 0.070410632 0.01667954
0.46002084 0.07135348 0.016673794
0.46004951 0.072296329 0.01666805
0.46092886 0.073151343 0.017199462
0.46095747 0.074092604 0.017193725
0.46098608 0.075033858 0.01718799
0.46186525 0.075882502 0.017719436
0.4618938 0.076822177 0.017713709
0.46192238 0.077761836 0.017707983
0.46195093 0.078701504 0.017702257
0.46282986 0.079542182 0.018233752
0.46285838 0.080480255 0.018228035
0.46288687 0.081418328 0.018222319
0.46291539 0.082356401 0.018216603
0.46379414 0.083189115 0.018748183
0.4638226 0.084125593 0.018742476
0.46385106 0.085062079 0.01873677
0.46472955 0.085888423 0.019268351
0.46475798 0.086823307 0.019262655
0.46563631 0.087644875 0.019794265
0.46566468 0.088578172 0.019788578
0.46654287 0.089394964 0.020320222
0.46657121 0.090326667 0.020314544
0.46659952 0.091258369 0.020308867
0.46747753 0.092068791 0.020840546
0.46750581 0.0929989 0.020834878
0.46753407 0.093929008 0.02082921
0.46841192 0.094733052 0.02136096
0.46844015 0.095661566 0.021355301
0.46931782 0.096460834 0.021887055
0.46934599 0.097387761 0.021881405
0.46937418 0.098314688 0.021875758
0.47025165 0.099107593 0.022407543
0.47027978 0.10003292 0.022401903
0.47030789 0.10095826 0.022396265
0.47033602 0.10188358 0.022390626
0.47036415 0.10280892 0.022384988
0.47124133 0.10359226 0.022916831
0.4712694 0.104516 0.022911202
0.4712975 0.10543974 0.022905573
0.47132558 0.10636348 0.022899944
0.47135365 0.10728722 0.022894315
0.47138172 0.10821096 0.022888687
0.4714098 0.10913471 0.022883056
0.47143787 0.11005844 0.022877427
0.47146595 0.11098218 0.022871798
0.47149402 0.11190592 0.022866169
0.47067353 0.11298757 0.022322962
0.46985313 0.1140724 0.021779735
0.46903282 0.11516044 0.021236481
0.46821257 0.11625165 0.020693183
0.46739247 0.11734605 0.020149896
0.46657246 0.11844363 0.019606585
0.46575254 0.11954439 0.01906326
0.46408445 0.12081742 0.017982231
0.46326476 0.12192614 0.017438859
0.46159706 0.1232103 0.016357793
0.46077755 0.124327 0.01581434
0.45995823 0.12544689 0.015270898
0.45913899 0.12656994 0.014727432
0.45916781 0.12751757 0.014721657
0.43002528 0.046331774 -0.0027285928
0.43346006 0.047163915 -0.00058222399
0.43689448 0.047983311 0.0015642225
0.44032851 0.048789971 0.0037107468
0.44376212 0.049583886 0.0058573429
0.44634444 0.050413046 0.0074658473
0.44892648 0.051232647 0.0090744421
0.4506574 0.052093863 0.010144895
0.45153734 0.053001475 0.010677215
0.45326796 0.053851541 0.011747774
0.45329699 0.054807134 0.01174195
0.45417666 0.055705186 0.012274329
0.45420566 0.056659184 0.012268515
0.45423466 0.057613187 0.012262702
0.45511413 0.058504868 0.012795119
0.45514306 0.059457276 0.012789315
0.455172 0.06040968 0.012783512
0.45605135 0.061294992 0.013315999
0.45608023 0.062245805 0.013310205
0.45610914 0.063196622 0.013304411
0.45698822 0.064075559 0.013836905
0.45701706 0.065024786 0.013831121
0.45704591 0.065974005 0.013825336
0.45792481 0.066846572 0.014357876
0.4579536 0.067794204 0.014352101
0.45883235 0.068661995 0.014884664
0.45886111 0.069608033 0.014878899
0.45973971 0.070471048 0.01541149
0.45976841 0.071415491 0.015405735
0.4606469 0.072273724 0.015938388
0.46067557 0.07321658 0.015932642
0.46070424 0.074159428 0.015926898
0.46158248 0.075011298 0.016459556
0.46161109 0.075952552 0.016453821
0.4616397 0.076893814 0.016448084
0.46251777 0.077739313 0.016980788
0.46254632 0.07867898 0.016975062
0.4625749 0.07961864 0.016969336
0.46260345 0.080558307 0.01696361
0.46348128 0.081395835 0.017496357
0.46350977 0.082333915 0.01749064
0.46353829 0.083271988 0.017484924
0.46356681 0.084210061 0.017479207
0.46444443 0.085039623 0.018012036
0.46447289 0.085976109 0.018006328
0.46535033 0.086800896 0.018539153
0.46537876 0.087735787 0.018533457
0.46540716 0.088670671 0.018527759
0.46628442 0.089489095 0.019060623
0.46631277 0.090422384 0.019054936
0.46718988 0.091236033 0.019587833
0.46721819 0.092167735 0.019582156
0.4672465 0.093099438 0.019576479
0.46812341 0.093906708 0.020109409
0.46815169 0.094836816 0.020103741
0.4690285 0.095639311 0.020636734
0.46905673 0.096567824 0.020631077
0.46908495 0.097496338 0.020625418
0.46996149 0.09829247 0.021158418
0.46998966 0.099219397 0.021152768
0.47001785 0.10014632 0.021147121
0.47089422 0.10093607 0.021680158
0.47092235 0.1018614 0.021674519
0.47095045 0.10278673 0.021668881
0.47097859 0.10371206 0.021663241
0.47100672 0.1046374 0.021657603
0.47188279 0.10541759 0.022190705
0.47191086 0.10634134 0.022185076
0.47193894 0.10726507 0.022179447
0.47196701 0.10818882 0.022173818
0.47199512 0.10911256 0.022168189
0.47202319 0.1100363 0.02216256
0.47205126 0.11096004 0.022156931
0.47123173 0.11204005 0.021612493
0.47125986 0.11296539 0.021606855
0.47128797 0.11389071 0.021601217
0.46962115 0.11513817 0.020517914
0.46880192 0.11622935 0.019973382
0.46798283 0.11732371 0.019428862
0.4671638 0.11842126 0.018884318
0.46634489 0.11952198 0.018339761
0.46467882 0.12079493 0.017256269
0.46301299 0.12207423 0.016172767
0.46219447 0.1231877 0.015628131
0.46137598 0.12430435 0.015083444
0.46055767 0.12542421 0.014538771
0.45973942 0.12654723 0.013994076
0.45892131 0.12767343 0.013449357
0.43408877 0.047140125 -0.0013500953
0.43751913 0.047959678 0.00080127874
0.44094911 0.048766486 0.0029527361
0.44352871 0.049606912 0.0045648669
0.44695798 0.05038983 0.0067164642
0.44868717 0.051259086 0.0077893673
0.4495663 0.0521731 0.0083228815
0.45129508 0.05303121 0.009395821
0.45302373 0.053882945 0.010468836
0.45305282 0.054840133 0.010463003
0.45393154 0.055739813 0.010996605
0.45396057 0.056695405 0.010990782
0.45483914 0.057590313 0.011524413
0.45486814 0.058544315 0.011518599
0.45489714 0.059498314 0.011512786
0.45577547 0.060386848 0.012046455
0.45580444 0.061339259 0.012040651
0.45583338 0.062291663 0.012034848
0.45671159 0.063173823 0.012568588
0.4567405 0.064124636 0.012562795
0.45676941 0.065075457 0.012557
0.45764738 0.06595125 0.013090747
0.45767623 0.066900469 0.013084963
0.45855406 0.067771487 0.013618739
0.45858285 0.068719119 0.013612965
0.45946053 0.069585353 0.01414677
0.45948929 0.070531391 0.014141005
0.45951805 0.071477428 0.014135241
0.46039554 0.072337292 0.014669085
0.46042424 0.073281743 0.014663329
0.46130165 0.074136823 0.015197235
0.46133029 0.075079672 0.01519149
0.46135896 0.076022528 0.015185745
0.46223611 0.076871246 0.015719656
0.46226472 0.077812508 0.015713921
0.46229333 0.078753762 0.015708184
0.46317029 0.07959611 0.016242135
0.46319884 0.080535777 0.01623641
0.46322742 0.081475444 0.016230684
0.46325597 0.082415111 0.016224958
0.4641327 0.083249494 0.016758958
0.46416119 0.084187567 0.016753241
0.46418971 0.08512564 0.016747525
0.46506628 0.085953653 0.017281594
0.46509475 0.086890131 0.017275888
0.46512321 0.08782661 0.017270181
0.46599954 0.088648252 0.017804259
0.46602795 0.089583144 0.017798562
0.46605638 0.090518028 0.017792864
0.46693251 0.091333315 0.018326981
0.46696088 0.092266604 0.018321292
0.46783686 0.093077101 0.018855445
0.46786517 0.094008803 0.018849766
0.46789351 0.094940506 0.018844089
0.46876928 0.095744632 0.019378273
0.46879756 0.09667474 0.019372605
0.46967328 0.097474076 0.019906851
0.4697015 0.098402597 0.019901192
0.46972972 0.099331118 0.019895533
0.47060516 0.10012409 0.020429786
0.47063333 0.10105102 0.020424137
0.47066152 0.10197794 0.020418489
0.47153679 0.10276455 0.02095278
0.47156489 0.10368988 0.020947142
0.47159302 0.10461521 0.020941501
0.47162116 0.10554054 0.020935863
0.47164929 0.10646588 0.020930225
0.47167739 0.10739121 0.020924587
0.47255233 0.10816666 0.021458944
0.4725804 0.10909042 0.021453315
0.47260848 0.11001415 0.021447686
0.47263655 0.11093789 0.021442058
0.47266465 0.11186162 0.021436429
0.47184616 0.1129432 0.020890754
0.4718743 0.11386853 0.020885115
0.47105595 0.11495489 0.020339411
0.46939126 0.11620705 0.01925358
0.46857315 0.11730137 0.018707829
0.46775517 0.11839887 0.018162051
0.46693727 0.11949956 0.017616259
0.4652732 0.12077244 0.016530303
0.4636094 0.12205166 0.015444339
0.46279186 0.12316509 0.014898471
0.46197441 0.12428171 0.01435255
0.46115708 0.12540151 0.013806642
0.46033987 0.12652451 0.013260715
0.45952275 0.12765068 0.012714768
0.4595516 0.1285999 0.012708983
0.43471745 0.047116335 -0.0021179665
0.43814379 0.047936041 3.8340666e-05
0.44072071 0.048787728 0.0016541035
0.44329739 0.049629856 0.0032699564
0.44587377 0.050462428 0.0048858621
0.44844982 0.051285449 0.0065017994
0.44932804 0.052201092 0.0070365695
0.45105487 0.053060871 0.0081119658
0.4527815 0.053914279 0.0091874003
0.45365933 0.054817181 0.0097222477
0.45368841 0.055774368 0.0097164148
0.45456606 0.056672495 0.010251259
0.45459512 0.057628088 0.010245437
0.45462415 0.058583684 0.010239613
0.45550159 0.059475441 0.010774497
0.45553058 0.060429439 0.010768684
0.45555958 0.061383441 0.01076287
0.45643684 0.062268831 0.011297787
0.45646581 0.063221239 0.011291983
0.45734295 0.064101845 0.011826966
0.45737186 0.065052658 0.011821172
0.45740077 0.066003472 0.011815378
0.45827767 0.066877708 0.012350368
0.45830652 0.067826934 0.012344584
0.45833537 0.068776153 0.012338799
0.45921209 0.069644026 0.012873828
0.45924091 0.070591651 0.012868054
0.46011749 0.071454741 0.013403112
0.46014625 0.072400779 0.013397347
0.46102268 0.073259093 0.013932435
0.46105137 0.074203543 0.013926679
0.46108007 0.075147986 0.013920925
0.46195638 0.075999923 0.014456082
0.46198502 0.076942779 0.014450337
0.46201369 0.077885628 0.014444591
0.46288973 0.078731202 0.014979756
0.46291834 0.079672456 0.01497402
0.46294695 0.080613717 0.014968284
0.46382281 0.081452914 0.015503488
0.46385136 0.082392581 0.015497763
0.46387991 0.083332248 0.015492036
0.46390849 0.084271915 0.01548631
0.46478409 0.085103154 0.016021563
0.46481261 0.086041227 0.016015846
0.46484113 0.0869793 0.01601013
0.4657166 0.087804161 0.016545452
0.46574506 0.088740639 0.016539747
0.46577352 0.089677125 0.01653404
0.46664873 0.090495616 0.01706937
0.46667716 0.091430508 0.017063672
0.46755224 0.09224423 0.017599031
0.46758059 0.09317752 0.017593345
0.46845552 0.093986467 0.018128732
0.46848384 0.094918169 0.018123055
0.46851218 0.095849864 0.018117378
0.46938691 0.096652441 0.018652799
0.46941519 0.097582556 0.018647131
0.46944344 0.098512664 0.018641463
0.47031805 0.099308856 0.01917696
0.47034627 0.10023738 0.019171303
0.47037449 0.10116589 0.019165644
0.47124884 0.10195572 0.019701149
0.47127703 0.10288264 0.0196955
0.47130519 0.10380957 0.019689852
0.47133335 0.10473649 0.019684203
0.47220746 0.10551836 0.020219756
0.47223559 0.1064437 0.020214118
0.47226372 0.10736902 0.02020848
0.47229186 0.10829436 0.020202842
0.47231996 0.10921969 0.020197202
0.47234809 0.11014502 0.020191563
0.47237623 0.11107036 0.020185925
0.47240436 0.11199568 0.020180285
0.47243246 0.11292101 0.020174647
0.4724606 0.11384635 0.020169009
0.47164327 0.11493266 0.019622071
0.47082606 0.11602216 0.019075114
0.46916351 0.11727903 0.017986793
0.46834654 0.1183765 0.017439788
0.46752965 0.11947715 0.016892765
0.46586758 0.12074994 0.015804341
0.46505094 0.12185856 0.015257267
0.46338928 0.12314249 0.014168808
0.46257284 0.12425907 0.013621655
0.46175653 0.12537883 0.013074514
0.4609403 0.12650178 0.012527353
0.46012419 0.12762791 0.011980173
0.46015304 0.12857714 0.011974389
0.45852116 0.13084216 0.010879919
0.43534616 0.04709255 -0.002885838
0.43792042 0.047955498 -0.0012664112
0.44134235 0.048764206 0.00089485961
0.44391599 0.04960645 0.0025144068
0.44648936 0.050439134 0.004134018
0.44821453 0.051311731 0.0052117971
0.44993958 0.052177951 0.006289653
0.45166439 0.053037807 0.0073675099
0.45254132 0.053945534 0.0079035293
0.45341814 0.054850068 0.0084395688
0.45429492 0.055751421 0.0089756595
0.45432401 0.056708604 0.0089698266
0.45520058 0.057605177 0.0095059136
0.45522964 0.058560774 0.009500091
0.4552587 0.059516363 0.0094942674
0.45613509 0.060406569 0.010030389
0.45616409 0.061360572 0.010024576
0.45619309 0.06231457 0.010018761
0.45706928 0.063198403 0.010554927
0.45709822 0.06415081 0.010549123
0.45712715 0.065103218 0.010543319
0.45800322 0.065980673 0.011079555
0.45803213 0.066931494 0.011073762
0.45806101 0.067882307 0.011067968
0.45893684 0.068753399 0.01160421
0.45896569 0.069702618 0.011598426
0.45899454 0.070651844 0.011592642
0.45987016 0.071516566 0.012128924
0.45989895 0.072464198 0.012123149
0.46077442 0.073324136 0.012659455
0.46080318 0.074270174 0.01265369
0.4616785 0.075125337 0.013190029
0.4617072 0.076069787 0.013184275
0.46173593 0.07701423 0.013178519
0.46261111 0.077863023 0.01371493
0.46263975 0.078805871 0.013709185
0.46266842 0.07974872 0.013703439
0.46354336 0.08059115 0.014239857
0.46357197 0.081532404 0.014234121
0.46360058 0.082473665 0.014228385
0.46447533 0.083309717 0.014764842
0.46450388 0.084249385 0.014759115
0.46453243 0.085189052 0.014753389
0.46456102 0.086128719 0.014747663
0.4654355 0.086956806 0.015284163
0.46546403 0.087894879 0.015278446
0.46549255 0.088832952 0.01527273
0.46636689 0.089654669 0.015809305
0.46639535 0.090591148 0.0158036
0.46726951 0.091408096 0.016340172
0.46729794 0.092342988 0.016334474
0.46817195 0.093155146 0.016871076
0.46820033 0.094088443 0.016865389
0.4682287 0.09502174 0.016859703
0.46910253 0.095827527 0.017396338
0.46913084 0.096759237 0.017390659
0.46915916 0.09769094 0.017384982
0.47003278 0.098490365 0.017921662
0.47006106 0.099420473 0.017915994
0.47008935 0.10035059 0.017910326
0.4701176 0.1012807 0.017904658
0.47099105 0.10207214 0.018441418
0.47101927 0.10300066 0.018435761
0.47104749 0.10392918 0.018430103
0.4719207 0.10471427 0.01896687
0.47194886 0.10564119 0.018961221
0.47197703 0.10656812 0.018955573
0.47285002 0.10734684 0.019492378
0.47287816 0.10827217 0.01948674
0.47290629 0.1091975 0.019481102
0.47293442 0.11012284 0.019475462
0.47296253 0.11104817 0.019469824
0.47299066 0.11197349 0.019464185
0.4730188 0.11289883 0.019458545
0.47304693 0.11382416 0.019452907
0.47223061 0.11491045 0.018904736
0.47141439 0.1159999 0.018356547
0.46975386 0.11725669 0.017265754
0.4689379 0.11835413 0.016717521
0.46812201 0.11945474 0.016169263
0.46646199 0.12072746 0.015078373
0.46564636 0.12183603 0.014530073
0.46398669 0.12311988 0.013439147
0.46317124 0.12423643 0.01289076
0.46235597 0.12535615 0.012342385
0.46154076 0.12647907 0.011793997
0.46072567 0.12760516 0.011245584
0.45991063 0.12873444 0.010697152
0.45993954 0.12968525 0.010691358
0.45912462 0.13081932 0.010142864
0.45662242 0.13232623 0.0085090334
0.43854612 0.047931824 -0.0020305882
0.44111702 0.048785329 -0.00040744102
0.44368768 0.049629282 0.0012157965
0.44625807 0.050463673 0.0028390922
0.44798127 0.051337939 0.0039193342
0.44970432 0.052205831 0.0049996087
0.45142719 0.053067353 0.0060799546
0.45230314 0.053976707 0.0066171982
0.453179 0.054882877 0.0071544605
0.4540548 0.055785861 0.0076917373
0.45408392 0.056744639 0.0076858946
0.4549596 0.057642844 0.0082232375
0.45498869 0.058600027 0.0082174055
0.45586416 0.059493456 0.0087547451
0.45589322 0.060449045 0.0087489225
0.45592228 0.061404642 0.0087430989
0.45679754 0.062291697 0.009280473
0.45682654 0.063245699 0.0092746597
0.45685554 0.064199694 0.0092688454
0.45773065 0.065080382 0.0098062642
0.45775959 0.06603279 0.0098004602
0.45778853 0.066985197 0.0097946562
0.45866349 0.067859508 0.010332146
0.45869237 0.068810321 0.010326351
0.45872128 0.069761142 0.010320557
0.45959598 0.070629083 0.010858047
0.45962483 0.071578301 0.010852263
0.46049941 0.072441474 0.011389787
0.46052819 0.073389105 0.011384013
0.46055701 0.07433673 0.011378239
0.46143135 0.075193524 0.011915802
0.46146011 0.076139562 0.011910037
0.46148887 0.077085607 0.011904272
0.46236306 0.077936031 0.012441869
0.46239176 0.078880474 0.012436113
0.46242046 0.079824917 0.012430359
0.46329451 0.080668971 0.012968032
0.46332315 0.08161182 0.012962286
0.46335182 0.082554668 0.012956541
0.46422559 0.083392352 0.013494221
0.4642542 0.084333621 0.013488485
0.46512786 0.085166529 0.014026188
0.46515641 0.086106189 0.014020463
0.46518496 0.087045856 0.014014737
0.4660584 0.087872393 0.014552484
0.46608692 0.088810466 0.014546768
0.46611544 0.089748539 0.014541051
0.46698874 0.090568699 0.015078871
0.4670172 0.091505185 0.015073164
0.46789032 0.092320569 0.015610974
0.46791872 0.09325546 0.015605277
0.46794716 0.094190344 0.01559958
0.46882007 0.094999366 0.016137434
0.46884844 0.095932655 0.016131748
0.4697212 0.096736901 0.016669625
0.46974951 0.097668603 0.016663948
0.46977782 0.098600306 0.016658271
0.46980616 0.099532001 0.016652593
0.46983448 0.1004637 0.016646916
0.47070694 0.1012584 0.017184857
0.47073522 0.10218851 0.017179189
0.47076347 0.10311861 0.017173521
0.47163582 0.10390691 0.017711535
0.47166404 0.10483543 0.017705876
0.47169226 0.10576396 0.01770022
0.47256437 0.1065459 0.018238233
0.47259253 0.10747282 0.018232584
0.4726207 0.10839975 0.018226936
0.47264889 0.10932668 0.018221287
0.47352073 0.11010065 0.018759355
0.47354886 0.11102598 0.018753717
0.47357699 0.11195131 0.018748078
0.4736051 0.11287665 0.01874244
0.47278976 0.11396129 0.018193046
0.47281793 0.11488822 0.018187396
0.47200271 0.11597764 0.017637979
0.47118756 0.11707027 0.017088505
0.47037253 0.11816607 0.016539043
0.46871439 0.11943232 0.015445762
0.46789962 0.12053608 0.014896258
0.46624175 0.1218135 0.013802872
0.46542722 0.12292522 0.013253318
0.46376967 0.12421378 0.012159865
0.46295539 0.12533347 0.011610263
0.46214119 0.12645635 0.011060636
0.46132711 0.1275824 0.010510989
0.46051311 0.12871164 0.0099613294
0.45969915 0.12984408 0.0094116116
0.45804259 0.1311629 0.0083180116
0.45554346 0.13267289 0.0066804299
0.45051667 0.13475162 0.0034110339
0.44089371 0.048806377 -0.0017122026
0.44346139 0.049652036 -8.5274776e-05
0.44602874 0.05048814 0.0015416734
0.44775003 0.051364072 0.0026243983
0.44947109 0.052233633 0.0037071302
0.45119202 0.053096823 0.0047899331
0.45206702 0.05400781 0.0053284001
0.45294192 0.054915607 0.0058668805
0.45381671 0.055820219 0.0064053861
0.45469144 0.05672165 0.0069439057
0.45472059 0.057680428 0.0069380631
0.4555952 0.058577076 0.0074766492
0.45562428 0.059534263 0.0074708164
0.45649871 0.060426135 0.0080094002
0.45652774 0.061381731 0.0080035767
0.4565568 0.06233732 0.007997754
0.45743102 0.063222826 0.0085363705
0.45746002 0.06417682 0.0085305572
0.45748901 0.065130822 0.0085247429
0.45751801 0.066084825 0.0085189296
0.45839199 0.066962361 0.009057601
0.45842096 0.067914769 0.009051797
0.45929486 0.06878753 0.0095905233
0.45932373 0.069738343 0.0095847296
0.45935264 0.070689157 0.0095789349
0.45938155 0.07163997 0.0095731411
0.46025515 0.072504774 0.01011189
0.46028399 0.073453993 0.010106105
0.46115744 0.074314013 0.010644877
0.46118626 0.075261645 0.010639102
0.46121505 0.076209269 0.010633328
0.46208832 0.077062927 0.011172144
0.46211708 0.078008957 0.011166379
0.46214584 0.078954995 0.011160614
0.46301889 0.079802275 0.011699463
0.46304759 0.080746718 0.011693709
0.46307629 0.081691161 0.011687953
0.46394923 0.082532063 0.01222688
0.46397787 0.083474919 0.012221134
0.4648506 0.084311053 0.012760052
0.46487921 0.085252307 0.012754316
0.4657518 0.086083665 0.013293267
0.46578035 0.087023325 0.013287541
0.46580893 0.087962992 0.013281816
0.46583748 0.08890266 0.013276089
0.46670982 0.089726046 0.013815084
0.46673834 0.090664119 0.013809368
0.46761057 0.091482729 0.01434843
0.46763906 0.092419207 0.014342723
0.46766752 0.093355693 0.014337016
0.46853951 0.094167933 0.01487608
0.46856794 0.095102817 0.014870383
0.46943977 0.095910281 0.01540948
0.46946815 0.096843578 0.015403793
0.46949652 0.097776867 0.015398106
0.47036818 0.098577961 0.015937237
0.47039649 0.099509664 0.01593156
0.47042483 0.10044137 0.015925882
0.47045314 0.10137308 0.015920203
0.47048146 0.10230478 0.015914526
0.47135282 0.10309631 0.016453721
0.4713811 0.10402642 0.016448053
0.47140938 0.10495653 0.016442386
0.47143763 0.10588665 0.016436718
0.47230881 0.10667022 0.016975993
0.47233704 0.10759872 0.016970335
0.47320804 0.10837752 0.017509602
0.4732362 0.10930446 0.017503953
0.47326437 0.11023137 0.017498305
0.47329256 0.1111583 0.017492656
0.47416329 0.11192913 0.018031977
0.47419143 0.11285447 0.018026339
0.47337708 0.11393907 0.017475711
0.47340524 0.114866 0.017470062
0.47259104 0.11595538 0.016919412
0.4717769 0.11704797 0.016368704
0.47096288 0.11814373 0.015818007
0.47014898 0.11924266 0.015267299
0.46849298 0.12051363 0.014171523
0.46683714 0.12179097 0.013075677
0.46602362 0.12290265 0.012524884
0.4652102 0.12401751 0.011974079
0.4643968 0.12513559 0.011423215
0.46274164 0.12643363 0.010327274
0.46192855 0.12755965 0.0097764004
0.46111557 0.12868884 0.0092255007
0.45946082 0.13000281 0.0081294309
0.45696455 0.13150634 0.0064881882
0.45446861 0.13301939 0.0048469249
0.45028961 0.13491471 0.0021152636
0.44611108 0.13682596 -0.0006164888
0.4406724 0.04882735 -0.0030194307
0.44323707 0.049674716 -0.0013888504
0.4458015 0.050512526 0.00024182
0.44752082 0.051390126 0.001327002
0.44923991 0.052261356 0.0024121848
0.45095879 0.05312622 0.0034974124
0.45183289 0.05403883 0.0040371353
0.45355144 0.054892544 0.005122425
0.45358068 0.055854507 0.0051165628
0.45445442 0.056757566 0.0056563118
0.45532808 0.057657443 0.0061960742
0.45535722 0.058616221 0.0061902315
0.45623079 0.059511315 0.006730061
0.45625988 0.060468499 0.0067242282
0.45628896 0.061425686 0.0067183953
0.45716229 0.06231441 0.0072582257
0.45719135 0.063270003 0.0072524026
0.45722038 0.064225592 0.0072465795
0.45809349 0.065107949 0.0077864486
0.45812249 0.066061951 0.0077806353
0.45815149 0.067015953 0.0077748215
0.45902443 0.067891933 0.0083147353
0.45905337 0.068844341 0.0083089322
0.45908234 0.069796748 0.0083031282
0.4599551 0.070666358 0.0088431071
0.459984 0.071617179 0.0088373125
0.46001291 0.072567992 0.0088315187
0.46004182 0.073518805 0.0088257249
0.46091428 0.074380457 0.0093657263
0.46094316 0.075329676 0.0093599418
0.46181551 0.076186553 0.0098999664
0.4618443 0.077134185 0.0098941913
0.46187311 0.078081809 0.0098884171
0.46274525 0.078932315 0.01042848
0.46277401 0.079878353 0.010422715
0.46280277 0.080824383 0.01041695
0.46367472 0.081668518 0.010957059
0.46370342 0.082612962 0.010951303
0.46457529 0.083452307 0.011491466
0.46460396 0.084395163 0.011485721
0.46463263 0.085338019 0.011479976
0.46550423 0.086171001 0.012020146
0.46553284 0.087112255 0.01201441
0.46640432 0.087940462 0.012554615
0.46643287 0.088880129 0.012548889
0.46646145 0.089819796 0.012543162
0.46733272 0.090641625 0.0130834
0.46736124 0.091579705 0.013077684
0.46738976 0.092517778 0.013071968
0.46826088 0.093333237 0.013612282
0.46828935 0.094269715 0.013606575
0.46831781 0.095206194 0.013600869
0.46918872 0.096015289 0.014141184
0.46921712 0.096950181 0.014135487
0.47008789 0.097754493 0.014675832
0.47011626 0.098687798 0.014670145
0.47014463 0.099621087 0.014664458
0.470173 0.10055438 0.014658771
0.4710435 0.10135074 0.01519917
0.47107181 0.10228244 0.015193492
0.47110012 0.10321414 0.015187815
0.47112846 0.10414585 0.015182137
0.47115678 0.10507755 0.015176459
0.47202697 0.10586435 0.01571691
0.47205526 0.10679445 0.015711244
0.47292536 0.10757646 0.016251761
0.47295359 0.10850498 0.016246103
0.47298181 0.1094335 0.016240446
0.47385171 0.11020914 0.016780965
0.47387987 0.11113607 0.016775316
0.47390804 0.112063 0.016769668
0.47393623 0.11298992 0.016764019
0.47396439 0.11391684 0.016758371
0.47399259 0.11484377 0.016752724
0.47317937 0.11593311 0.016200839
0.47236624 0.11702567 0.015648898
0.47155324 0.11812139 0.015096974
0.47074035 0.11922029 0.014545026
0.46992755 0.12032238 0.013993064
0.46827367 0.12159805 0.012894761
0.46746111 0.12270811 0.01234275
0.46580762 0.12399491 0.011244411
0.46415427 0.12528811 0.010146
0.4633421 0.12641092 0.0095939124
0.46168911 0.12771523 0.0084954668
0.46087715 0.12884602 0.0079432977
0.45838374 0.13034302 0.0062984317
0.4558906 0.1318496 0.0046534697
0.45339772 0.13336574 0.0030084548
0.44922385 0.13526407 0.00027061338
0.44505048 0.1371783 -0.0024673252
0.4430148 0.049697321 -0.002694855
0.44473243 0.050584551 -0.0016072703
0.44644979 0.051465414 -0.00051967322
0.448167 0.052339904 0.00056798902
0.44988397 0.053208031 0.0016556638
0.45160073 0.054069784 0.0027433715
0.45247376 0.054980841 0.0032843314
0.45334664 0.055888716 0.0038252845
0.45421943 0.056793407 0.0043662512
0.45509213 0.057694916 0.0049072369
0.45596474 0.058593232 0.0054482426
0.45599389 0.05955201 0.0054424
0.45602301 0.060510788 0.0054365573
0.45689547 0.061402738 0.0059776395
0.45692456 0.062359922 0.0059718066
0.45695364 0.063317105 0.0059659737
0.45782587 0.064202681 0.0065070572
0.45785493 0.065158278 0.0065012337
0.45788395 0.066113874 0.0064954106
0.45875597 0.06699308 0.0070365327
0.45878497 0.067947075 0.0070307194
0.45881397 0.068901077 0.0070249056
0.4596858 0.06977392 0.0075660665
0.45971474 0.070726328 0.0075602629
0.45974368 0.071678728 0.0075544594
0.46061537 0.072545193 0.0080956966
0.46064427 0.073496006 0.0080899028
0.46067315 0.074446827 0.0080841081
0.46070206 0.07539764 0.0080783144
0.46157345 0.076256141 0.0086195627
0.4616023 0.077205367 0.0086137783
0.46247354 0.078059092 0.0091550555
0.46250236 0.079006724 0.0091492813
0.46253115 0.079954349 0.0091435062
0.46340221 0.080801703 0.0096848225
0.46343097 0.081747741 0.0096790576
0.46430185 0.082590319 0.010220408
0.46433055 0.083534762 0.010214653
0.46435928 0.084479213 0.010208898
0.46523002 0.085315414 0.010750314
0.46525869 0.086258262 0.010744568
0.46612924 0.087089688 0.011285981
0.46615785 0.088030949 0.011280246
0.46702829 0.088857599 0.011821688
0.46705684 0.089797266 0.011815961
0.46708539 0.090736933 0.011810236
0.46711397 0.0916766 0.01180451
0.46798414 0.092495292 0.012346006
0.46801266 0.093433358 0.01234029
0.46888274 0.094247267 0.012881842
0.4689112 0.095183745 0.012876135
0.46893966 0.096120223 0.012870428
0.4698095 0.096927769 0.013411987
0.4698379 0.097862646 0.01340629
0.46986634 0.098797545 0.013400593
0.46989474 0.099732429 0.013394896
0.47076434 0.100532 0.013936509
0.47079271 0.1014653 0.013930822
0.47082108 0.1023986 0.013925134
0.47169048 0.10319181 0.01446678
0.47171879 0.10412351 0.014461103
0.47174713 0.10505521 0.014455426
0.47177544 0.10598692 0.014449748
0.4726446 0.10677215 0.014991443
0.47267288 0.10770226 0.014985775
0.47270113 0.10863238 0.014980107
0.47357017 0.10941125 0.015521872
0.47359839 0.11033976 0.015516214
0.47362661 0.11126828 0.015510556
0.47449538 0.11204077 0.016052334
0.47452354 0.1129677 0.016046686
0.47455171 0.11389462 0.016041037
0.4745799 0.11482155 0.016035389
0.47376773 0.11591085 0.015482266
0.47295558 0.11700337 0.014929096
0.47214359 0.11809906 0.01437594
0.47133169 0.11919791 0.013822764
0.4705199 0.12029997 0.013269563
0.4697082 0.12140521 0.012716348
0.4680565 0.12268558 0.011615549
0.46724504 0.12379878 0.011062287
0.46559367 0.1250903 0.0099614253
0.46394253 0.12638819 0.0088605508
0.4622916 0.12769245 0.0077596442
0.45980096 0.12918299 0.0061110849
0.45815042 0.13050158 0.0050100526
0.45566037 0.13200963 0.0033614244
0.45149124 0.1338966 0.00061748439
0.4453828 0.05154055 -0.0023712497
0.44709805 0.052418306 -0.0012811722
0.44881314 0.053289689 -0.00019101817
0.450528 0.054154702 0.00089913688
0.45140007 0.055068988 0.0014412786
0.45227206 0.055980086 0.0019834398
0.45314398 0.056887995 0.0025256523
0.45401576 0.057792727 0.0030678522
0.45488745 0.05869427 0.0036100715
0.45575905 0.059592627 0.0041523161
0.45663053 0.060487803 0.004694574
0.45665967 0.061446581 0.0046887319
0.45753106 0.06233697 0.0052310512
0.45756015 0.063294157 0.0052252184
0.45758924 0.064251341 0.0052193855
0.45846039 0.065135367 0.0057617114
0.45848945 0.066090964 0.0057558883
0.45851851 0.067046553 0.0057500652
0.45938945 0.067924209 0.0062924302
0.45941845 0.068878211 0.0062866169
0.45944744 0.069832206 0.0062808036
0.45947644 0.070786208 0.0062749898
0.46034715 0.071655899 0.0068174032
0.46037611 0.072608307 0.0068115997
0.46040505 0.073560715 0.0068057962
0.46127564 0.074424028 0.0073482804
0.46130455 0.075374842 0.0073424862
0.46133342 0.076325655 0.0073366924
0.46136233 0.077276476 0.0073308982
0.46223262 0.078131832 0.0078733992
0.46226147 0.079081051 0.0078676147
0.46313161 0.079931632 0.0084101502
0.4631604 0.080879256 0.008404376
0.46318921 0.081826888 0.0083986009
0.46405914 0.082671098 0.0089411698
0.4640879 0.083617136 0.0089354049
0.46495768 0.084456563 0.0094780028
0.46498641 0.085401013 0.0094722481
0.46585611 0.086235657 0.010014907
0.46588477 0.087178506 0.010009161
0.46675426 0.088008381 0.010551818
0.46678287 0.088949643 0.010546082
0.46681148 0.089890897 0.010540346
0.46768081 0.090714402 0.01108304
0.46770936 0.09165407 0.011077315
0.46773791 0.092593737 0.011071589
0.46860704 0.093410872 0.011614323
0.46863556 0.094348945 0.011608606
0.46866408 0.095287018 0.01160289
0.46953306 0.096097775 0.012145694
0.46956152 0.097034253 0.012139987
0.46958998 0.097970739 0.012134281
0.46961844 0.098907217 0.012128574
0.47048712 0.099710017 0.012671401
0.47051552 0.1006449 0.012665704
0.47054395 0.10157979 0.012660007
0.47141245 0.10237622 0.013202867
0.47144079 0.10330952 0.01319718
0.47146916 0.10424281 0.013191492
0.47233748 0.10503288 0.013734391
0.4723658 0.10596457 0.013728714
0.47239411 0.10689627 0.013723036
0.47242242 0.10782798 0.013717359
0.47329047 0.10861008 0.014260306
0.47331876 0.10954019 0.014254638
0.47418672 0.1103175 0.014797647
0.47421494 0.11124602 0.014791989
0.47424316 0.11217453 0.01478633
0.47427139 0.11310305 0.014780672
0.47513905 0.1138724 0.015323697
0.47516721 0.11479933 0.015318048
0.47435606 0.1158886 0.014763698
0.47438428 0.11681712 0.014758039
0.47357318 0.11791118 0.014203628
0.47276226 0.11900841 0.013649228
0.47195143 0.12010884 0.013094809
0.4703016 0.12138275 0.011991614
0.46949095 0.12249115 0.011437115
0.46784145 0.12377621 0.010333858
0.4661921 0.12506767 0.0092305299
0.46454296 0.12636547 0.0081271958
0.46289405 0.12766965 0.007023816
0.46040645 0.12916008 0.0053715627
0.45791915 0.13066006 0.0037192507
0.44687495 0.052445725 -0.0025859724
0.44774634 0.053371195 -0.0020426654
0.44945931 0.054239471 -0.00095003116
0.45117205 0.055101376 0.00014260999
0.45204309 0.056014102 0.00068599475
0.452914 0.056923646 0.0012293989
0.45378485 0.057830006 0.0017728545
0.45549697 0.05867121 0.0028656218
0.4555262 0.059633169 0.0028597598
0.45639673 0.060529973 0.0034032415
0.45726717 0.061423592 0.003946743
0.45729631 0.06238237 0.0039409003
0.45732546 0.063341148 0.0039350577
0.45819575 0.064228393 0.0044786297
0.45822483 0.065185577 0.0044727968
0.45825395 0.066142768 0.0044669639
0.45912397 0.067023642 0.0050105429
0.45915303 0.067979239 0.0050047198
0.45918208 0.068934828 0.0049988967
0.46005192 0.069809332 0.0055425144
0.46008092 0.070763335 0.0055367011
0.46010992 0.071717337 0.0055308873
0.46097958 0.072585471 0.006074544
0.46100852 0.073537879 0.00606874
0.46103749 0.074490286 0.0060629365
0.46106642 0.075442694 0.006057133
0.46193588 0.076302856 0.0066008698
0.46196479 0.077253677 0.0065950761
0.46199369 0.07820449 0.0065892818
0.46286291 0.079058297 0.0071330257
0.46289176 0.080007516 0.0071272412
0.46292061 0.080956735 0.0071214573
0.46378964 0.081804164 0.0076652397
0.46381846 0.082751796 0.0076594651
0.46468732 0.083594449 0.0082032774
0.46471608 0.084540494 0.0081975115
0.46558481 0.085378364 0.0087413527
0.46561354 0.086322814 0.0087355981
0.46648216 0.087155901 0.0092794998
0.46651083 0.088098757 0.0092737544
0.4665395 0.089041606 0.0092680091
0.46740788 0.089868329 0.0098119173
0.46743649 0.090809591 0.0098061822
0.46830475 0.091631547 0.010350119
0.4683333 0.092571214 0.010344394
0.46836188 0.093510874 0.010338668
0.46839043 0.094450541 0.010332941
0.46925846 0.095264524 0.010876928
0.46928698 0.096202597 0.010871212
0.46931547 0.09714067 0.010865496
0.47018334 0.097948283 0.011409553
0.4702118 0.098884769 0.011403846
0.47024027 0.09982124 0.011398139
0.47026876 0.10075773 0.011392432
0.47113633 0.10155738 0.011936506
0.47116473 0.10249227 0.011930809
0.47119316 0.10342715 0.011925112
0.47122157 0.10436204 0.011919416
0.4720889 0.10515373 0.012463538
0.47211727 0.10608703 0.01245785
0.47298446 0.10687394 0.013002002
0.47301278 0.10780564 0.012996324
0.47304109 0.10873734 0.012990647
0.4739081 0.10951789 0.013534837
0.47393638 0.110448 0.013529169
0.47396463 0.11137811 0.013523501
0.47483149 0.11215226 0.014067763
0.47485971 0.11308078 0.014062105
0.47488794 0.1140093 0.014056446
0.47491616 0.11493783 0.014050788
0.47494438 0.11586633 0.01404513
0.47497261 0.11679485 0.014039472
0.47416252 0.11788888 0.013483827
0.47335261 0.11898607 0.012928194
0.47254279 0.12008646 0.012372542
0.47173306 0.12119003 0.01181687
0.47008532 0.12246866 0.010711153
0.46927583 0.12358018 0.010155434
0.46762851 0.12486996 0.009049681
0.4659813 0.12616611 0.0079438565
0.46349651 0.12764685 0.0062879939
0.46017414 0.129317 0.0040819976
0.45768991 0.13081846 0.0024259761
0.451047 0.13421924 -0.0019863846
0.44923523 0.054270115 -0.0022536495
0.45010549 0.055189252 -0.0017090383
0.45181611 0.056048047 -0.0006139169
0.45268607 0.056959223 -6.9289155e-05
0.45355594 0.057867214 0.00047535799
0.45526612 0.05871008 0.0015706142
0.45613572 0.05961011 0.0021153099
0.45616499 0.060572069 0.002109448
0.45703444 0.06146732 0.0026541671
0.45706365 0.062427692 0.0026483147
0.45793298 0.063318163 0.0031930688
0.4579621 0.064276941 0.0031872261
0.45883134 0.065162629 0.0037320412
0.45886043 0.06611982 0.0037262083
0.45888951 0.067076996 0.0037203755
0.45891863 0.068034187 0.0037145428
0.45978755 0.068911918 0.0042593745
0.4598166 0.069867507 0.0042535514
0.45984566 0.070823103 0.0042477283
0.4607144 0.071694463 0.0047925985
0.4607434 0.072648466 0.0047867852
0.4607724 0.07360246 0.0047809714
0.46164095 0.07446745 0.0053258808
0.46166989 0.075419858 0.0053200773
0.46169883 0.076372266 0.0053142733
0.46256724 0.077230878 0.0058592535
0.46259615 0.078181699 0.0058534592
0.46262506 0.079132512 0.0058476655
0.46265393 0.080083326 0.0058418713
0.46352208 0.080933981 0.0063868621
0.46355093 0.0818832 0.0063810782
0.46441889 0.082729079 0.0069261035
0.46444771 0.083676703 0.0069203288
0.46531552 0.084517814 0.007465384
0.46534428 0.085463852 0.0074596191
0.46537304 0.086409882 0.0074538542
0.46624067 0.087244615 0.007998948
0.46626937 0.088189058 0.0079931924
0.46713692 0.089019001 0.0085383467
0.46716556 0.089961849 0.0085326014
0.4680329 0.090787023 0.0090777539
0.46806151 0.091728285 0.0090720179
0.46809012 0.092669547 0.0090662818
0.46895728 0.093488343 0.0096114669
0.46898583 0.09442801 0.0096057411
0.46901441 0.095367678 0.0096000144
0.46904296 0.096307345 0.0095942887
0.46990988 0.097118184 0.010139528
0.46993837 0.098056257 0.010133811
0.46996689 0.098994337 0.010128095
0.47083366 0.099798791 0.010673406
0.47086212 0.10073528 0.010667698
0.47089058 0.10167176 0.010661992
0.47091904 0.10260823 0.010656285
0.47178552 0.10340474 0.011201612
0.47181395 0.10433962 0.011195915
0.47184235 0.10527451 0.011190218
0.47270864 0.10606465 0.011735583
0.47273698 0.10699794 0.011729896
0.47276536 0.10793124 0.011724208
0.47363144 0.10871501 0.012269612
0.47365975 0.10964672 0.012263935
0.4736881 0.11057841 0.012258258
0.47455397 0.11135581 0.012803695
0.47458225 0.11228591 0.012798027
0.47544804 0.11305852 0.013343532
0.47547626 0.11398704 0.013337873
0.47550449 0.11491556 0.013332215
0.47553271 0.11584407 0.013326557
0.47556093 0.11677259 0.013320899
0.47475189 0.11786658 0.01276402
0.47394297 0.11896373 0.01220716
0.47397128 0.11989544 0.012201482
0.47232544 0.12116761 0.01109337
0.47151682 0.12227433 0.010536445
0.46987125 0.12355765 0.0094282329
0.46906286 0.12467234 0.0088712657
0.46658075 0.12614343 0.0072117285
0.46409896 0.12762405 0.0055521713
0.46161744 0.12911426 0.0038925176
0.45829943 0.13079539 0.0016815263
0.45498183 0.13248926 -0.00052954856
0.44988248 0.05522145 -0.0030139056
0.45159116 0.05608191 -0.0019162894
0.45246017 0.056994718 -0.0013704438
0.45416847 0.057844035 -0.0002727918
0.4550373 0.058748875 0.00027314012
0.45590594 0.059650533 0.00081905362
0.4567745 0.060549006 0.0013649923
0.45680374 0.061510969 0.0013591304
0.45767215 0.062404666 0.0019050982
0.45770136 0.063365035 0.001899246
0.45856962 0.064253956 0.0024452372
0.45859876 0.065212734 0.0024393946
0.45862791 0.066171512 0.0024335522
0.45949602 0.067054048 0.0029796199
0.45952511 0.068011239 0.002973787
0.45955423 0.068968423 0.0029679541
0.4604221 0.069844596 0.0035140289
0.46045113 0.070800193 0.0035082058
0.46048018 0.071755782 0.0035023827
0.46134788 0.072625592 0.004048496
0.46137688 0.073579587 0.0040426827
0.46140587 0.074533589 0.0040368694
0.46143487 0.075487584 0.0040310556
0.46230233 0.07634943 0.004577212
0.46233127 0.077301838 0.004571408
0.4623602 0.078254245 0.0045656045
0.46322751 0.079109713 0.0051118373
0.46325642 0.080060527 0.0051060431
0.46328533 0.081011347 0.0051002493
0.46415237 0.081860445 0.0056464886
0.46418121 0.082809664 0.0056407047
0.46421006 0.083758883 0.0056349202
0.46507695 0.084601618 0.0061811986
0.46510574 0.08554925 0.006175424
0.46597245 0.086387202 0.0067217257
0.46600121 0.08733324 0.0067159608
0.4668678 0.088166416 0.0072622974
0.4668965 0.089110859 0.0072565423
0.46776298 0.089939244 0.00780294
0.46779165 0.0908821 0.0077971946
0.46782029 0.091824949 0.0077914493
0.46868652 0.092646979 0.0083378479
0.46871513 0.093588233 0.0083321119
0.46874374 0.094529495 0.0083263768
0.4696098 0.095345147 0.0088728201
0.46963835 0.096284814 0.0088670934
0.46966693 0.097224481 0.0088613676
0.46969548 0.098164149 0.0088556418
0.47056127 0.098971844 0.0094021335
0.47058979 0.099909917 0.0093964171
0.47061831 0.10084799 0.0093907006
0.47148398 0.10164931 0.0099372603
0.47151244 0.10258578 0.0099315541
0.4715409 0.10352226 0.0099258469
0.47156936 0.10445875 0.0099201407
0.47243473 0.1052521 0.01046672
0.47246313 0.10618699 0.010461023
0.47249156 0.10712188 0.010455326
0.47335672 0.10790887 0.011001941
0.4733851 0.10884216 0.010996254
0.47425011 0.10962438 0.011542899
0.47427845 0.11055607 0.01153722
0.47430676 0.11148778 0.011531543
0.4751716 0.11226361 0.012078229
0.47519985 0.11319373 0.012072561
0.47522813 0.11412384 0.012066893
0.47609282 0.1148933 0.012613648
0.47612104 0.11582181 0.01260799
0.47614926 0.11675033 0.012602331
0.47534123 0.11784428 0.012044222
0.47453332 0.1189414 0.011486122
0.47456163 0.11987311 0.011480445
0.47375387 0.120975 0.01092232
0.47211018 0.12225188 0.0098117143
0.47130263 0.12336174 0.0092535084
0.46965927 0.12464977 0.0081428317
0.46801606 0.12594418 0.0070320903
0.46553725 0.12742309 0.0053688427
0.46222293 0.12909135 0.0031529954
0.45807323 0.13095367 0.00038455191
0.45475972 0.13264899 -0.0018314602
0.45223626 0.057030138 -0.0026740592
0.45394263 0.057881124 -0.0015739562
0.45481041 0.058787599 -0.0010268326
0.45567816 0.059690885 -0.00047965773
0.45654577 0.060590986 6.7498826e-05
0.45657504 0.061554547 6.1627165e-05
0.45744249 0.062449869 0.00060881861
0.45747173 0.063411832 0.00060295669
0.45833907 0.064302385 0.0011501715
0.45836824 0.06526275 0.0011443192
0.4592354 0.066148527 0.0016915689
0.45926455 0.067107297 0.0016857263
0.45929369 0.068066083 0.0016798838
0.4601607 0.068945475 0.0022271986
0.46018982 0.069902658 0.0022213657
0.46021891 0.070859842 0.0022155328
0.46108568 0.071732871 0.0027628602
0.4611147 0.072688468 0.0027570371
0.46114376 0.073644057 0.002751214
0.46201035 0.074510716 0.0032985744
0.46203935 0.075464718 0.003292761
0.46206835 0.07641872 0.0032869475
0.46293473 0.077279009 0.0038343524
0.46296367 0.078231417 0.0038285488
0.46299264 0.079183817 0.0038227451
0.46385887 0.080037735 0.0043702181
0.46388778 0.080988549 0.0043644239
0.46391666 0.081939362 0.0043586302
0.46394557 0.082890175 0.0043528359
0.46481153 0.083736129 0.0049003283
0.46484038 0.084685355 0.0048945439
0.4657062 0.085526526 0.0054420624
0.46573499 0.086474158 0.0054362877
0.46660066 0.08731056 0.0059838356
0.46662942 0.088256598 0.0059780707
0.46665817 0.089202628 0.0059723058
0.46752363 0.090032659 0.0065198923
0.46755233 0.090977103 0.0065141371
0.4684177 0.091802344 0.0070617846
0.46844637 0.0927452 0.0070560393
0.46847504 0.093688048 0.0070502935
0.46934015 0.094506927 0.007597948
0.46936876 0.095448181 0.0075922124
0.46939737 0.096389443 0.0075864764
0.47026232 0.097201951 0.0081341695
0.47029087 0.098141618 0.0081284437
0.47031945 0.099081285 0.008122718
0.470348 0.10002095 0.0081169913
0.47121269 0.1008255 0.0086647365
0.47124121 0.10176357 0.0086590201
0.47126973 0.10270164 0.0086533036
0.47129822 0.10363971 0.0086475872
0.47216272 0.10443629 0.0091954097
0.47219121 0.10537277 0.0091897026
0.47221968 0.10630925 0.0091839964
0.47308391 0.10709947 0.0097318254
0.47311234 0.10803435 0.0097261285
0.47397646 0.10881979 0.010273986
0.47400483 0.10975308 0.010268299
0.4748688 0.11053374 0.010816187
0.47489712 0.11146545 0.010810509
0.47492543 0.11239714 0.010804831
0.47495374 0.11332884 0.010799154
0.47581747 0.11410154 0.01134709
0.47584575 0.11503165 0.011341422
0.47587401 0.11596175 0.011335754
0.47590229 0.11689187 0.011330086
0.47593057 0.11782198 0.011324419
0.47595882 0.11875208 0.011318751
0.47515199 0.11985077 0.010759411
0.47434524 0.12095262 0.010200053
0.47353858 0.12205767 0.0096406741
0.47189701 0.12333926 0.0085275434
0.47109058 0.12445226 0.0079681138
0.46861449 0.12592153 0.0063011954
0.46697354 0.12722223 0.0051879804
0.4628284 0.12906843 0.0024134731
0.45868376 0.13093056 -0.00036113127
0.45371878 0.057918135 -0.0028775814
0.45458561 0.058826242 -0.0023292401
0.45545235 0.059731163 -0.0017808735
0.45631903 0.060632892 -0.0012324585
0.45634839 0.061598044 -0.0012383398
0.45721486 0.062495001 -0.00068993052
0.45808128 0.063388772 -0.00014149895
0.45811051 0.064350732 -0.00014736089
0.45813975 0.065312698 -0.00015322283
0.45900595 0.0662001 0.00039524754
0.45903513 0.067160465 0.00038939531
0.45990118 0.06804309 0.0009378948
0.45993033 0.069001868 0.00093205227
0.45995948 0.069960646 0.00092620979
0.46082538 0.070836894 0.0014747801
0.4608545 0.071794078 0.0014689473
0.46088359 0.072751269 0.0014631145
0.46174926 0.073621146 0.0020116917
0.46177828 0.074576743 0.0020058686
0.46180734 0.075532332 0.0020000455
0.46267283 0.076395847 0.0025486613
0.46270183 0.077349849 0.002542848
0.46273082 0.078303844 0.0025370345
0.46359611 0.079160988 0.0030856864
0.46362504 0.080113396 0.0030798828
0.46365398 0.081065804 0.0030740791
0.46451914 0.081916563 0.0036228076
0.46454802 0.082867377 0.0036170136
0.46457693 0.08381819 0.0036112196
0.46544182 0.084662594 0.0041599493
0.46547067 0.085611813 0.0041541648
0.46633545 0.086451441 0.0047029261
0.46636423 0.087399065 0.0046971519
0.46639305 0.088346697 0.0046913773
0.46725759 0.089179948 0.0052401777
0.46728635 0.090125985 0.0052344128
0.46815076 0.09095446 0.0057832422
0.46817946 0.091898903 0.0057774871
0.46820816 0.092843346 0.005771732
0.46907243 0.093665443 0.0063206321
0.4691011 0.094608292 0.0063148867
0.46912977 0.095551148 0.0063091409
0.46999377 0.096366875 0.006858048
0.47002238 0.097308137 0.0068523125
0.47005099 0.098249391 0.0068465769
0.47091484 0.099058762 0.0073955227
0.47094339 0.099998422 0.0073897964
0.47097197 0.10093809 0.0073840707
0.47100052 0.10187776 0.0073783444
0.4718641 0.10267916 0.0079273386
0.47189263 0.10361722 0.0079216221
0.47192115 0.1045553 0.0079159066
0.47278458 0.10535032 0.0084649716
0.47281304 0.1062868 0.0084592653
0.4728415 0.10722328 0.0084535582
0.47286996 0.10815976 0.008447852
0.47373313 0.10894683 0.0089969309
0.47376153 0.10988172 0.0089912331
0.47462454 0.110664 0.0095403446
0.47465292 0.1115973 0.009534657
0.47551578 0.1123748 0.010083797
0.4755441 0.11330651 0.01007812
0.47557241 0.11423821 0.010072442
0.4764351 0.11500935 0.010621621
0.47646335 0.11593945 0.010615953
0.47649163 0.11686957 0.010610285
0.47568569 0.11796503 0.010049732
0.47571403 0.11889672 0.010044054
0.47574234 0.11982843 0.010038377
0.4749366 0.12093025 0.0094777849
0.47413096 0.12203526 0.0089171734
0.47249138 0.12331676 0.0078015788
0.47168601 0.12442974 0.0072409189
0.47004682 0.12572239 0.0061252858
0.46757397 0.1271995 0.0044546188
0.46343389 0.12904553 0.0016739507
0.46012801 0.1307262 -0.00055183476
0.45609429 0.060674727 -0.0025349201
0.45695993 0.061574902 -0.0019852621
0.45698926 0.062540047 -0.0019911435
0.45785469 0.06343545 -0.0014414883
0.45788398 0.064399011 -0.0014473599
0.45874926 0.065289631 -0.00089767849
0.4587785 0.066251598 -0.00090354041
0.45880774 0.067213558 -0.00090940233
0.45967284 0.068097815 -0.00035967922
0.45970204 0.069058187 -0.00036553145
0.460567 0.069937661 0.00018421789
0.46059614 0.070896439 0.00017837535
0.46062526 0.071855217 0.00017253285
0.46149009 0.072728321 0.00072235591
0.46151918 0.073685504 0.00071652309
0.46238378 0.074553832 0.0012663433
0.46241283 0.075509422 0.0012605202
0.46244189 0.076465018 0.001254697
0.46330631 0.077326976 0.0018045531
0.46333531 0.07828097 0.0017987398
0.4633643 0.079234973 0.0017929263
0.46422851 0.08009056 0.0023428241
0.46425748 0.081042968 0.0023370204
0.46428642 0.081995375 0.0023312166
0.46515051 0.082844585 0.0028811854
0.46517938 0.083795398 0.0028753914
0.46520829 0.084746212 0.0028695974
0.4652372 0.085697033 0.0028638034
0.46610099 0.086538285 0.0034137857
0.46612984 0.087487504 0.0034080013
0.46699348 0.088323973 0.0039580157
0.4670223 0.089271605 0.003952241
0.46705109 0.090219237 0.0039464664
0.46791455 0.091049343 0.0044965167
0.46794331 0.091995381 0.0044907518
0.46880659 0.092820704 0.0050408337
0.46883529 0.093765147 0.0050350786
0.46969852 0.094585687 0.005585222
0.46972719 0.095528543 0.0055794767
0.46975583 0.096471392 0.0055737314
0.4697845 0.09741424 0.0055679856
0.47064742 0.098226823 0.0061181425
0.47067603 0.099168085 0.006112407
0.47070464 0.10010935 0.0061066709
0.47156736 0.10091557 0.0066568698
0.47159591 0.10185523 0.0066511435
0.47162449 0.10279489 0.0066454178
0.47165304 0.10373456 0.0066396915
0.47251552 0.10453281 0.007189936
0.47254404 0.10547088 0.0071842195
0.47257257 0.10640895 0.0071785031
0.4734349 0.10720083 0.0077288211
0.47346336 0.1081373 0.0077231145
0.47349182 0.10907379 0.0077174078
0.47435391 0.1098593 0.0082677323
0.47438234 0.11079419 0.0082620354
0.47524428 0.11157493 0.0088123865
0.47527266 0.11250822 0.0088066999
0.47530103 0.11344151 0.0088010123
0.47616276 0.11421587 0.0093514053
0.4761911 0.11514758 0.009345728
0.47621942 0.11607928 0.0093400497
0.47624773 0.11701098 0.0093343724
0.47627604 0.11794269 0.009328695
0.47630438 0.11887439 0.0093230177
0.47633269 0.1198061 0.0093173403
0.47552797 0.12090787 0.0087555144
0.47472331 0.12201285 0.0081936726
0.47308579 0.12329428 0.0070756087
0.4722814 0.12440721 0.006513718
0.47064424 0.12569979 0.0053956215
0.46817443 0.12717678 0.0037212572
0.46487215 0.12884298 0.0014906287
0.46157026 0.13052191 -0.00074007449
0.45763013 0.063482061 -0.0027439413
0.45765948 0.064447209 -0.0027498226
0.45852381 0.065339461 -0.0021989176
0.45855308 0.066303022 -0.0022047893
0.45941728 0.067190498 -0.0016538551
0.45944652 0.068152457 -0.0016597171
0.46031055 0.069035158 -0.0011087537
0.46033975 0.06999553 -0.001114606
0.46036893 0.070955902 -0.0011204582
0.46123278 0.071832225 -0.00056945329
0.46126193 0.07279101 -0.00057529582
