# .PCD v0.7 - Point Cloud Data file format
VERSION 0.7
FIELDS x y z
SIZE 4 4 4
TYPE F F F
COUNT 1 1 1
WIDTH 1389
HEIGHT 1
VIEWPOINT 0 0 0 1 0 0 0
POINTS 1389
DATA ascii
0.40920299 0.078168914 0.02208749
0.40923339 0.079169102 0.022081396
0.41014665 0.08007545 0.022573045
0.41017699 0.081074052 0.022566959
0.41109011 0.081975624 0.023058632
0.41112041 0.082972623 0.023052556
0.41203341 0.083869413 0.023544297
0.41206369 0.084864818 0.02353823
0.4129765 0.085756831 0.024029961
0.41388923 0.086645663 0.024521716
0.41391936 0.087637886 0.02451567
0.41483194 0.088521942 0.025007455
0.41486207 0.089512572 0.02500142
0.41489217 0.090503208 0.024995383
0.41492227 0.091493838 0.024989346
0.41583461 0.092369922 0.025481179
0.41586468 0.093358964 0.025475152
0.41589475 0.094347998 0.025469126
0.41680694 0.095217712 0.025961025
0.41683695 0.09620516 0.025955006
0.41774893 0.097070098 0.026446909
0.41777891 0.098055951 0.0264409
0.41869074 0.098916113 0.026932832
0.41872066 0.099900372 0.026926834
0.41963238 0.10075576 0.027418787
0.42054397 0.10160796 0.027910767
0.42145553 0.10245696 0.028402792
0.4214853 0.10343645 0.028396823
0.42239666 0.10428068 0.028888851
0.4224264 0.10525858 0.028882891
0.42333761 0.10609803 0.029374948
0.42336729 0.10707433 0.029368998
0.42427835 0.10790901 0.029861085
0.42430797 0.10888371 0.029855145
0.42521897 0.10971361 0.030347286
0.42524853 0.11068673 0.030341357
0.42527813 0.11165983 0.030335426
0.42530769 0.11263294 0.030329498
0.42533728 0.11360605 0.030323567
0.42536685 0.11457918 0.030317638
0.42539644 0.11555228 0.030311707
0.42542601 0.1165254 0.030305777
0.4254556 0.11749849 0.030299848
0.42548516 0.11847162 0.030293917
0.42463389 0.11960546 0.029789809
0.42378274 0.12074249 0.029285708
0.4229317 0.12188269 0.028781589
0.42296141 0.12286059 0.028775631
0.42211053 0.12400559 0.02827148
0.42037907 0.12532246 0.027269084
0.39071882 0.060408838 0.010954919
0.39428154 0.061194684 0.012943774
0.39784387 0.061967783 0.014932706
0.40052307 0.062793277 0.016422914
0.40231928 0.06367594 0.017414341
0.40323269 0.064620554 0.01790699
0.40414605 0.065561973 0.018399686
0.40417674 0.066571712 0.018393533
0.40420744 0.06758146 0.018387379
0.40512055 0.068516515 0.018880088
0.40515119 0.069524661 0.018873945
0.40518183 0.070532814 0.0188678
0.40609476 0.071461499 0.019360542
0.40612537 0.072468057 0.019354409
0.40615594 0.073474616 0.019348275
0.40706867 0.074396923 0.01984106
0.40709922 0.075401887 0.019834936
0.40801179 0.076319426 0.020327751
0.40804231 0.077322803 0.020321636
0.4089548 0.078235552 0.020814506
0.40986714 0.079145126 0.021307362
0.40989754 0.080145307 0.021301268
0.41080973 0.081050113 0.021794161
0.41084009 0.082048707 0.021788076
0.41175213 0.082948722 0.022280997
0.41178244 0.083945721 0.022274921
0.41269439 0.084840953 0.022767898
0.41272464 0.085836366 0.022761833
0.41363642 0.086726822 0.023254806
0.41366661 0.08772064 0.023248751
0.41457823 0.088606328 0.023741759
0.41460839 0.089598551 0.023735711
0.41551986 0.090479456 0.02422875
0.41554996 0.091470085 0.024222713
0.41558006 0.092460714 0.024216676
0.41649136 0.093335249 0.024709748
0.4165214 0.094324283 0.024703721
0.41655147 0.095313326 0.024697693
0.41746262 0.096181482 0.025190836
0.41749263 0.09716893 0.025184818
0.41840357 0.098032318 0.025677962
0.41843352 0.099018171 0.025671955
0.41934431 0.099876776 0.02616513
0.41937423 0.10086104 0.026159132
0.42028487 0.10171487 0.026652329
0.42031476 0.10269753 0.02664634
0.42122525 0.10354659 0.027139572
0.42213571 0.10439245 0.027632849
0.42216548 0.10537193 0.027626881
0.42307574 0.10621302 0.02812016
0.42310545 0.10719091 0.028114202
0.42401558 0.10802721 0.028607506
0.42404523 0.10900351 0.028601557
0.42495522 0.10983505 0.029094895
0.42498484 0.11080976 0.029088955
0.42501447 0.11178446 0.029083015
0.4259243 0.11260961 0.029576419
0.42595387 0.11358272 0.02957049
0.42598346 0.11455584 0.029564559
0.42601302 0.11552894 0.029558631
0.42604259 0.11650207 0.0295527
0.42519221 0.11763269 0.029047379
0.42522186 0.11860739 0.029041439
0.42437166 0.11974278 0.028536115
0.42440134 0.12071908 0.028530166
0.42355129 0.12185925 0.028024817
0.42270136 0.12300261 0.027519444
0.42185146 0.12414917 0.027014025
0.42100173 0.12529889 0.026508613
0.42015207 0.12645181 0.026003188
0.41930252 0.12760791 0.025497736
0.41845307 0.12876719 0.024992267
0.41760364 0.12992966 0.02448675
0.39052337 0.061479602 0.0096486835
0.39940345 0.062899105 0.014636456
0.40119779 0.063785024 0.015630363
0.40299189 0.06466458 0.016624276
0.40478587 0.065537766 0.017618254
0.40481654 0.066547506 0.017612102
0.40484723 0.067557245 0.017605947
0.40487793 0.068566993 0.017599795
0.40579 0.069500491 0.018093746
0.40582064 0.070508644 0.018087601
0.40585127 0.071516789 0.018081458
0.40588191 0.072524942 0.018075315
0.40679374 0.073450483 0.018569309
0.40682432 0.074457034 0.018563176
0.407736 0.0753778 0.019057197
0.40776655 0.076382764 0.019051073
0.40867805 0.077298746 0.01954513
0.40870857 0.078302115 0.019539017
0.40873906 0.079305485 0.019532902
0.40965044 0.080215089 0.020027025
0.41056168 0.081121519 0.020521136
0.41059208 0.082121707 0.020515041
0.41150317 0.083023354 0.021009186
0.41153353 0.084021948 0.021003101
0.41244447 0.084918819 0.021497268
0.41247478 0.085915819 0.021491194
0.41338563 0.086807907 0.021985428
0.41341588 0.087803312 0.021979362
0.41432652 0.088690631 0.022473589
0.4152371 0.089574762 0.022967836
0.41526726 0.090566985 0.022961788
0.41529742 0.091559209 0.022955742
0.41620776 0.092436962 0.023450034
0.41623789 0.093427591 0.023443997
0.41626799 0.094418228 0.02343796
0.41717815 0.09528961 0.023932284
0.41720822 0.096278653 0.023926256
0.4181183 0.097145259 0.024420641
0.41814831 0.0981327 0.024414623
0.41905817 0.098994531 0.024909012
0.41908816 0.099980384 0.024903003
0.4199979 0.10083743 0.025397414
0.42002779 0.1018217 0.025391417
0.42093739 0.10267397 0.025885863
0.42096725 0.10365665 0.025879875
0.4218767 0.10450414 0.026374344
0.42278612 0.10534845 0.026868865
0.42281586 0.10632793 0.026862895
0.42372507 0.10716747 0.02735742
0.42375478 0.10814536 0.027351459
0.42466384 0.10898011 0.027846007
0.42469352 0.10995641 0.027840057
0.42560244 0.11078639 0.02833464
0.42563206 0.11176109 0.0283287
0.42566168 0.11273579 0.02832276
0.42569131 0.1137105 0.02831682
0.42572093 0.11468521 0.02831088
0.42575055 0.11565991 0.028304942
0.42578021 0.11663461 0.028299002
0.42580983 0.11760932 0.028293062
0.42583945 0.11858403 0.028287122
0.42499027 0.11971937 0.027780565
0.42501995 0.12069567 0.027774615
0.42417091 0.12183581 0.027268033
0.42332199 0.12297913 0.026761428
0.42335176 0.12395862 0.02675546
0.42162436 0.12527533 0.025748136
0.42077574 0.12642822 0.025241472
0.41992718 0.12758426 0.024734793
0.41907874 0.12874351 0.02422809
0.41823032 0.12990595 0.023721341
0.36906123 0.059776433 -0.0036641092
0.40008029 0.063893966 0.013841424
0.40187252 0.064776778 0.014837811
0.40454507 0.065583393 0.016335502
0.40457579 0.066594727 0.016329341
0.40460652 0.067606062 0.016323177
0.40551773 0.068542786 0.016818369
0.40554842 0.069552526 0.016812215
0.40557912 0.070562266 0.016806062
0.40649006 0.07149262 0.017301265
0.40652069 0.072500773 0.017295122
0.40655136 0.073508926 0.017288979
0.40746212 0.074432902 0.017784216
0.4074927 0.075439461 0.017778082
0.4075233 0.076446019 0.017771948
0.40843385 0.077363633 0.018267224
0.4084644 0.078368597 0.018261099
0.40937483 0.079281434 0.01875641
0.40940532 0.080284804 0.018750295
0.41031563 0.081192859 0.019245662
0.41122583 0.082097724 0.019741014
0.41125622 0.083097912 0.019734919
0.41216627 0.08399801 0.020230301
0.41219661 0.084996603 0.020224217
0.4131065 0.085891917 0.020719634
0.41313681 0.086888917 0.020713558
0.41404659 0.087779447 0.021209024
0.41407683 0.08877486 0.021202959
0.41498643 0.089660622 0.021698434
0.41501665 0.09065444 0.021692378
0.4159261 0.091535419 0.022187877
0.41595626 0.092527635 0.022181831
0.41598642 0.093519859 0.022175783
0.41689569 0.094394475 0.022671321
0.41692579 0.095385104 0.022665285
0.41783491 0.096254945 0.023160858
0.41786495 0.09724398 0.023154831
0.41877398 0.098109029 0.023650458
0.41880399 0.09909647 0.023644442
0.41971281 0.099956743 0.024140066
0.41974276 0.1009426 0.024134059
0.41977274 0.10192845 0.024128051
0.42068136 0.10278236 0.024623714
0.42158991 0.10363309 0.025119403
0.42161977 0.10461575 0.025113415
0.42252815 0.10546169 0.025609126
0.42255798 0.10644277 0.025603149
0.42346627 0.10728393 0.026098922
0.4243744 0.10812191 0.026594684
0.42440414 0.1090998 0.026588723
0.42531213 0.109933 0.02708452
0.42534181 0.1109093 0.027078571
0.42537147 0.11188559 0.027072622
0.42540115 0.11286189 0.027066672
0.4263089 0.11368713 0.02756251
0.42633852 0.11466184 0.02755657
0.42636818 0.11563654 0.02755063
0.4263978 0.11661125 0.02754469
0.42642742 0.11758595 0.027538752
0.42645705 0.11856066 0.027532812
0.42560887 0.11969597 0.027025027
0.42563856 0.12067227 0.027019078
0.42479053 0.12181236 0.026511258
0.42394263 0.12295564 0.026003422
0.4239724 0.12393513 0.025997454
0.42224699 0.12525177 0.024987664
0.42139938 0.12640461 0.024479767
0.42055184 0.12756063 0.023971856
0.41970441 0.12871984 0.023463923
0.41973442 0.12970728 0.023457907
0.41888708 0.13087128 0.022949915
0.41891712 0.13186032 0.022943888
0.37065497 0.060767051 -0.0040001655
0.38215756 0.062110122 0.0025190606
0.39808723 0.06406936 0.011545073
0.40163672 0.064820625 0.013548903
0.4034268 0.065698735 0.014547786
0.4052166 0.066570483 0.015546675
0.40524733 0.067581818 0.015540512
0.40527809 0.068593152 0.015534349
0.40530881 0.069604486 0.015528186
0.40533957 0.070615821 0.015522024
0.40624961 0.071547806 0.016018476
0.40628031 0.072557546 0.016012324
0.40719014 0.073484756 0.016508775
0.40722078 0.074492902 0.01650263
0.40725142 0.075501055 0.016496487
0.40816107 0.076421887 0.016992982
0.40819168 0.077428445 0.016986849
0.40910119 0.078344502 0.017483367
0.40913174 0.079349466 0.017477244
0.40916228 0.08035443 0.01747112
0.41007158 0.081264123 0.017967677
0.41010207 0.082267493 0.017961562
0.41101131 0.083172396 0.01845818
0.41192037 0.084074117 0.018954787
0.41195077 0.085074306 0.018948691
0.41285971 0.085971259 0.019445326
0.41289005 0.086969845 0.019439241
0.41379884 0.087862015 0.019935906
0.41382915 0.088859022 0.01992983
0.41473782 0.089746408 0.020426555
0.41476807 0.090741813 0.02042049
0.41479835 0.091737218 0.020414423
0.41570678 0.092618242 0.020911155
0.41661513 0.093496077 0.021407913
0.41664529 0.0944883 0.021401867
0.41755348 0.095361352 0.021898648
0.41758358 0.096351989 0.021892611
0.41761369 0.097342618 0.021886574
0.4185217 0.098209307 0.022383394
0.41942966 0.099072799 0.022880264
0.41945967 0.10006024 0.022874247
0.41948968 0.10104769 0.022868229
0.4203974 0.10190482 0.023365106
0.42042738 0.10289067 0.023359099
0.42133495 0.10374303 0.023856007
0.42136487 0.10472728 0.023850009
0.42227229 0.10557486 0.024346944
0.42230216 0.10655753 0.024340956
0.42320943 0.10740032 0.024837926
0.42411667 0.10823993 0.025334937
0.42414644 0.1092194 0.025328968
0.42505348 0.11005424 0.025825989
0.42508319 0.11103214 0.025820028
0.42511293 0.11201002 0.025814069
0.42601976 0.11283848 0.026311122
0.42604944 0.11381479 0.026305173
0.42607912 0.11479108 0.026299223
0.42610878 0.11576737 0.026293274
0.42613846 0.11674368 0.026287325
0.42616814 0.11771997 0.026281375
0.42619783 0.11869626 0.026275426
0.42622748 0.11967256 0.026269477
0.42538044 0.12081103 0.025760438
0.42541015 0.12178891 0.02575448
0.42456323 0.12293216 0.025245406
0.42371637 0.1240786 0.024736295
0.42286965 0.12522821 0.024227181
0.42289951 0.12621088 0.024221193
0.42117649 0.127537 0.023208911
0.42120647 0.12852286 0.023202904
0.42036009 0.12968361 0.022693729
0.4203901 0.13067105 0.022687713
0.4195438 0.13183661 0.022178477
0.40052441 0.064932555 0.011753812
0.40319109 0.065744169 0.013258894
0.40497893 0.066617586 0.01426024
0.40500972 0.067630515 0.014254068
0.4050405 0.068643443 0.014247895
0.40507129 0.069656365 0.014241722
0.40598038 0.070591576 0.014739363
0.4060111 0.071602911 0.014733201
0.40604186 0.072614245 0.014727038
0.4069508 0.073543079 0.015224739
0.40698147 0.074552827 0.015218586
0.40789023 0.075476877 0.015716288
0.40792087 0.07648503 0.015710145
0.40882945 0.077404313 0.016207878
0.40886006 0.078410871 0.016201744
0.40889063 0.07941743 0.01619561
0.40979904 0.080330335 0.016693382
0.40982959 0.081335306 0.016687257
0.41073784 0.082243443 0.017185058
0.41076836 0.083246812 0.017178943
0.4116765 0.084150158 0.017676804
0.41170695 0.085151941 0.0176707
0.41261491 0.08605051 0.018168559
0.41264531 0.087050699 0.018162465
0.41355315 0.0879445 0.018660352
0.41358349 0.088943094 0.018654266
0.41449118 0.08983212 0.019152183
0.41452149 0.090829119 0.019146107
0.41542906 0.091713354 0.019644085
0.41545931 0.092708766 0.019638021
0.4163667 0.093588226 0.020135995
0.41639689 0.094582044 0.02012994
0.41730413 0.095456734 0.020627944
0.41821128 0.096328236 0.021125967
0.41824138 0.097318865 0.02111993
0.41827151 0.098309502 0.021113893
0.41917846 0.099174626 0.021611955
0.42008534 0.10003657 0.022110069
0.42011535 0.10102401 0.022104053
0.42014539 0.10201146 0.022098035
0.42105204 0.10286704 0.022596156
0.42108199 0.10385289 0.022590147
0.42198852 0.10470369 0.023088297
0.42201844 0.10568795 0.023082299
0.42292479 0.10653397 0.023580479
0.42295468 0.10751663 0.02357449
0.42386088 0.10835788 0.024072699
0.42476708 0.10919592 0.024570959
0.42479685 0.1101754 0.024564989
0.42482662 0.11115489 0.024559021
0.42573255 0.11198658 0.025057286
0.42576227 0.11296447 0.025051327
0.42579198 0.11394235 0.025045369
0.42669773 0.11476767 0.025543673
0.42672738 0.11574396 0.025537724
0.42675707 0.11672027 0.025531774
0.42678675 0.11769656 0.025525825
0.42681643 0.11867286 0.025519876
0.42684609 0.11964915 0.025513927
0.42600006 0.12078759 0.025003655
0.42515409 0.12192919 0.024493365
0.42518386 0.12290867 0.024487397
0.42433801 0.12405508 0.023977043
0.42349231 0.12520465 0.023466704
0.42352217 0.12618732 0.023460716
0.42267659 0.12734167 0.022950348
0.42183113 0.12849922 0.02243996
0.42098576 0.12965994 0.021929553
0.42101577 0.13064739 0.021923535
0.42104578 0.13163483 0.021917518
0.40207982 0.065859251 0.011462529
0.40386578 0.066735923 0.012466349
0.4047741 0.06767913 0.012965169
0.40568233 0.068619154 0.013464008
0.40571311 0.069632083 0.013457836
0.4057439 0.070645012 0.013451663
0.40665191 0.071578667 0.013950542
0.40668267 0.072590001 0.013944379
0.4067134 0.073601335 0.013938216
0.40762129 0.074528612 0.01443716
0.40765196 0.075538352 0.014431006
0.40855965 0.076460861 0.014929952
0.40859029 0.077469014 0.014923809
0.40862092 0.078477159 0.014917666
0.40952843 0.079393297 0.015416651
0.40955901 0.080399849 0.015410517
0.41046637 0.081311211 0.015909532
0.41049692 0.082316175 0.015903408
0.41052747 0.083321139 0.015897283
0.41143459 0.084226131 0.016396336
0.41146511 0.085229501 0.016390221
0.41237214 0.086129703 0.016889336
0.41327906 0.087026723 0.017388437
0.41330945 0.088026911 0.017382342
0.41421622 0.088919155 0.017881474
0.41424659 0.089917749 0.017875388
0.41515321 0.090805218 0.018374542
0.41518351 0.091802217 0.018368468
0.41521379 0.092799224 0.018362392
0.41612029 0.093680307 0.018861622
0.41702661 0.094558217 0.01936084
0.4170568 0.095552035 0.019354785
0.417963 0.096425168 0.019854032
0.41886908 0.097295113 0.020353297
0.41889918 0.09828575 0.020347262
0.41980511 0.099150911 0.020846557
0.41983518 0.10013996 0.020840529
0.42074102 0.10100034 0.02133988
0.42077106 0.10198779 0.021333864
0.42080107 0.10297523 0.021327846
0.42170665 0.10382926 0.02182721
0.42173663 0.1048151 0.021821203
0.42264208 0.10566435 0.022320595
0.422672 0.10664861 0.022314597
0.42357731 0.10749307 0.022814019
0.42360717 0.10847574 0.02280803
0.42451233 0.10931543 0.023307482
0.42454216 0.1102965 0.023301503
0.42544723 0.11113141 0.02380101
0.425477 0.11211089 0.02379504
0.42550677 0.11309037 0.023789072
0.4264116 0.11391891 0.024288591
0.42644131 0.1148968 0.024282632
0.42647105 0.11587469 0.024276674
0.42650077 0.11685258 0.024270715
0.42653048 0.11783047 0.024264755
0.42656022 0.11880836 0.024258796
0.42658994 0.11978625 0.024252838
0.42661968 0.12076414 0.024246879
0.42577472 0.12190571 0.023735354
0.4258045 0.12288519 0.023729386
0.42495963 0.12403156 0.023217807
0.42411494 0.12518109 0.022706233
0.4241448 0.12616377 0.022700245
0.42330027 0.12731807 0.022188643
0.42333016 0.12830234 0.022182645
0.42248577 0.12946144 0.021671014
0.42164144 0.13062371 0.021159364
0.42167145 0.13161115 0.021153348
0.42170146 0.13259861 0.021147329
0.37805364 0.063530326 -0.0034748365
0.40097263 0.065974176 0.0096612507
0.40363312 0.06678284 0.011173721
0.40454051 0.06772767 0.011673797
0.40544778 0.068669327 0.012173855
0.40547863 0.06968385 0.012167673
0.40550944 0.070698366 0.012161491
0.40641651 0.071633652 0.012661592
0.40644729 0.072646588 0.012655419
0.40647808 0.073659509 0.012649247
0.40738496 0.074588425 0.013149388
0.40741569 0.07559976 0.013143225
0.40832245 0.076523893 0.013643421
0.40835315 0.077533633 0.013637268
0.40925974 0.078452989 0.014137467
0.40929037 0.079461142 0.014131323
0.41019681 0.080375716 0.014631552
0.41022739 0.081382282 0.014625418
0.410258 0.082388841 0.014619284
0.41116422 0.083297044 0.015119551
0.41119477 0.084302016 0.015113427
0.41210085 0.085205443 0.015613724
0.41213137 0.086208813 0.015607609
0.41303736 0.087107465 0.01610796
0.41306782 0.08810924 0.016101856
0.4139736 0.089003123 0.016602211
0.414004 0.090003304 0.016596116
0.41490966 0.090892404 0.017096499
0.41494003 0.091890998 0.017090414
0.41584554 0.092775315 0.017590821
0.41587585 0.093772322 0.017584745
0.41678125 0.094651848 0.018085219
0.41768652 0.095528208 0.01858568
0.41859171 0.096401386 0.019086154
0.41862187 0.09739361 0.019080108
0.41952688 0.098261997 0.019580618
0.41955698 0.099252626 0.019574581
0.42046186 0.10011625 0.02007512
0.42049193 0.10110528 0.020069093
0.420522 0.10209432 0.020063065
0.42142674 0.10295156 0.02056367
0.42145675 0.103939 0.020557651
0.42236128 0.10479147 0.02105826
0.42239127 0.10577732 0.021052251
0.42242122 0.10676318 0.021046244
0.42332557 0.10760927 0.021546889
0.42335549 0.10859354 0.021540891
0.42425969 0.10943485 0.022041565
0.42428955 0.11041752 0.022035578
0.42519361 0.11125406 0.022536276
0.42522344 0.11223514 0.022530297
0.4261274 0.11306688 0.023031062
0.42615718 0.11404637 0.023025094
0.42618695 0.11502586 0.023019124
0.42709067 0.11585124 0.023519896
0.42712039 0.11682913 0.023513937
0.4271501 0.11780702 0.023507979
0.42717984 0.11878491 0.023502018
0.42720956 0.1197628 0.02349606
0.42723927 0.1207407 0.023490101
0.42639536 0.12188223 0.022977343
0.42642513 0.12286171 0.022971375
0.4264549 0.1238412 0.022965407
0.42561111 0.12498911 0.022452578
0.42476746 0.12614021 0.021939768
0.42392391 0.12729448 0.021426933
0.42395383 0.12827875 0.021420935
0.42311043 0.12943779 0.020908071
0.42314038 0.13042365 0.020902064
0.42229712 0.13158749 0.020389169
0.42232716 0.13257493 0.020383153
0.39458492 0.065471582 0.0048165577
0.39899394 0.066158593 0.0073475656
0.40340251 0.066829674 0.0098786652
0.40430889 0.067776144 0.010379933
0.40521523 0.068719424 0.010881246
0.40524614 0.069735534 0.010875054
0.40527701 0.070751652 0.010868862
0.40618309 0.071688563 0.011370188
0.40621394 0.072703086 0.011364006
0.4071199 0.073635228 0.01186536
0.40715069 0.074648149 0.011859187
0.4080565 0.075575516 0.012360565
0.40808722 0.07658685 0.012354403
0.40811798 0.077598184 0.012348239
0.40902364 0.078519166 0.012849694
0.40992916 0.079436973 0.01335113
0.40995979 0.080445118 0.013344987
0.41086519 0.08135815 0.013846458
0.41089576 0.082364708 0.013840324
0.41092637 0.083371259 0.013834191
0.41183153 0.08427792 0.014335701
0.41186208 0.085282877 0.014329577
0.41276711 0.086184755 0.01483111
0.41279763 0.087188125 0.014824996
0.41282812 0.088191502 0.014818882
0.41373301 0.089087002 0.015320492
0.41463774 0.089979328 0.015822083
0.41466814 0.090979517 0.015815988
0.41557276 0.091867052 0.016317615
0.4156031 0.092865646 0.01631153
0.41650757 0.093748413 0.016813179
0.41653785 0.09474542 0.016807104
0.41744223 0.095623396 0.01730882
0.41834643 0.096498199 0.017810518
0.41925055 0.09736982 0.018312242
0.41928071 0.098362036 0.018306196
0.42018467 0.099228874 0.018807948
0.42021477 0.1002195 0.018801913
0.42111862 0.10108157 0.019303687
0.42114869 0.10207061 0.019297661
0.42117873 0.10305964 0.019291634
0.42208242 0.10391533 0.019793486
0.42211244 0.10490277 0.01978747
0.42301592 0.10575369 0.020289313
0.42304587 0.10673954 0.020283306
0.42307585 0.1077254 0.020277297
0.42397913 0.10856993 0.020779187
0.42400905 0.10955419 0.020773189
0.42491218 0.11039396 0.021275107
0.42494208 0.11137663 0.021269118
0.42584506 0.11221161 0.021771058
0.42587489 0.11319268 0.021765081
0.42590472 0.11417376 0.021759102
0.42680758 0.11500237 0.022261115
0.42683735 0.11598185 0.022255145
0.42686713 0.11696134 0.022249177
0.42689687 0.11794082 0.022243207
0.42779943 0.11876146 0.022745242
0.42782918 0.11973935 0.022739284
0.42785889 0.12071725 0.022733323
0.42701596 0.12185875 0.022219334
0.42704573 0.12283823 0.022213364
0.42707551 0.12381772 0.022207396
0.42623273 0.12496559 0.02169334
0.42539009 0.12611665 0.021179296
0.42541996 0.12709931 0.021173308
0.42544982 0.12808198 0.021167321
0.4246074 0.1292394 0.020653233
0.42376506 0.13040002 0.020139124
0.42379501 0.13138588 0.020133117
0.4229528 0.13255125 0.019618986
0.42211068 0.13371985 0.019104799
0.39261717 0.065650806 0.0024893349
0.39877036 0.066203564 0.0060438807
0.40229946 0.066947632 0.0080724405
0.40407935 0.067824535 0.0090836277
0.40498468 0.068769455 0.0095861387
0.40588996 0.069711179 0.010088694
0.40592083 0.070727289 0.010082502
0.40595174 0.071743406 0.01007631
0.40598261 0.072759517 0.010070118
0.40601349 0.073775634 0.010063927
0.40691844 0.074707806 0.010566508
0.40782329 0.075636797 0.011069116
0.40785408 0.076649725 0.011062943
0.40875879 0.07757394 0.011565574
0.40878952 0.078585275 0.011559412
0.40969414 0.079504699 0.012062109
0.41059861 0.080420949 0.012564789
0.41062924 0.081429102 0.012558646
0.41065988 0.082437254 0.012552502
0.41156414 0.083347127 0.013055226
0.41159475 0.084353685 0.013049092
0.41249886 0.085258789 0.013551839
0.41252941 0.086263753 0.013545715
0.41255996 0.087268718 0.013539591
0.41346389 0.088167444 0.014042383
0.41349438 0.089170821 0.014036269
0.41439822 0.090064771 0.014539116
0.41442865 0.091066547 0.014533011
0.41533232 0.091955721 0.015035856
0.41536272 0.09295591 0.015029761
0.4162662 0.093840301 0.01553264
0.4171696 0.094721511 0.016035533
0.41719991 0.09571851 0.016029457
0.41810319 0.096594945 0.016532417
0.41900635 0.09746819 0.017035358
0.41903657 0.098462 0.017029302
0.41993958 0.09933047 0.017532272
0.42084247 0.10019576 0.018035268
0.4208726 0.10118639 0.018029232
0.42177537 0.10204689 0.01853225
0.42180541 0.10303593 0.018526223
0.42183548 0.10402498 0.018520197
0.42273811 0.1048791 0.019023292
0.42276812 0.10586655 0.019017275
0.42367053 0.1067159 0.019520361
0.42370051 0.10770176 0.019514354
0.42373046 0.10868761 0.019508347
0.4246327 0.1095306 0.020011479
0.42466262 0.11051486 0.020005479
0.42556471 0.11135307 0.020508636
0.42559457 0.11233574 0.020502647
0.42562446 0.1133184 0.020496659
0.42652634 0.11415024 0.020999858
0.42655617 0.11513132 0.020993879
0.42745796 0.11595837 0.021497134
0.42748773 0.11693785 0.021491166
0.4275175 0.11791734 0.021485196
0.42754728 0.11889681 0.021479229
0.42757705 0.1198763 0.021473261
0.42760682 0.12085578 0.021467291
0.42763659 0.12183526 0.021461323
0.42766637 0.12281474 0.021455353
0.42769614 0.12379424 0.021449385
0.42772591 0.12477371 0.021443417
0.42688417 0.12592314 0.020928117
0.42604262 0.12707575 0.020412825
0.42520112 0.12823154 0.019897521
0.42523104 0.12921581 0.019891521
0.42438972 0.13037638 0.019376181
0.42441967 0.13136223 0.019370174
0.4235785 0.13252757 0.01885481
0.42273736 0.13369612 0.018339388
0.4227674 0.13468516 0.018333362
0.38538218 0.065183297 -0.0028983569
0.40120041 0.06706544 0.0062612616
0.40297842 0.0679456 0.0072749229
0.40475619 0.068819396 0.0082885958
0.40566045 0.069762759 0.0087923491
0.40569139 0.070780464 0.0087861475
0.40572232 0.071798168 0.0087799467
0.40575325 0.072815873 0.008773745
0.40665734 0.073751271 0.0092775729
0.40668821 0.074767381 0.0092713805
0.40759212 0.075698003 0.0097752064
0.4084959 0.076625437 0.010279051
0.40852669 0.077638373 0.010272878
0.40855747 0.078651294 0.010266705
0.40946108 0.079572357 0.010770595
0.41036463 0.080490232 0.01127453
0.41039532 0.081499979 0.011268376
0.41129866 0.082413085 0.011772308
0.4113293 0.08342123 0.011766165
0.41223252 0.084329553 0.012270132
0.41226313 0.085336111 0.012263998
0.4122937 0.08634267 0.012257865
0.41319671 0.087244622 0.012761865
0.41322726 0.088249587 0.01275574
0.41325781 0.089254558 0.012749617
0.41416064 0.090150133 0.013253655
0.41419113 0.09115351 0.013247541
0.41509387 0.092044309 0.013751641
0.41599643 0.092931926 0.014255734
0.41602683 0.093932115 0.01424964
0.41692927 0.094814956 0.014753756
0.41783163 0.095694609 0.015257891
0.41786194 0.096691616 0.015251816
0.41876417 0.097566485 0.015756013
0.41966626 0.098438174 0.016260203
0.42056826 0.099306688 0.016764406
0.42059842 0.10029891 0.01675836
0.42150027 0.10116263 0.017262598
0.4215304 0.10215326 0.017256562
0.42243209 0.10301222 0.017760824
0.42246217 0.10400126 0.017754797
0.42249221 0.1049903 0.017748771
0.42339379 0.10584287 0.018253103
0.4234238 0.10683032 0.018247087
0.42345381 0.10781776 0.018241068
0.42435515 0.10866398 0.018745409
0.4243851 0.10964982 0.0187394
0.42528626 0.11049126 0.019243775
0.42531618 0.11147552 0.019237777
0.42534611 0.11245979 0.01923178
0.42624709 0.11329484 0.019736188
0.42627695 0.11427751 0.019730199
0.42630681 0.11526018 0.019724211
0.42720762 0.11608887 0.020228658
0.42723745 0.11706995 0.020222679
0.42813814 0.11789385 0.020727193
0.42816791 0.11887334 0.020721223
0.42819768 0.11985282 0.020715255
0.42822745 0.12083229 0.020709286
0.42825723 0.12181178 0.020703318
0.428287 0.12279126 0.02069735
0.42831677 0.12377075 0.02069138
0.42834654 0.12475023 0.020685412
0.42750582 0.12589963 0.020168874
0.42666525 0.12705219 0.019652354
0.42669511 0.12803486 0.019646365
0.42585468 0.1291922 0.019129816
0.42501438 0.13035275 0.018613243
0.42504433 0.1313386 0.018607236
0.42420417 0.13250391 0.018090639
0.42336401 0.13367242 0.01757399
0.42252403 0.13484409 0.017057354
0.39923301 0.067254208 0.0039340132
0.40275392 0.067993797 0.0059724571
0.40452969 0.068869263 0.0069885873
0.405433 0.069814257 0.0074935588
0.40546399 0.070833556 0.0074873473
0.40549499 0.071852855 0.0074811359
0.40552595 0.072872154 0.0074749249
0.40642902 0.073809184 0.0079799443
0.40645996 0.074826889 0.0079737427
0.40736294 0.075759135 0.008478824
0.40739384 0.076775253 0.0084726317
0.40829661 0.077702723 0.0089777093
0.4091993 0.078627013 0.0094828131
0.40923008 0.079639934 0.0094766403
0.41013262 0.080559447 0.0099817673
0.41016337 0.081570789 0.0099756038
0.41106582 0.082485512 0.010480791
0.41196811 0.083397061 0.010985967
0.41199875 0.084405214 0.010979823
0.41290089 0.085311979 0.011485027
0.4129315 0.086318538 0.011478893
0.41296208 0.087325096 0.01147276
0.41386405 0.088225491 0.011978003
0.41389459 0.089230463 0.011971879
0.41392514 0.090235427 0.011965755
0.4148269 0.091129452 0.012471043
0.41485739 0.092132822 0.012464928
0.41575906 0.093022071 0.012970272
0.41666058 0.093908131 0.013475602
0.41669101 0.094908319 0.013469507
0.41759238 0.095789604 0.013974866
0.41849366 0.096667714 0.014480244
0.41852397 0.097664714 0.014474169
0.41942513 0.098538026 0.014979609
0.41945541 0.099533439 0.014973544
0.42035639 0.10040198 0.015478981
0.42125729 0.10126735 0.015984442
0.42128745 0.10225957 0.015978396
0.42218819 0.10312015 0.016483882
0.42221829 0.10411078 0.016477846
0.42311889 0.10496659 0.01698336
0.42314896 0.10595562 0.016977333
0.42404947 0.10680664 0.017482908
0.42407948 0.10779408 0.017476892
0.42410949 0.10878153 0.017470874
0.42500976 0.10962619 0.017976457
0.42503974 0.11061204 0.01797045
0.42593986 0.11145192 0.018476067
0.42596975 0.11243619 0.018470069
0.42599967 0.11342044 0.018464072
0.42689961 0.11425395 0.018969722
0.42692947 0.11523662 0.018963734
0.42695934 0.11621929 0.018957745
0.42785907 0.11704643 0.019463435
0.4278889 0.1180275 0.019457458
0.42878854 0.11884985 0.019963207
0.42881832 0.11982933 0.019957239
0.42884809 0.12080881 0.019951271
0.42887786 0.12178829 0.019945301
0.42890763 0.12276778 0.019939333
0.42893738 0.12374727 0.019933363
0.42896715 0.12472674 0.019927396
0.42899692 0.12570623 0.019921426
0.42815727 0.12685718 0.019403651
0.42731777 0.1280113 0.018885888
0.42647836 0.1291686 0.018368106
0.42563903 0.1303291 0.017850298
0.42566901 0.13131496 0.017844291
0.42482984 0.13248023 0.017326461
0.4239907 0.13364871 0.016808579
0.42315173 0.13482034 0.016290709
0.39991727 0.068259947 0.0031302744
0.40256256 0.069067597 0.0046612485
0.40433633 0.069941543 0.0056798817
0.40436739 0.070964023 0.0056736507
0.40526965 0.071907461 0.006179865
0.40617183 0.072847717 0.0066860984
0.40620279 0.073867016 0.0066798874
0.40710482 0.074802488 0.0071861502
0.40713575 0.075820193 0.0071799485
0.40716669 0.076837905 0.0071737468
0.40806854 0.077767 0.0076800804
0.40809944 0.07878311 0.0076738885
0.40900111 0.079707444 0.0081802187
0.40990269 0.080628581 0.0086865695
0.41080418 0.081546538 0.0091929389
0.41083491 0.082557879 0.0091867754
0.41173631 0.083471045 0.0096932063
0.41263753 0.084381044 0.010199624
0.41266817 0.085389189 0.010193481
0.41269884 0.086397342 0.010187338
0.41359988 0.087300964 0.010693795
0.41363046 0.088307515 0.010687661
0.41366106 0.089314081 0.010681528
0.4145619 0.090211332 0.011188023
0.41459244 0.091216296 0.011181899
0.41549316 0.092108771 0.011688423
0.41552365 0.093112141 0.011682309
0.41642427 0.093999825 0.012188896
0.41732475 0.094884343 0.012695469
0.41735515 0.095884524 0.012689373
0.41825545 0.096764259 0.013195977
0.41915569 0.097640812 0.013702598
0.419186 0.098637812 0.013696522
0.42008612 0.099509574 0.014203206
0.42011636 0.10050498 0.01419714
0.42101631 0.10137197 0.01470382
0.42191613 0.10223578 0.01521052
0.42194629 0.103228 0.015204473
0.42284599 0.10408703 0.015711201
0.42287609 0.10507766 0.015705165
0.42377564 0.10593191 0.016211923
0.42380571 0.10692096 0.016205896
0.42470515 0.10777041 0.016712714
0.42473519 0.10875785 0.016706698
0.4247652 0.10974531 0.016700679
0.4256644 0.11058841 0.017207505
0.42569435 0.11157426 0.017201498
0.42659342 0.11241259 0.017708354
0.42662334 0.11339685 0.017702356
0.42665327 0.11438111 0.017696358
0.42755213 0.11521306 0.018203251
0.427582 0.11619573 0.018197263
0.42761186 0.1171784 0.018191274
0.42851052 0.11800398 0.018698214
0.42854035 0.11898505 0.018692235
0.42943892 0.11980585 0.019199222
0.42946869 0.12078533 0.019193254
0.42949846 0.12176481 0.019187285
0.42952824 0.12274429 0.019181317
0.42955801 0.12372378 0.019175347
0.42958778 0.12470326 0.019169379
0.42961755 0.12568274 0.019163411
0.42877892 0.12683365 0.018644407
0.4279404 0.12798774 0.018125406
0.427102 0.12914501 0.017606391
0.42626369 0.13030547 0.017087355
0.4254255 0.13146912 0.016568301
0.42545551 0.13245656 0.016562285
0.42461738 0.13362499 0.016043169
0.42291138 0.13497916 0.01501099
0.42207357 0.13615555 0.014491858
0.40060151 0.069265693 0.0023265474
0.40237334 0.070144497 0.0033475859
0.40327477 0.071094342 0.0038549944
0.40417618 0.072040997 0.0043624546
0.40507743 0.072984479 0.004869902
0.40597859 0.073924765 0.005377369
0.40687963 0.074861877 0.0058848555
0.4069106 0.075881168 0.0058786441
0.40781152 0.076813504 0.0063861595
0.40784246 0.077831209 0.0063799578
0.40874326 0.078758754 0.006887529
0.40877417 0.079774864 0.0068813371
0.40967476 0.080697641 0.0073889107
0.4105753 0.081617229 0.0078965034
0.41147572 0.082533628 0.0084041161
0.41150644 0.083544962 0.0083979536
0.41240677 0.084456585 0.0089056268
0.41330698 0.08536502 0.009413288
0.41333762 0.086373173 0.009407145
0.41336825 0.087381318 0.009401001
0.41426826 0.088283382 0.0099087013
0.41429883 0.089289948 0.0099025676
0.41432944 0.090296507 0.0098964339
0.41522923 0.091192201 0.010404172
0.41525978 0.092197165 0.010398049
0.41615942 0.093088083 0.010905816
0.41618991 0.094091453 0.010899702
0.41708949 0.094977595 0.011407525
0.41711992 0.09597937 0.01140142
0.41801929 0.096860737 0.011909246
0.41891855 0.097738914 0.012417092
0.41894889 0.098737508 0.012411007
0.41984802 0.099610902 0.012918882
0.4207471 0.10048112 0.013426808
0.42077735 0.10147652 0.013420742
0.42167622 0.10234196 0.013928665
0.422575 0.10320421 0.014436607
0.42260516 0.10419644 0.014430561
0.42350379 0.10505391 0.014938532
0.42353389 0.10604454 0.014932496
0.4244324 0.10689724 0.015440497
0.42446244 0.10788628 0.01543447
0.42536083 0.10873418 0.015942527
0.42539087 0.10972163 0.015936509
0.42542088 0.11070908 0.015930492
0.42631903 0.11155063 0.016438561
0.42634898 0.11253648 0.016432554
0.42637894 0.11352233 0.016426545
0.42727691 0.11435751 0.016934652
0.42730683 0.11534178 0.016928654
0.42820463 0.11617217 0.017436791
0.42823449 0.11715484 0.017430803
0.42826438 0.1181375 0.017424814
0.429162 0.11896153 0.017932991
0.4291918 0.11994261 0.017927011
0.42922163 0.12092368 0.017921034
0.4301191 0.12174133 0.018429279
0.43014887 0.12272081 0.018423311
0.43017864 0.1237003 0.018417343
0.43020841 0.12467977 0.018411374
0.43023819 0.12565926 0.018405406
0.42940053 0.12681013 0.017885163
0.42856306 0.12796418 0.017364934
0.42859292 0.12894684 0.017358946
0.42688835 0.13028184 0.016324418
0.42605117 0.13144544 0.015804131
0.42608118 0.13243288 0.015798112
0.42437699 0.13378221 0.014763471
0.42354009 0.13495536 0.014243125
0.42183629 0.13631584 0.013208441
0.41753182 0.13823983 0.010630674
0.39864644 0.069463566 -1.557995e-05
0.40041649 0.07034722 0.0010079222
0.40218627 0.071224503 0.0020314371
0.40395585 0.072095416 0.0030549848
0.4048562 0.073040523 0.0035636881
0.40575638 0.073982447 0.0040723789
0.40665647 0.074921183 0.0045810887
0.40755647 0.07585673 0.0050898124
0.40758747 0.076876037 0.005083601
0.40761843 0.077895336 0.0050773895
0.40851822 0.078824513 0.005586158
0.40941799 0.079750501 0.0060949773
0.40944886 0.080766618 0.0060887854
0.41034845 0.081687838 0.0065976023
0.41124791 0.082605869 0.0071064383
0.41214725 0.083520718 0.0076152883
0.41217801 0.084532052 0.0076091252
0.41307727 0.085442118 0.0081180418
0.41310796 0.086451858 0.0081118885
0.41400704 0.087357149 0.0086208023
0.41403767 0.088365294 0.0086146593
0.41493663 0.089265816 0.009123602
0.41496721 0.090272374 0.0091174683
0.41499782 0.091278933 0.0091113346
0.41589653 0.09217307 0.0096203107
0.41592708 0.093178034 0.0096141864
0.41682568 0.094067402 0.010123198
0.41685617 0.095070772 0.010117084
0.41688669 0.096074142 0.010110969
0.41778514 0.096957132 0.010620051
0.41868344 0.097836941 0.011129119
0.41871384 0.09883713 0.011123025
0.41961199 0.099712156 0.011632117
0.42051005 0.10058401 0.012141235
0.42054036 0.10158101 0.012135159
0.42143831 0.10244807 0.012644338
0.42233613 0.10331195 0.013153505
0.42236635 0.10430577 0.013147448
0.42326403 0.10516487 0.013656638
0.42416158 0.10602079 0.014165852
0.42419171 0.10701142 0.014159815
0.42508912 0.10786257 0.01466906
0.42511919 0.1088516 0.014663032
0.42601654 0.10969796 0.015172337
0.42604655 0.1106854 0.01516632
0.42607656 0.11167285 0.015160303
0.42697364 0.11251284 0.015669608
0.42700362 0.11349869 0.015663601
0.42703357 0.11448455 0.015657594
0.42793047 0.11531818 0.016166944
0.4279604 0.11630243 0.016160946
0.42885715 0.11713128 0.016670326
0.42888701 0.11811394 0.016664337
0.42891687 0.11909661 0.016658351
0.42981344 0.11991908 0.017167769
0.42984325 0.12090016 0.01716179
0.42987308 0.12188123 0.017155811
0.4307695 0.12269733 0.017665295
0.43079928 0.12367681 0.017659327
0.43082905 0.12465629 0.017653357
0.43085882 0.12563579 0.017647389
0.43002218 0.1267866 0.017125919
0.42918569 0.12794062 0.016604457
0.42921558 0.12892328 0.016598469
0.42751303 0.1302582 0.015561474
0.42754298 0.13124406 0.015555467
0.42584068 0.13258852 0.014518387
0.42500469 0.13375847 0.013996826
0.42330277 0.13511407 0.012959711
0.42246702 0.13629197 0.012438103
0.41730168 0.13840145 0.009338608
0.39933386 0.070473969 -0.00082303613
0.40110177 0.071354516 0.00020295216
0.40286943 0.072228692 0.001228953
0.40376881 0.073177025 0.0017388323
0.4055362 0.074040048 0.002764933
0.40643534 0.074980415 0.0032748608
0.40646639 0.076002896 0.0032686302
0.40736538 0.076938495 0.0037785929
0.40826428 0.077870898 0.0042885751
0.40829527 0.078890197 0.0042823637
0.40919402 0.079817824 0.004792369
0.41009271 0.080742255 0.0053024315
0.41012359 0.081758372 0.0052962396
0.4110221 0.082678035 0.0058062938
0.41192052 0.083594516 0.0063163731
0.41281882 0.084507808 0.0068264715
0.41284955 0.085519142 0.0068203085
0.41374776 0.086427644 0.0073304628
0.41377845 0.087437391 0.0073243096
0.41467649 0.088341124 0.0078344662
0.41470712 0.089349277 0.0078283232
0.41560501 0.090248242 0.0083385035
0.41563559 0.091254801 0.0083323698
0.41566619 0.092261352 0.0083262362
0.41656387 0.093153939 0.0088364603
0.41659442 0.094158903 0.0088303369
0.41662496 0.095163867 0.0088242125
0.41752243 0.096050091 0.0093344757
0.41755295 0.097053461 0.0093283616
0.41845033 0.097934894 0.0098386807
0.41934758 0.098813154 0.010348992
0.41937798 0.099813335 0.010342898
0.42027506 0.10068682 0.010853239
0.42030543 0.1016854 0.010847154
0.42120239 0.10255411 0.011357519
0.42209929 0.10341961 0.01186794
0.42212954 0.10441503 0.011861875
0.42302626 0.10527576 0.012372288
0.42392287 0.1061333 0.012882726
0.42395303 0.10712553 0.012876679
0.42484948 0.1079783 0.013387147
0.42574587 0.10882789 0.013897628
0.42577595 0.10981692 0.013891601
0.42580599 0.11080597 0.013885574
0.42670223 0.11164918 0.014396132
0.42673224 0.11263662 0.014390115
0.42762828 0.11347505 0.014900669
0.42765823 0.11446091 0.014894661
0.42768821 0.11544677 0.014888654
0.42858404 0.11627883 0.015399242
0.42861396 0.11726309 0.015393244
0.42864388 0.11824735 0.015387246
0.42953953 0.11907306 0.015897879
0.42956939 0.12005571 0.015891891
0.42959926 0.12103839 0.015885903
0.4304947 0.12185771 0.016396573
0.43052453 0.12283879 0.016390596
0.43055436 0.12381987 0.016384616
0.43144965 0.12463281 0.016895354
0.43061399 0.12578201 0.01637266
0.4306438 0.12676309 0.016366681
0.42980835 0.12791707 0.015843986
0.42983821 0.12889972 0.015837997
0.42813769 0.13023457 0.014798542
0.42730251 0.1313981 0.014275787
0.42646736 0.13256481 0.013752982
0.42563236 0.13373472 0.013230194
0.42393246 0.13509025 0.012190606
0.42309773 0.13626811 0.01166777
0.41880333 0.13819173 0.0090776766
0.41105002 0.1408802 0.0044202716
0.40502724 0.14321966 0.0007963535
0.39825535 0.070600569 -0.0026589015
0.40002128 0.071484372 -0.001630498
0.4026542 0.072282918 -8.4645493e-05
0.40355262 0.073232882 0.00042645738
0.40531799 0.074097581 0.0014549773
0.4062162 0.075039573 0.0019661665
0.4071143 0.075978383 0.0024773374
0.40714535 0.077000871 0.0024711066
0.4080433 0.077934906 0.0029823123
0.40894112 0.078865759 0.0034935316
0.40897211 0.079885051 0.0034873204
0.40986979 0.080811128 0.0039985748
0.41076744 0.081734009 0.0045098746
0.41079831 0.082750127 0.0045036827
0.41169575 0.083668232 0.0050149853
0.41259313 0.084583156 0.0055263019
0.41349036 0.085494898 0.0060376432
0.41352111 0.086506225 0.0060314806
0.41441825 0.087413184 0.0065428778
0.41444895 0.088422924 0.0065367245
0.41534591 0.089325108 0.0070481244
0.41537654 0.090333261 0.007041981
0.41627339 0.091230668 0.0075534042
0.41630396 0.092237219 0.0075472705
0.41633457 0.093243778 0.0075411368
0.41636515 0.094250336 0.0075350031
0.41726172 0.095139779 0.0080464808
0.41729227 0.096144743 0.0080403564
0.41818869 0.09702941 0.0085518574
0.41821921 0.09803278 0.0085457433
0.41911554 0.098912656 0.0090573104
0.41914597 0.099914439 0.0090512065
0.42004213 0.10078954 0.0095627652
0.42093816 0.10166147 0.010074349
0.4209685 0.10266006 0.010068264
0.42186442 0.1035272 0.010579872
0.42276025 0.10439117 0.011091537
0.42279053 0.10538656 0.011085471
0.42368618 0.10624575 0.011597127
0.42458174 0.10710175 0.012108808
0.4246119 0.10809397 0.012102762
0.42550731 0.10894518 0.012614466
0.4264026 0.10979322 0.013126196
0.42643267 0.11078225 0.01312017
0.42646274 0.11177129 0.013114142
0.42735791 0.11261295 0.013625938
0.42738792 0.11360039 0.01361992
0.42741793 0.11458784 0.013613903
0.42831287 0.11542313 0.01412571
0.42834282 0.11640898 0.014119702
0.4292376 0.1172395 0.014631533
0.42926753 0.11822376 0.014625535
0.42929745 0.11920802 0.014619538
0.43019202 0.12003215 0.015131413
0.43022192 0.12101483 0.015125426
0.43025178 0.12199749 0.015119437
0.43114617 0.12281527 0.015631346
0.43117598 0.12379634 0.015625367
0.43120581 0.12477741 0.015619389
0.43123564 0.1257585 0.015613411
0.43126544 0.12673956 0.015607432
0.43043098 0.12789351 0.015083509
0.43046084 0.12887616 0.01507752
0.42876235 0.13021092 0.014035597
0.42792818 0.13137442 0.01351161
0.42709404 0.13254111 0.012987577
0.42626005 0.13371097 0.012463551
0.42456219 0.13506642 0.011421502
0.42372844 0.13624424 0.010897432
0.41943911 0.13816766 0.0083011724
0.41342261 0.1404814 0.0046687815
0.4082706 0.14262863 0.0015542974
0.40157482 0.072415926 -0.0019193427
0.40333846 0.073288664 -0.0008883726
0.40510184 0.074155025 0.00014260426
0.40599903 0.075098656 0.00065497932
0.40776214 0.075953871 0.0016860561
0.40779322 0.076976359 0.0016798254
0.40782431 0.077998839 0.0016735947
0.40872118 0.078931317 0.0021860376
0.40961796 0.079860613 0.0026984999
0.41051462 0.080786727 0.0032109877
0.41054556 0.081804439 0.003204786
0.41144216 0.082725763 0.0037173289
0.41233858 0.083643906 0.004229859
0.41323492 0.084558867 0.0047424147
0.41326571 0.085571796 0.0047362424
0.41416192 0.086481981 0.0052488209
0.41419265 0.087493315 0.0052426583
0.41508874 0.088398717 0.0057552983
0.41511944 0.089408465 0.0057491451
0.41601533 0.090309091 0.0062617878
0.41604599 0.091317244 0.0062556444
0.41607663 0.092325389 0.0062495009
0.41697234 0.093219645 0.0067621772
0.41700295 0.094226204 0.0067560435
0.41703352 0.095232762 0.0067499098
0.41792905 0.096120648 0.0072626299
0.4179596 0.09712562 0.007256506
0.41799012 0.098130576 0.0072503821
0.41888547 0.099012092 0.0077631357
0.41891596 0.10001546 0.0077570216
0.41981119 0.1008922 0.0082698362
0.42070627 0.10176574 0.0087826438
0.42160124 0.10263611 0.0092954654
0.4216316 0.10363472 0.0092893802
0.42252645 0.10450031 0.0098022306
0.42342123 0.1053627 0.010315133
0.42345148 0.10635811 0.010309068
0.42434609 0.10721574 0.010821972
0.42524058 0.10807018 0.01133489
0.42527074 0.1090624 0.011328844
0.4261651 0.10991206 0.011841797
0.42705935 0.11075854 0.012354765
0.42708942 0.11174759 0.012348738
0.42711946 0.11273662 0.012342711
0.42801359 0.11357672 0.012855749
0.4280436 0.11456417 0.012849731
0.42807361 0.11555161 0.012843714
0.42896748 0.11638534 0.013356765
0.42899746 0.1173712 0.013350757
0.42989117 0.11820015 0.013863831
0.42992109 0.11918442 0.013857833
0.42995101 0.12016868 0.013851835
0.43084455 0.12099127 0.014364948
0.43087441 0.12197393 0.01435896
0.4309043 0.1229566 0.014352972
0.43093416 0.12393927 0.014346983
0.43182743 0.12475389 0.01486015
0.43185726 0.12573497 0.014854172
0.43102375 0.12688728 0.014329019
0.43105364 0.12786995 0.014323032
0.43022028 0.12902702 0.013797855
0.429387 0.13018729 0.01327266
0.42855385 0.13135074 0.012747439
0.42772073 0.13251738 0.012222172
0.42688775 0.13368721 0.011696918
0.42519188 0.13504259 0.010652402
0.42349619 0.13640435 0.0096078161
0.42093781 0.13795803 0.0080439672
0.41579112 0.14008276 0.0049221925
0.41064507 0.14222658 0.0018003336
0.40549958 0.14438953 -0.0013216418
0.40136462 0.072469965 -0.003239102
0.4031263 0.073344365 -0.0022056808
0.40488771 0.074212402 -0.001172247
0.40664893 0.075074069 -0.00013878012
0.40754509 0.076014541 0.00037487966
0.40757623 0.077038623 0.00036863922
0.40847218 0.077974327 0.00088230189
0.40936804 0.078906842 0.0013959781
0.41026381 0.079836175 0.0019096738
0.4102948 0.080855474 0.0019034626
0.41119042 0.081780039 0.0024171872
0.41122136 0.082797743 0.0024109858
0.41211689 0.08371751 0.0029247717
0.41301224 0.084634103 0.0034385507
0.41390753 0.085547514 0.0039523435
0.41393831 0.086560443 0.0039461711
0.41483346 0.087469071 0.004459993
0.41486421 0.088480406 0.00445383
0.41575924 0.08938425 0.0049677133
0.41578993 0.090393998 0.00496156
0.41668478 0.091293067 0.0054754457
0.41671541 0.09230122 0.0054693026
0.41674605 0.093309365 0.0054631592
0.41764072 0.094202071 0.0059770779
0.41767132 0.09520863 0.0059709442
0.4177019 0.096215181 0.0059648105
0.41773251 0.097221747 0.0059586768
0.4186269 0.098106481 0.0064726444
0.41865745 0.099111445 0.0064665205
0.41955173 0.099991411 0.0069805169
0.41958222 0.10099478 0.0069744028
0.42047638 0.10186996 0.0074884603
0.42137042 0.10274196 0.0080025112
0.42140082 0.10374215 0.0079964167
0.42229468 0.10460937 0.0085104909
0.42318848 0.1054734 0.0090245837
0.42408222 0.10633425 0.0095387287
0.42411247 0.10732965 0.009532663
0.425006 0.10818572 0.010046812
0.42589945 0.10903861 0.010560973
0.42592961 0.11003084 0.010554926
0.4268229 0.11087894 0.011069117
0.426853 0.11186957 0.01106308
0.42774615 0.1127129 0.011577301
0.42777622 0.11370194 0.011571273
0.42866927 0.11454049 0.012085554
0.42869928 0.11552794 0.012079537
0.4287293 0.11651538 0.01207352
0.42962211 0.11734757 0.012587814
0.42965209 0.11833341 0.012581806
0.42968205 0.11931927 0.012575799
0.43057466 0.12014508 0.013090125
0.43060458 0.12112934 0.013084127
0.4306345 0.12211359 0.013078129
0.43152693 0.12293305 0.013592495
0.43155679 0.12391571 0.013586506
0.43158665 0.12489838 0.013580519
0.43161654 0.12588105 0.01357453
0.43164641 0.12686372 0.013568542
0.43167627 0.12784638 0.013562554
0.43084392 0.12900342 0.013036145
0.43001166 0.13016365 0.012509716
0.42917952 0.13132708 0.011983261
0.42834741 0.13249367 0.011456762
0.42751545 0.13366346 0.010930275
0.4258216 0.13501877 0.0098832985
0.42498988 0.13619651 0.0093567567
0.42243445 0.13774849 0.0077891909
0.41729382 0.13987139 0.0046600583
0.41301548 0.14182469 0.0020512915
0.40873772 0.14379391 -0.00055754004
0.40359873 0.14597097 -0.0036869969
0.4029161 0.073399998 -0.003525476
0.4046756 0.074269697 -0.0024895591
0.40643486 0.075133033 -0.0014536296
0.40819398 0.075989991 -0.0004176349
0.40822509 0.077014074 -0.00042387538
0.40912005 0.077949807 9.1014837e-05
0.40915114 0.078972295 8.4784093e-05
0.41004592 0.07990326 0.0005997034
0.41094065 0.080831036 0.0011146421
0.41097164 0.081850342 0.0011084308
0.41186619 0.082773343 0.0016233986
0.4127607 0.083693154 0.0021384179
0.41279158 0.084709264 0.002132226
0.41368592 0.0856243 0.0026472423
0.41458014 0.086536154 0.0031622781
0.41461092 0.087549083 0.0031561055
0.41550499 0.088456154 0.0036711763
0.41553575 0.089467496 0.0036650135
0.41642973 0.090369783 0.0041801338
0.41646042 0.091379531 0.0041739806
0.4173542 0.09227705 0.0046891095
0.41738486 0.093285196 0.004682966
0.4174155 0.094293348 0.0046768226
0.41744614 0.095301494 0.0046706791
0.41833967 0.096191049 0.0051858509
0.41837028 0.097197615 0.0051797172
0.41840088 0.098204166 0.0051735835
0.41929424 0.09908735 0.005688794
0.41932476 0.10009231 0.00568267
0.42021799 0.10097072 0.0061979098
0.42024848 0.10197409 0.0061917952
0.42114159 0.10284772 0.006707096
0.42203456 0.10371816 0.0072223842
0.42292741 0.10458543 0.0077376915
0.42295778 0.10558402 0.0077316067
0.42385051 0.1064465 0.0082469434
0.42474318 0.10730579 0.0087623317
0.42477342 0.10830119 0.008756265
0.42566592 0.10915571 0.0092716506
0.42655829 0.11000705 0.0097870547
0.42658845 0.11099927 0.0097810086
0.4274807 0.11184583 0.010296448
0.4275108 0.11283646 0.010290411
0.4284029 0.11367823 0.010805874
0.42843297 0.11466727 0.010799848
0.42846301 0.11565631 0.010793821
0.42935497 0.11649171 0.011309355
0.42938498 0.11747915 0.011303337
0.43027675 0.11830978 0.011818868
0.4303067 0.11929563 0.01181286
0.43033668 0.12028149 0.011806853
