# .PCD v0.7 - Point Cloud Data file format
VERSION 0.7
FIELDS x y z
SIZE 4 4 4
TYPE F F F
COUNT 1 1 1
WIDTH 1389
HEIGHT 1
VIEWPOINT 0 0 0 1 0 0 0
POINTS 1389
DATA ascii
0.44676322 0.093059406 0.025633823
0.44679213 0.094010219 0.02562803
0.44682103 0.094961032 0.025622236
0.44684991 0.095911846 0.025616441
0.44774452 0.096735992 0.026128316
0.44777337 0.09768521 0.026122533
0.44780222 0.098634437 0.026116749
0.44783106 0.099583648 0.026110964
0.44785991 0.10053288 0.02610518
0.44788876 0.1014821 0.026099395
0.44878301 0.10229509 0.026611334
0.44881183 0.10324272 0.02660556
0.44884062 0.10419035 0.026599783
0.44886944 0.10513798 0.026594009
0.44889823 0.10608561 0.026588235
0.44979221 0.10688905 0.027100237
0.44982094 0.10783508 0.027094472
0.44984969 0.10878112 0.027088707
0.44987845 0.10972716 0.027082942
0.45077217 0.11052264 0.027594985
0.4508009 0.11146709 0.02758923
0.4508296 0.11241152 0.027583476
0.45085829 0.11335597 0.027577721
0.45088699 0.11430041 0.027571965
0.45091572 0.11524486 0.027566209
0.45007974 0.11634941 0.027042588
0.4501085 0.11729545 0.027036823
0.44927269 0.11840479 0.026513165
0.44843695 0.11951732 0.025989493
0.44760132 0.12063303 0.025465798
0.44763023 0.12158384 0.025460003
0.44679469 0.12270434 0.024936251
0.44595933 0.12382801 0.024412507
0.44512403 0.12495487 0.023888748
0.44515306 0.12591046 0.023882926
0.44518211 0.12686606 0.023877103
0.44521117 0.12782165 0.02387128
0.44437611 0.12895647 0.023347467
0.43745327 0.052669387 0.019962622
0.43748266 0.05363613 0.019956732
0.43751204 0.054602873 0.019950841
0.43754143 0.055569611 0.019944949
0.43843761 0.056478199 0.02045757
0.43846694 0.057443347 0.020451689
0.43849629 0.058408495 0.020445807
0.43939224 0.059310716 0.02095844
0.43942153 0.060274273 0.020952569
0.4394508 0.061237827 0.020946696
0.4394801 0.062201384 0.020940825
0.43950939 0.063164942 0.020934954
0.44040504 0.064057603 0.02144764
0.44043428 0.065019563 0.021441778
0.44046351 0.06598153 0.021435915
0.44135898 0.066867828 0.021948639
0.44138819 0.067828193 0.021942787
0.44141737 0.068788566 0.021936934
0.44144657 0.069748938 0.021931084
0.4423418 0.070627265 0.022443863
0.44237092 0.071586043 0.02243802
0.44240007 0.072544821 0.022432176
0.44242921 0.073503599 0.022426333
0.44245836 0.074462377 0.022420492
0.44335335 0.075331151 0.022933355
0.44338244 0.076288328 0.022927523
0.44341153 0.077245519 0.022921689
0.44344062 0.07820271 0.022915857
0.44346973 0.079159893 0.022910023
0.44436437 0.080019109 0.023422914
0.44439343 0.080974698 0.023417089
0.44442245 0.081930295 0.023411267
0.44445151 0.082885884 0.023405444
0.44534591 0.083737142 0.023918387
0.44537491 0.084691137 0.023912573
0.4454039 0.085645147 0.02390676
0.4454329 0.086599141 0.023900947
0.4454619 0.087553144 0.023895133
0.446356 0.088394843 0.02440813
0.44638497 0.089347251 0.024402326
0.4464139 0.090299658 0.024396522
0.44644284 0.091252059 0.024390718
0.44647181 0.092204466 0.024384916
0.44736567 0.093036614 0.024898002
0.44739458 0.093987428 0.024892207
0.44742349 0.094938233 0.024886413
0.44745237 0.095889054 0.02488062
0.44748127 0.096839868 0.024874825
0.44751018 0.097790681 0.024869032
0.44753909 0.098741494 0.024863238
0.44756797 0.099692307 0.024857443
0.44759688 0.10064313 0.02485165
0.4484902 0.10145934 0.025364807
0.44851908 0.10240857 0.025359021
0.44854793 0.10335778 0.025353238
0.44857678 0.10430701 0.025347454
0.44860563 0.10525623 0.025341669
0.44949868 0.1060629 0.025854878
0.44952747 0.10701052 0.025849104
0.44955629 0.10795815 0.02584333
0.44958508 0.10890578 0.025837556
0.4504779 0.10970448 0.026350819
0.45050663 0.11065052 0.026345054
0.45053539 0.11159655 0.026339289
0.45056415 0.11254259 0.026333524
0.45059291 0.11348863 0.026327759
0.45062166 0.11443466 0.026321994
0.45065042 0.1153807 0.026316229
0.45067918 0.11632673 0.026310464
0.45070791 0.11727277 0.026304699
0.44987312 0.11838207 0.02577981
0.44903842 0.11949456 0.025254905
0.4482038 0.12061024 0.024729975
0.44823268 0.12156104 0.024724182
0.44739816 0.12268151 0.024199197
0.44742712 0.12363391 0.024193393
0.44659278 0.12475914 0.02366841
0.44575855 0.12588754 0.023143403
0.44578761 0.12684314 0.023137581
0.44581664 0.12779874 0.023131756
0.44584569 0.12875433 0.023125933
0.43809521 0.053612951 0.019208577
0.4381246 0.054579694 0.019202685
0.43815398 0.055546433 0.019196793
0.43818337 0.056513175 0.019190902
0.43821275 0.057479914 0.019185012
0.43910784 0.058385357 0.019698884
0.43913716 0.059350505 0.019693004
0.43916652 0.060315654 0.019687122
0.43919584 0.061280802 0.019681241
0.44009063 0.062178284 0.020195136
0.44011992 0.063141838 0.020189265
0.44014922 0.064105392 0.020183394
0.44017848 0.065068953 0.020177521
0.44107306 0.06595847 0.02069146
0.4411023 0.066920429 0.020685598
0.44113153 0.067882396 0.020679737
0.44116077 0.068844356 0.020673875
0.44205508 0.069725908 0.021187861
0.44208428 0.070686281 0.021182008
0.44211346 0.071646653 0.021176156
0.44214267 0.072607026 0.021170303
0.44303674 0.073480614 0.021684345
0.44306588 0.074439391 0.021678502
0.443095 0.075398169 0.02167266
0.44312415 0.076356947 0.021666817
0.44315329 0.077315725 0.021660974
0.44404712 0.078179754 0.022175102
0.44407621 0.079136945 0.022169268
0.44410533 0.080094129 0.022163436
0.44413441 0.081051312 0.022157602
0.4441635 0.082008496 0.02215177
0.445057 0.082862973 0.022665922
0.44508603 0.08381857 0.022660099
0.44511509 0.084774159 0.022654274
0.44514415 0.085729755 0.022648452
0.44603738 0.086576268 0.023162652
0.44606638 0.08753027 0.023156838
0.44609538 0.088484272 0.023151025
0.44612437 0.089438267 0.023145212
0.44701737 0.090276822 0.02365946
0.44704634 0.091229223 0.023653658
0.44707528 0.092181638 0.023647854
0.44710422 0.093134046 0.02364205
0.44713318 0.094086453 0.023636246
0.44716212 0.095038861 0.023630442
0.44805485 0.095866255 0.024144791
0.44808376 0.096817069 0.024138996
0.44811264 0.097767882 0.024133204
0.44814155 0.098718695 0.024127409
0.44817045 0.099669516 0.024121616
0.44819933 0.10062033 0.024115821
0.44822824 0.10157114 0.024110027
0.44825715 0.10252196 0.024104234
0.44828606 0.10347278 0.024098439
0.44831493 0.10442358 0.024092644
0.44920707 0.10523347 0.024607075
0.44923592 0.10618269 0.02460129
0.44926479 0.10713191 0.024595506
0.44929364 0.10808115 0.024589721
0.45018554 0.10888306 0.025104193
0.45021433 0.10983068 0.025098419
0.45024315 0.11077832 0.025092645
0.45027193 0.11172596 0.02508687
0.45116359 0.11251991 0.025601391
0.45119235 0.11346595 0.025595626
0.45122111 0.11441198 0.025589861
0.45124987 0.11535802 0.025584096
0.4512786 0.11630405 0.025578331
0.45044476 0.11741173 0.025052221
0.45047358 0.11835935 0.025046447
0.44963986 0.1194718 0.02452031
0.44966871 0.12042103 0.024514526
0.44883516 0.12153825 0.023988353
0.44886404 0.12248906 0.023982558
0.44803059 0.12361108 0.023456331
0.44805953 0.12456349 0.023450527
0.44722626 0.12569027 0.022924302
0.44725525 0.12664427 0.022918489
0.44642213 0.12777583 0.022392234
0.44731325 0.12855227 0.022906862
0.44648021 0.12968703 0.022380589
0.43790174 0.055579737 0.017927714
0.43793115 0.05654807 0.017921813
0.43796059 0.057516403 0.017915912
0.43885466 0.058423482 0.018430976
0.43888405 0.059390221 0.018425085
0.43891343 0.06035696 0.018419195
0.43980739 0.06125766 0.01893433
0.43983671 0.062222812 0.01892845
0.43986604 0.063187957 0.018922567
0.43989539 0.064153105 0.018916685
0.44078904 0.065045848 0.019431839
0.44081831 0.066009402 0.019425966
0.44084761 0.066972956 0.019420095
0.4408769 0.067936517 0.019414224
0.44177029 0.068821296 0.019929424
0.44179952 0.069783255 0.019923562
0.44182879 0.070745222 0.0199177
0.44185802 0.071707182 0.019911839
0.44275117 0.072583996 0.020427087
0.44278038 0.073544368 0.020421235
0.44280955 0.074504741 0.020415382
0.44283876 0.075465113 0.02040953
0.44373167 0.076333962 0.020924829
0.44376081 0.077292733 0.020918986
0.44378996 0.078251518 0.020913143
0.44381908 0.079210296 0.020907301
0.44384822 0.080169074 0.020901458
0.44387737 0.081127852 0.020895615
0.44477001 0.081985548 0.021411013
0.4447991 0.082942732 0.021405181
0.44482818 0.083899915 0.021399349
0.44485727 0.084857099 0.021393515
0.44574961 0.085706845 0.02190893
0.44577867 0.086662434 0.021903107
0.44580773 0.087618031 0.021897282
0.44583675 0.08857362 0.02189146
0.44672886 0.089415394 0.022406928
0.44675785 0.090369396 0.022401115
0.44678685 0.091323391 0.022395302
0.44681585 0.092277393 0.022389488
0.44684485 0.093231395 0.022383675
0.44773665 0.094063617 0.022899196
0.44776559 0.095016025 0.022893392
0.44779453 0.095968433 0.022887589
0.44782349 0.09692084 0.022881785
0.44785243 0.097873241 0.022875981
0.44788137 0.098825656 0.022870177
0.44791034 0.099778064 0.022864373
0.44793928 0.10073047 0.022858569
0.44883069 0.10154835 0.023374211
0.4488596 0.10249916 0.023368416
0.44888851 0.10344998 0.023362622
0.44891739 0.10440079 0.023356829
0.4489463 0.1053516 0.023351034
0.44897521 0.10630242 0.023345241
0.44900411 0.10725324 0.023339447
0.44989508 0.10805839 0.023855133
0.44992393 0.1090076 0.023849348
0.44995278 0.10995682 0.023843564
0.44998163 0.11090604 0.023837779
0.45087239 0.11170323 0.024353513
0.45090118 0.11265086 0.024347739
0.45092997 0.11359849 0.024341965
0.45095879 0.11454611 0.024336191
0.45098758 0.11549375 0.024330415
0.4510164 0.11644138 0.024324641
0.45104519 0.11738901 0.024318866
0.451074 0.11833663 0.024313092
0.4502413 0.11944905 0.023785722
0.45027015 0.12039827 0.023779936
0.44943762 0.12151545 0.023252536
0.4494665 0.12246627 0.023246743
0.4494954 0.12341709 0.023240948
0.448663 0.12454066 0.022713477
0.44869193 0.12549305 0.022707673
0.4487209 0.12644547 0.022701871
0.44788873 0.1275754 0.022174392
0.44791773 0.1285294 0.022168579
0.44794673 0.1294834 0.022162765
0.44797572 0.13043739 0.022156952
0.43592396 0.055725854 0.015611814
0.43681726 0.056640927 0.016128065
0.43684679 0.057612445 0.016122144
0.43773997 0.058522746 0.016638422
0.43863302 0.059429858 0.017154722
0.43952599 0.060333785 0.017671039
0.43955538 0.061300524 0.017665148
0.43958476 0.062267266 0.017659256
0.43961415 0.063234009 0.017653365
0.44050694 0.064129971 0.018169764
0.44053626 0.065095119 0.018163882
0.44056562 0.066060267 0.018158002
0.44145814 0.066949859 0.018674405
0.44148743 0.067913413 0.018668534
0.44151673 0.068876967 0.018662663
0.44154599 0.069840528 0.01865679
0.44157529 0.070804082 0.018650919
0.44246754 0.071684122 0.019167382
0.44249678 0.072646081 0.019161521
0.44252601 0.073608048 0.019155659
0.44255525 0.074570008 0.019149797
0.44344726 0.075442083 0.019666309
0.44347644 0.076402456 0.019660456
0.44350564 0.077362821 0.019654604
0.44353482 0.0783232 0.019648751
0.44356403 0.079283565 0.019642899
0.44445574 0.080146089 0.02015947
0.44448489 0.08110486 0.020153627
0.44451404 0.082063645 0.020147784
0.44454315 0.083022416 0.020141942
0.4445723 0.083981194 0.020136099
0.44546378 0.084834151 0.02065276
0.44549286 0.085791342 0.020646926
0.44552198 0.086748526 0.020641094
0.44555107 0.087705709 0.02063526
0.44644225 0.088550709 0.021151938
0.4464713 0.089506298 0.021146115
0.44650033 0.090461895 0.021140292
0.44652939 0.091417484 0.021134468
0.44742033 0.092254527 0.021651193
0.44744933 0.093208529 0.02164538
0.44747832 0.094162524 0.021639567
0.44750732 0.095116526 0.021633754
0.44753632 0.096070528 0.02162794
0.44756532 0.097024523 0.021622127
0.44759431 0.097978525 0.021616314
0.44848487 0.09880282 0.022133116
0.44851381 0.099755228 0.022127312
0.44854274 0.10070764 0.022121508
0.44857171 0.10166004 0.022115706
0.44860065 0.10261245 0.022109902
0.44862959 0.10356486 0.022104098
0.44865856 0.10451727 0.022098294
0.44954875 0.10532881 0.022615205
0.44957766 0.10627962 0.022609413
0.44960657 0.10723044 0.022603618
0.44963548 0.10818126 0.022597825
0.44966435 0.10913207 0.02259203
0.45055425 0.10993406 0.023108969
0.4505831 0.11088329 0.023103185
0.45061195 0.11183251 0.0230974
0.4506408 0.11278173 0.023091616
0.45153043 0.11357577 0.023608603
0.45155925 0.1145234 0.023602828
0.45158803 0.11547104 0.023597054
0.45161682 0.11641865 0.02359128
0.45164564 0.11736628 0.023585506
0.45081392 0.11847705 0.023056911
0.45084277 0.11942629 0.023051126
0.45087162 0.12037551 0.023045342
0.45090047 0.12132473 0.023039557
0.45006898 0.12244347 0.022510914
0.45009786 0.12339429 0.022505119
0.45012677 0.12434511 0.022499327
0.45015568 0.12529591 0.022493532
0.44932437 0.12642263 0.021964809
0.44935331 0.12737504 0.021959005
0.44852221 0.12850653 0.021430284
0.44855121 0.12946053 0.02142447
0.44858021 0.13041452 0.021418657
0.41663513 0.054980367 0.0028326281
0.42270562 0.055606421 0.0064902552
0.43484461 0.05679163 0.01380595
0.43573698 0.057708338 0.014323417
0.43662927 0.058621857 0.014840942
0.438384 0.059469417 0.015881896
0.43927601 0.060374975 0.016399438
0.44016793 0.061277349 0.016916998
0.44019732 0.062244091 0.016911106
0.4402267 0.06321083 0.016905217
0.44025609 0.064177573 0.016899325
0.44028547 0.065144315 0.016893433
0.44117716 0.066037126 0.017411079
0.44120649 0.067002274 0.017405197
0.44123581 0.067967422 0.017399317
0.44126517 0.068932571 0.017393434
0.44215655 0.069817424 0.017911103
0.44218582 0.070780978 0.01790523
0.44221511 0.071744539 0.017899359
0.44224441 0.072708093 0.017893488
0.44227371 0.073671646 0.017887615
0.4431648 0.074546948 0.018405341
0.44319403 0.075508907 0.018399479
0.44322327 0.076470874 0.018393617
0.4432525 0.077432834 0.018387755
0.44328174 0.0783948 0.018381894
0.44417253 0.079260543 0.018899677
0.44420174 0.080220915 0.018893825
0.44423091 0.08118128 0.018887972
0.44426012 0.082141653 0.01888212
0.44515067 0.082999431 0.019399952
0.44517982 0.083958209 0.019394111
0.44520897 0.084916987 0.019388268
0.44523811 0.085875772 0.019382425
0.44526723 0.086834542 0.019376583
0.44615757 0.087682761 0.019894499
0.44618666 0.088639945 0.019888667
0.44621575 0.089597128 0.019882834
0.44624484 0.090554319 0.019877002
0.44713488 0.091394573 0.02039494
0.44716391 0.092350163 0.020389117
0.44719297 0.093305767 0.020383295
0.44722202 0.094261356 0.02037747
0.44725105 0.095216952 0.020371648
0.44728011 0.096172541 0.020365825
0.4481698 0.097001649 0.020883832
0.4481988 0.097955652 0.020878019
0.44822779 0.098909654 0.020872205
0.44825679 0.099863648 0.020866392
0.44828579 0.10081766 0.020860579
0.44831479 0.10177165 0.020854766
0.44834378 0.10272565 0.02084895
0.44923308 0.10354202 0.021367036
0.44926202 0.10449443 0.021361232
0.44929096 0.10544684 0.021355428
0.44931993 0.10639924 0.021349626
0.44934887 0.10735165 0.021343822
0.45023793 0.10815846 0.021861997
0.45026684 0.10910928 0.021856202
0.45029572 0.11006009 0.021850409
0.45032462 0.1110109 0.021844614
0.45035353 0.11196172 0.02183882
0.45124224 0.11275897 0.022357021
0.45127109 0.1137082 0.022351237
0.45129997 0.11465742 0.022345454
0.45132881 0.11560664 0.022339668
0.45135766 0.11655585 0.022333885
0.45138651 0.11750509 0.022328099
0.45141536 0.1184543 0.022322316
0.45144421 0.11940353 0.02231653
0.45147306 0.12035275 0.022310747
0.45064253 0.12146986 0.02178088
0.45067143 0.12242068 0.021775085
0.45070034 0.12337149 0.021769293
0.45072922 0.12432231 0.021763498
0.4498989 0.12544739 0.021233551
0.44992784 0.1263998 0.021227747
0.4499568 0.12735221 0.021221943
0.44998574 0.12830462 0.021216139
0.44915569 0.12943766 0.020686176
0.44918469 0.13039164 0.020680362
0.44921368 0.13134566 0.020674549
0.43204618 0.057982732 0.010945806
0.43466094 0.058781963 0.012513842
0.43727544 0.059571639 0.014081934
0.43902805 0.060416088 0.015125375
0.43991902 0.061320093 0.015644154
0.43994844 0.062288426 0.015638253
0.44083926 0.063187651 0.016157066
0.4400073 0.064225093 0.015626451
0.44089803 0.065121137 0.016145283
0.44092742 0.066087879 0.016139394
0.4409568 0.067054614 0.016133502
0.44184735 0.067944281 0.016652405
0.44187671 0.068909429 0.016646525
0.44190603 0.069874577 0.016640643
0.44193536 0.070839725 0.01663476
0.44196472 0.071804874 0.01662888
0.44285494 0.072684988 0.017147804
0.44288424 0.07364855 0.017141933
0.4429135 0.074612103 0.017136062
0.4429428 0.075575657 0.017130189
0.44297209 0.076539211 0.017124318
0.44300136 0.077502772 0.017118447
0.44389126 0.078371741 0.017637443
0.44392049 0.0793337 0.017631581
0.44394973 0.080295667 0.017625719
0.44397897 0.081257626 0.017619858
0.44486862 0.08211863 0.018138904
0.44489783 0.083079003 0.018133052
0.44492701 0.084039368 0.018127199
0.44495618 0.08499974 0.018121347
0.44498539 0.085960113 0.018115494
0.44587475 0.086811557 0.018634599
0.4459039 0.087770335 0.018628757
0.44593304 0.088729113 0.018622914
0.44596216 0.089687891 0.018617071
0.44685134 0.090531372 0.019136252
0.44688043 0.091488548 0.019130418
0.44690952 0.092445739 0.019124586
0.44693863 0.093402922 0.019118752
0.44696772 0.094360113 0.01911292
0.44785655 0.095194042 0.019632131
0.44788557 0.096149631 0.019626308
0.44791463 0.09710522 0.019620486
0.44794369 0.098060809 0.019614661
0.44797271 0.099016406 0.019608838
0.44800177 0.099971995 0.019603016
0.4480308 0.10092759 0.019597193
0.44891924 0.10174878 0.020116482
0.44894823 0.10270278 0.020110669
0.44897723 0.10365678 0.020104855
0.44900623 0.10461078 0.020099042
0.44903523 0.10556478 0.020093229
0.4499234 0.1063764 0.02061257
0.44995233 0.10732882 0.020606766
0.44998127 0.10828123 0.020600962
0.45001024 0.10923363 0.020595158
0.45003918 0.11018604 0.020589354
0.45092708 0.11098811 0.021108791
0.45095599 0.11193892 0.021102998
0.4509849 0.11288974 0.021097204
0.4510138 0.11384056 0.021091409
0.45104268 0.11479136 0.021085616
0.45193025 0.11558388 0.02160508
0.4519591 0.1165331 0.021599295
0.45198795 0.11748233 0.021593511
0.4520168 0.11843154 0.021587726
0.45204565 0.11938077 0.021581942
0.4512161 0.12049626 0.021050852
0.45124498 0.12144706 0.021045057
0.45127389 0.12239788 0.021039264
0.4513028 0.1233487 0.02103347
0.4513317 0.12429951 0.021027675
0.45136058 0.12525032 0.021021882
0.4505313 0.12637696 0.020490691
0.45056027 0.12732938 0.020484887
0.45058921 0.12828179 0.020479083
0.45061815 0.12923419 0.020473281
0.44978917 0.13036877 0.019942079
0.44981816 0.13132279 0.019936265
0.4489893 0.13246214 0.01940503
0.4136413 0.056215383 -0.0013657305
0.41883686 0.056895107 0.0017833333
0.4318381 0.059002947 0.0096534425
0.43617085 0.059673712 0.012277008
0.43878213 0.060457125 0.01384884
0.43967211 0.061362762 0.014368842
0.44056201 0.06226521 0.01488887
0.44059145 0.063233547 0.014882969
0.44062087 0.064201877 0.014877068
0.44065031 0.065170214 0.014871167
0.44067973 0.066138543 0.014865266
0.44156936 0.067031436 0.015385346
0.44159874 0.067998178 0.015379455
0.44162813 0.068964921 0.015373564
0.44165751 0.069931664 0.015367673
0.4425469 0.070816584 0.01588784
0.44257626 0.07178174 0.015881957
0.44260558 0.07274688 0.015876077
0.44263491 0.073712036 0.015870195
0.44266427 0.074677184 0.015864315
0.44269359 0.075642332 0.015858432
0.44358262 0.076516114 0.016378628
0.44361192 0.077479668 0.016372757
0.44364119 0.078443222 0.016366886
0.44367048 0.079406783 0.016361013
0.44369978 0.080370337 0.016355142
0.44372907 0.081333891 0.016349271
0.44461775 0.082196526 0.016869539
0.44464698 0.083158486 0.016863678
0.44467622 0.084120452 0.016857816
0.44470546 0.085082412 0.016851954
0.44559389 0.08593709 0.017372273
0.4456231 0.086897455 0.01736642
0.44565228 0.087857828 0.017360568
0.44568148 0.0888182 0.017354716
0.44571066 0.089778565 0.017348863
0.44659883 0.090623677 0.017869234
0.44662797 0.091582462 0.017863393
0.44665712 0.092541233 0.01785755
0.44668627 0.093500018 0.017851707
0.44757423 0.094337165 0.018372165
0.44760332 0.095294349 0.018366331
0.4476324 0.096251532 0.018360499
0.44766149 0.097208716 0.018354665
0.44769058 0.0981659 0.018348834
0.44771969 0.099123091 0.018343
0.44860727 0.099949084 0.018863488
0.44863629 0.10090468 0.018857663
0.44866535 0.10186028 0.018851841
0.44869441 0.10281587 0.018846018
0.44872344 0.10377146 0.018840196
0.44961071 0.10458791 0.019360747
0.44963971 0.10554191 0.019354932
0.44966871 0.10649591 0.019349119
0.4496977 0.1074499 0.019343305
0.4497267 0.10840391 0.019337492
0.45061371 0.1092108 0.019858096
0.45064265 0.1101632 0.019852294
0.45067161 0.11111561 0.01984649
0.45070055 0.11206802 0.019840686
0.45158735 0.11286694 0.020361375
0.45161626 0.11381776 0.020355582
0.45164517 0.11476856 0.020349788
0.45167404 0.11571938 0.020343993
0.45170295 0.11667019 0.0203382
0.45173186 0.11762101 0.020332405
0.45176074 0.11857183 0.020326611
0.45178965 0.11952264 0.020320818
0.45181856 0.12047346 0.020315023
0.45184746 0.12142427 0.02030923
0.45187634 0.12237509 0.020303436
0.45190525 0.1233259 0.020297641
0.45193416 0.12427672 0.020291848
0.45196307 0.12522753 0.020286053
0.45199195 0.12617834 0.020280259
0.45202085 0.12712915 0.020274466
0.45119268 0.12825894 0.019742023
0.45036465 0.12939191 0.019209597
0.45039365 0.13034591 0.019203784
0.45042264 0.13129991 0.019197971
0.4495948 0.13243924 0.018665502
0.41431707 0.057208687 -0.0021595194
0.42555451 0.058470905 0.0046807202
0.43335119 0.059900951 0.0094128819
0.43767864 0.060562346 0.012042667
0.43942723 0.061405353 0.013091076
0.44031617 0.062309433 0.013612321
0.44120499 0.063210331 0.014133591
0.44123444 0.064178661 0.01412769
0.44126385 0.065146998 0.014121789
0.4412933 0.066115327 0.014115889
0.44132274 0.067083664 0.014109989
0.44135216 0.068051994 0.014104088
0.4413816 0.069020331 0.014098187
0.44227004 0.069908485 0.014619529
0.44229943 0.070875227 0.014613638
0.44232881 0.07184197 0.014607747
0.4423582 0.072808713 0.014601856
0.44238758 0.073775448 0.014595965
0.44327581 0.074654043 0.015117398
0.44330513 0.075619191 0.015111516
0.44333446 0.076584339 0.015105634
0.44336382 0.077549487 0.015099753
0.44339314 0.078514636 0.015093871
0.44342247 0.079479791 0.01508799
0.44345182 0.080444932 0.015082109
0.4443396 0.081310794 0.015603593
0.44436887 0.082274348 0.015597722
0.44439816 0.083237901 0.01559185
0.44442746 0.084201455 0.015585978
0.44445673 0.085165009 0.015580107
0.44534424 0.086021319 0.016101642
0.44537348 0.086983278 0.01609578
0.44540271 0.087945245 0.016089918
0.44543195 0.088907205 0.016084056
0.44631919 0.089755543 0.016605647
0.44634837 0.090715915 0.016599795
0.44637758 0.091676287 0.016593942
0.44640675 0.092636652 0.01658809
0.44729376 0.093477033 0.017109724
0.44732291 0.094435811 0.017103881
0.44735205 0.095394589 0.017098039
0.44738117 0.096353367 0.017092196
0.44741032 0.097312145 0.017086353
0.44743946 0.098270915 0.017080512
0.44832617 0.099100135 0.017602244
0.44835529 0.10005733 0.017596412
0.44838437 0.10101451 0.017590579
0.44841346 0.10197169 0.017584747
0.44844255 0.10292888 0.017578913
0.44932893 0.10374855 0.018100679
0.44935796 0.10470414 0.018094854
0.44938701 0.10565973 0.018089032
0.44941607 0.10661533 0.018083209
0.45030218 0.10742703 0.018605016
0.45033118 0.10838104 0.018599203
0.45036018 0.10933504 0.01859339
0.45038918 0.11028903 0.018587576
0.45127508 0.11109278 0.019109439
0.45130402 0.11204519 0.019103635
0.45133296 0.11299759 0.019097831
0.45136192 0.11395001 0.019092027
0.45224762 0.11474577 0.019613964
0.4522765 0.11569659 0.019608172
0.45230541 0.1166474 0.019602377
0.45233431 0.11759821 0.019596582
0.45236322 0.11854903 0.019590789
0.4523921 0.11949985 0.019584995
0.45242101 0.12045066 0.019579202
0.45244992 0.12140147 0.019573407
0.45247883 0.12235229 0.019567613
0.4525077 0.1233031 0.01956182
0.45253661 0.12425392 0.019556025
0.45256552 0.12520473 0.01955023
0.4525944 0.12615554 0.019544438
0.45176721 0.12728371 0.019010777
0.45179614 0.12823611 0.019004973
0.45182508 0.12918852 0.018999169
0.45099813 0.13032304 0.018465495
0.45017123 0.13146074 0.017931808
0.45020029 0.13241632 0.017925985
0.44937357 0.13355881 0.017392263
0.43657926 0.060667407 0.010231586
0.43832585 0.061513681 0.01128241
0.44007233 0.062353581 0.0123333
0.4409602 0.063256107 0.012855794
0.4409897 0.064226031 0.012849884
0.44101918 0.065195955 0.012843973
0.44104865 0.066165887 0.012838063
0.44107813 0.067135811 0.012832153
0.44196573 0.068028778 0.013354699
0.44199517 0.068997115 0.013348798
0.44202459 0.069965452 0.013342897
0.44205403 0.070933789 0.013336997
0.44208345 0.071902119 0.013331096
0.44211289 0.072870448 0.013325195
0.44300014 0.073752269 0.013847809
0.44302952 0.074719012 0.013841918
0.44305891 0.075685754 0.013836027
0.44308829 0.076652497 0.013830136
0.44311768 0.077619232 0.013824245
0.44314706 0.078585982 0.013818353
0.44317645 0.079552718 0.013812463
0.44406337 0.080421798 0.014335193
0.44409269 0.081386946 0.014329311
0.44412202 0.082352094 0.01432343
0.44415137 0.083317235 0.014317549
0.4441807 0.084282391 0.014311668
0.44506729 0.085141912 0.014834417
0.44509655 0.086105473 0.014828546
0.44512585 0.087069027 0.014822674
0.44515514 0.088032581 0.014816802
0.44604146 0.088884145 0.015339601
0.4460707 0.089846104 0.015333739
0.44609994 0.090808071 0.015327877
0.44612917 0.091770031 0.015322016
0.44701529 0.09261363 0.015844863
0.44704446 0.093574002 0.01583901
0.44707367 0.094534375 0.015833158
0.44710284 0.09549474 0.015827306
0.44713205 0.096455112 0.015821453
0.44801784 0.097289152 0.016344365
0.44804698 0.09824793 0.016338522
0.44807613 0.099206708 0.01633268
0.44810525 0.10016549 0.016326837
0.44813439 0.10112427 0.016320994
0.44816354 0.10208305 0.016315153
0.44904906 0.10290593 0.016838158
0.44907814 0.10386312 0.016832324
0.44910723 0.1048203 0.016826492
0.44913635 0.10577748 0.01682066
0.45002156 0.10659242 0.017343681
0.45005059 0.10754801 0.017337859
0.45007965 0.10850361 0.017332034
0.45010868 0.1094592 0.017326212
0.45099366 0.11026616 0.017849287
0.45102265 0.11122016 0.017843474
0.45105165 0.11217417 0.01783766
0.45108065 0.11312816 0.017831847
0.45196539 0.11392717 0.018354967
0.45199433 0.11487958 0.018349163
0.4520233 0.11583198 0.018343359
0.45205224 0.11678439 0.018337555
0.45293677 0.11757542 0.018860755
0.45296568 0.11852623 0.018854961
0.45299459 0.11947705 0.018849166
0.45302346 0.12042787 0.018843373
0.45305237 0.12137868 0.018837579
0.45308128 0.1223295 0.018831786
0.45311019 0.12328031 0.018825991
0.45313907 0.12423112 0.018820196
0.45316797 0.12518193 0.018814404
0.45319688 0.12613274 0.018808609
0.45237067 0.12726088 0.018273715
0.45239961 0.12821327 0.018267911
0.45157361 0.12934616 0.017733019
0.45160261 0.13030016 0.017727206
0.45077673 0.13143782 0.01719228
0.45080578 0.13239342 0.017186457
0.43722859 0.061621852 0.0094688553
0.43983051 0.062397651 0.011051824
0.44071746 0.063301809 0.011575536
0.44074696 0.064273328 0.011569616
0.4407765 0.065244846 0.011563696
0.44080603 0.066216365 0.011557776
0.44083557 0.067187883 0.011551855
0.44172218 0.068082482 0.012075631
0.44175166 0.069052413 0.012069721
0.44178116 0.070022337 0.012063811
0.44181064 0.070992269 0.012057899
0.44269702 0.071878903 0.012581718
0.44272646 0.072847232 0.012575817
0.44275588 0.073815569 0.012569916
0.44278532 0.074783906 0.012564016
0.44281474 0.075752236 0.012558116
0.44284418 0.076720566 0.012552215
0.44287363 0.077688903 0.012546314
0.44290304 0.07865724 0.012540413
0.44378901 0.079529539 0.013064318
0.44381839 0.080496289 0.013058428
0.44384778 0.081463024 0.013052537
0.44387716 0.082429767 0.013046646
0.44390655 0.083396509 0.013040755
0.44479224 0.084259249 0.013564751
0.44482157 0.085224397 0.013558869
0.44485092 0.086189553 0.013552988
0.44488025 0.087154694 0.013547107
0.44576567 0.088009477 0.014071119
0.44579497 0.088973038 0.014065248
0.44582424 0.089936592 0.014059376
0.44585353 0.090900145 0.014053504
0.44673872 0.091746971 0.014577566
0.44676796 0.09270893 0.014571703
0.44679719 0.093670897 0.014565841
0.44682643 0.094632857 0.01455998
0.44685566 0.095594823 0.014554118
0.44774055 0.09643209 0.015078237
0.44776973 0.097392455 0.015072385
0.44779894 0.098352827 0.015066532
0.44782811 0.099313192 0.01506068
0.44785732 0.10027356 0.015054828
0.44874191 0.10110128 0.015579011
0.44877106 0.10206006 0.015573169
0.44880018 0.10301884 0.015567326
0.44882932 0.10397761 0.015561484
0.44885847 0.10493639 0.015555642
0.44974282 0.10575453 0.016079908
0.44977191 0.10671172 0.016074076
0.44980103 0.10766891 0.016068244
0.44983011 0.1086261 0.016062411
0.45071417 0.10943629 0.016586695
0.45074323 0.11039187 0.016580872
0.45077226 0.11134747 0.01657505
0.45165613 0.11215129 0.017099371
0.45168513 0.11310529 0.017093558
0.45171413 0.11405929 0.017087745
0.45174313 0.11501329 0.017081931
0.45262676 0.11580914 0.017606303
0.4526557 0.11676155 0.017600499
0.45268464 0.11771397 0.017594695
0.45271361 0.11866637 0.017588893
0.45274255 0.11961878 0.017583089
0.45362595 0.12040507 0.01810755
0.45365483 0.12135588 0.018101757
0.45368373 0.1223067 0.018095963
0.45371264 0.12325751 0.018090168
0.45374152 0.12420833 0.018084375
0.45377043 0.12515913 0.01807858
0.4529452 0.12628563 0.017542463
0.45297414 0.12723804 0.017536659
0.45214909 0.12836929 0.017000543
0.45217809 0.12932329 0.01699473
0.45220709 0.13027729 0.016988916
0.45138222 0.13141492 0.016452763
0.45055747 0.13255572 0.01591659
0.45058656 0.13351291 0.015910758
0.43182305 0.0610695 0.0050020469
0.43613529 0.061729874 0.0076503297
0.43873429 0.06250897 0.0092369784
0.44047669 0.063347429 0.010292811
0.44050628 0.064320542 0.010286882
0.44053584 0.065293655 0.010280952
0.44056544 0.066266768 0.010275022
0.440595 0.067239881 0.010269091
0.44148067 0.068136111 0.010794085
0.4415102 0.069107629 0.010788165
0.44153973 0.070079148 0.010782246
0.44242519 0.070969008 0.011307278
0.4424547 0.071938932 0.011301368
0.44248417 0.072908863 0.011295456
0.44251364 0.073878787 0.011289546
0.44254312 0.074848719 0.011283636
0.44257262 0.075818643 0.011277725
0.44345775 0.07669735 0.011802825
0.44348717 0.077665687 0.011796925
0.44351661 0.078634024 0.011791024
0.44354606 0.079602361 0.011785123
0.44357547 0.08057069 0.011779223
0.44360492 0.081539027 0.011773322
0.44363433 0.082507357 0.011767421
0.4445191 0.083373331 0.012292599
0.44454849 0.084340066 0.012286708
0.44457787 0.085306808 0.012280817
0.44460726 0.086273558 0.012274926
0.44549179 0.08713156 0.012800184
0.44552115 0.088096701 0.012794303
0.44555047 0.089061856 0.012788421
0.4455798 0.090026997 0.01278254
0.44646406 0.090877041 0.013307815
0.44649336 0.091840602 0.013301943
0.44652265 0.092804156 0.013296072
0.44655192 0.09376771 0.0132902
0.44743595 0.094609797 0.013815524
0.44746518 0.095571756 0.013809662
0.44749442 0.096533723 0.0138038
0.44752368 0.097495683 0.013797938
0.44755292 0.098457642 0.013792076
0.44758216 0.099419609 0.013786214
0.44846582 0.10025054 0.014311606
0.44849503 0.10121091 0.014305754
0.44852421 0.10217129 0.014299901
0.44855341 0.10313165 0.014294049
0.44943684 0.10395463 0.014819489
0.44946599 0.10491341 0.014813647
0.44949514 0.10587218 0.014807804
0.44952428 0.10683096 0.014801961
0.45040751 0.10764596 0.015327482
0.45043662 0.10860315 0.01532165
0.45046571 0.10956033 0.015315817
0.4504948 0.11051752 0.015309984
0.45137775 0.11132456 0.01583552
0.45140681 0.11228015 0.015829697
0.45143583 0.11323575 0.015823875
0.45231861 0.11403642 0.01634945
0.45234761 0.11499042 0.016343636
0.4523766 0.11594442 0.016337823
0.4524056 0.11689842 0.01633201
0.45328811 0.11769113 0.016857635
0.45331708 0.11864353 0.016851831
0.45334601 0.11959594 0.016846027
0.45337498 0.12054835 0.016840223
0.45340392 0.12150075 0.016834419
0.45343286 0.12245317 0.016828615
0.45346183 0.12340557 0.016822813
0.45349076 0.12435798 0.016817009
0.4535197 0.12531038 0.016811205
0.45354867 0.1262628 0.016805401
0.45357761 0.12721521 0.016799597
0.45275357 0.12834641 0.016262248
0.45278257 0.12930043 0.016256435
0.45195866 0.13043641 0.015719058
0.45113486 0.13157558 0.015181662
0.45031112 0.13271795 0.014644213
0.45034027 0.13367675 0.014638371
0.44951671 0.13482387 0.014100925
0.43419069 0.061903432 0.0052948194
0.43764219 0.062620141 0.0074172323
0.43938258 0.063461863 0.0084754797
0.43941227 0.064438157 0.0084695304
0.44029716 0.065342396 0.008995709
0.44032678 0.066317096 0.008989769
0.44121161 0.067216545 0.0095160091
0.44124117 0.068189658 0.0095100794
0.44127074 0.069162771 0.0095041487
0.44130033 0.070135884 0.009498219
0.44218484 0.071027376 0.010024475
0.44221437 0.071998894 0.010018555
0.4422439 0.072970413 0.010012635
0.44227344 0.073941931 0.010006715
0.4431577 0.074825466 0.010533019
0.44318718 0.07579539 0.010527109
0.44321665 0.076765314 0.010521199
0.44324616 0.077735238 0.010515288
0.44327563 0.078705169 0.010509377
0.4433051 0.079675101 0.010503467
0.44418904 0.080547474 0.01102984
0.44421849 0.081515811 0.011023939
0.4442479 0.082484141 0.011018038
0.44427735 0.083452478 0.011012137
0.44430676 0.084420808 0.011006236
0.44433621 0.085389145 0.011000335
0.44521978 0.08625038 0.011526776
0.44524917 0.087217122 0.011520885
0.44527856 0.088183858 0.011514994
0.44530794 0.0891506 0.011509103
0.44619134 0.090003863 0.012035618
0.4462207 0.090969011 0.012029736
0.44625002 0.091934159 0.012023855
0.44627935 0.0928993 0.012017974
0.44716248 0.093744613 0.012544512
0.44719175 0.094708167 0.01253864
0.44722104 0.095671728 0.012532768
0.44725034 0.096635275 0.012526897
0.44727963 0.097598836 0.012521025
0.44816244 0.098434582 0.013047621
0.44819167 0.099396549 0.013041759
0.44822091 0.10035851 0.013035896
0.44825014 0.10132048 0.013030034
0.44827938 0.10228244 0.013024173
0.44916192 0.10310863 0.013550826
0.44919112 0.104069 0.013544975
0.4492203 0.10502937 0.013539122
0.44924951 0.10598974 0.01353327
0.45013177 0.10680798 0.014059972
0.45016092 0.10776675 0.01405413
0.45019007 0.10872553 0.014048288
0.45107222 0.10953738 0.01457506
0.4511013 0.11049456 0.014569228
0.45113039 0.11145175 0.014563395
0.45115948 0.11240894 0.014557562
0.45204133 0.11321284 0.015084352
0.45207039 0.11416843 0.015078529
0.45209941 0.11512402 0.015072706
0.45212847 0.11607961 0.015066883
0.45301008 0.11687554 0.015593721
0.45303908 0.11782955 0.015587907
0.45306808 0.11878354 0.015582094
0.45309708 0.11973754 0.015576281
0.45397845 0.12052552 0.016103161
0.45400739 0.12147792 0.016097357
0.45403633 0.12243033 0.016091553
0.45406529 0.12338274 0.016085751
0.45409423 0.12433515 0.016079947
0.4541232 0.12528755 0.016074143
0.45415214 0.12623996 0.016068339
0.45332906 0.12736955 0.015529773
0.45335805 0.12832354 0.01552396
0.45253512 0.12945792 0.014985359
0.45256415 0.1304135 0.014979536
0.45174137 0.13155264 0.014440905
0.45091861 0.13269497 0.013902225
0.45009604 0.13384049 0.013363555
0.45012522 0.13480085 0.013357703
0.44334123 0.1372806 0.0090890573
0.43569967 0.062798403 0.0050592055
0.43829256 0.06357614 0.0066532586
0.43832234 0.064555623 0.0066472897
0.43920633 0.065463074 0.0071746823
0.44009021 0.066367351 0.007702094
0.44011989 0.067343645 0.0076961447
0.44100365 0.068243138 0.0082235793
0.44103327 0.069217846 0.0082176402
0.44191691 0.070112556 0.0087451423
0.44194651 0.071085669 0.0087392116
0.44197607 0.072058775 0.0087332819
0.44200566 0.073031887 0.0087273521
0.442889 0.073918641 0.0092548709
0.44291854 0.074890159 0.0092489505
0.44294807 0.075861678 0.0092430301
0.44297761 0.076833196 0.0092371106
0.44300714 0.077804714 0.0092311902
0.44389018 0.078681916 0.0097587667
0.44391969 0.07965184 0.0097528566
0.44394916 0.080621764 0.0097469455
0.44397864 0.081591696 0.0097410353
0.44400811 0.08256162 0.0097351251
0.44403759 0.083531544 0.009729214
0.44492033 0.084397592 0.010256853
0.44494978 0.085365929 0.010250952
0.44497919 0.086334266 0.010245052
0.44500864 0.087302595 0.010239151
0.44503805 0.088270932 0.01023325
0.4459205 0.089127421 0.010760953
0.44594988 0.090094164 0.010755062
0.44597927 0.091060899 0.010749171
0.44600865 0.092027642 0.01074328
0.44689089 0.092876166 0.011271063
0.44692025 0.093841314 0.011265182
0.44694957 0.094806463 0.011259301
0.4469789 0.095771618 0.011253419
0.44700825 0.096736759 0.011247538
0.44789013 0.097575739 0.011775347
0.44791943 0.098539293 0.011769475
0.44794872 0.099502847 0.011763604
0.44797802 0.1004664 0.011757732
0.44800729 0.10142995 0.011751861
0.44888893 0.10225938 0.012279723
0.44891816 0.10322133 0.012273861
0.4489474 0.1041833 0.012267999
0.44897664 0.10514526 0.012262137
0.44985801 0.10596672 0.012790053
0.44988719 0.10692709 0.012784202
0.44991639 0.10788745 0.012778349
0.45079756 0.10870255 0.013306304
0.4508267 0.10966132 0.013300462
0.45085585 0.1106201 0.01329462
0.4517369 0.1114288 0.013822639
0.45176598 0.112386 0.013816806
0.45179507 0.11334317 0.013810974
0.45267588 0.11414552 0.014339007
0.45270491 0.11510111 0.014333184
0.45273396 0.1160567 0.01432736
0.45276302 0.11701229 0.014321537
0.45279205 0.11796788 0.014315714
0.45367256 0.11876067 0.014843805
0.45370156 0.11971467 0.014837991
0.45373055 0.12066868 0.014832178
0.45375955 0.12162267 0.014826365
0.45378855 0.12257668 0.014820551
0.45381755 0.12353066 0.014814738
0.45384654 0.12448467 0.014808925
0.45387554 0.12543868 0.014803112
0.45390454 0.12639266 0.014797298
0.45393354 0.12734668 0.014791484
0.45396253 0.12830067 0.014785671
0.45314059 0.129435 0.014245837
0.45316964 0.13039058 0.014240013
0.45234787 0.13152969 0.01370015
0.45152614 0.13267198 0.013160241
0.45070454 0.13381746 0.012620338
0.44988304 0.13496612 0.012080417
0.44395781 0.13725726 0.0083359806
0.43290988 0.063043654 0.0021592081
0.43549994 0.063827872 0.0037569222
0.4372364 0.064672932 0.0048200781
0.43811947 0.065583609 0.0053486843
0.43985566 0.066417523 0.0064119403
0.43988541 0.067395411 0.0064059813
0.44076818 0.068296537 0.0069346456
0.44079787 0.069272831 0.0069286963
0.44168049 0.070169181 0.0074573839
0.44171011 0.07114388 0.0074514444
0.44173974 0.072118588 0.0074455049
0.44262224 0.07300856 0.0079742689
0.44265181 0.073981673 0.0079683391
0.4426814 0.074954778 0.0079624094
0.44271097 0.075927891 0.0079564797
0.44359317 0.076809905 0.0084852604
0.44362271 0.077781424 0.00847934
0.44365224 0.07875295 0.0084734205
0.44368178 0.079724461 0.0084675001
0.44371131 0.080695987 0.0084615797
0.44459322 0.081568442 0.0089904135
0.4446227 0.082538366 0.0089845024
0.44465217 0.08350829 0.0089785922
0.44468164 0.084478222 0.0089726821
0.44471115 0.085448146 0.008966771
0.44474062 0.086418077 0.0089608608
0.44562221 0.087279379 0.0094897682
0.44565162 0.088247716 0.0094838673
0.44568107 0.089216046 0.0094779665
0.44571048 0.090184383 0.0094720656
0.44659182 0.09103772 0.010001015
0.44662121 0.092004463 0.0099951243
0.44665059 0.092971206 0.0099892337
0.44667998 0.093937948 0.0099833421
0.44756112 0.094783321 0.010512378
0.44759044 0.095748477 0.010506497
0.4476198 0.096713625 0.010500615
0.44764912 0.097678766 0.010494734
0.44767845 0.098643914 0.010488853
0.4477078 0.09960907 0.010482972
0.44858855 0.1004433 0.011012044
0.44861785 0.10140686 0.011006172
0.44864711 0.10237041 0.0110003
0.44867641 0.10333396 0.010994429
0.44955692 0.10416024 0.011523544
0.44958615 0.1051222 0.011517681
0.44961539 0.10608417 0.011511819
0.44964463 0.10704613 0.011505958
0.4505249 0.10786443 0.012035127
0.4505541 0.10882481 0.012029274
0.45143422 0.10963833 0.012558467
0.45146337 0.11059711 0.012552625
0.45149252 0.11155589 0.012546781
0.45237249 0.11236305 0.013076051
0.45240158 0.11332022 0.013070218
0.45243067 0.11427741 0.013064385
0.45245975 0.1152346 0.013058553
0.45248887 0.11619178 0.01305272
0.45336848 0.11698938 0.013582014
0.45339754 0.11794498 0.013576192
0.4534266 0.11890057 0.013570368
0.45345563 0.11985616 0.013564546
0.45348468 0.12081176 0.013558722
0.45436403 0.1215998 0.01408807
0.45439303 0.1225538 0.014082257
0.45442203 0.12350779 0.014076443
0.45445102 0.1244618 0.01407063
0.45448002 0.1254158 0.014064817
0.45450902 0.12636979 0.014059003
0.45453802 0.12732381 0.014053189
0.45371705 0.12845649 0.013512137
0.45374608 0.1294121 0.013506314
0.45292526 0.13054956 0.012965227
0.45210451 0.13169023 0.012424089
0.45213363 0.132649 0.012418246
0.45131305 0.13379444 0.011877117
0.45049259 0.13494305 0.011335962
0.44542402 0.13704409 0.0081182094
0.43610805 0.14012145 0.0022236726
0.43098053 0.063221417 -0.00021481399
0.43441996 0.063941762 0.0019223415
0.43615457 0.064790085 0.0029879767
0.43703672 0.065703988 0.0035177968
0.43877092 0.066541165 0.0045834677
0.43965292 0.067447096 0.0051133628
0.44053474 0.068349861 0.0056432504
0.44141647 0.069249421 0.0061731525
0.44144613 0.070225723 0.0061672032
0.44147581 0.071202017 0.0061612539
0.44235733 0.072095215 0.0066912002
0.44238696 0.073069923 0.0066852602
0.44241658 0.07404463 0.0066793207
0.44244623 0.07501933 0.0066733812
0.44332758 0.075904563 0.0072034025
0.44335714 0.076877676 0.0071974723
0.44338673 0.077850789 0.0071915425
0.4434163 0.078823902 0.0071856128
0.44429734 0.07970117 0.007715656
0.44432688 0.080672696 0.007709736
0.44435641 0.081644207 0.0077038156
0.44438595 0.082615726 0.0076978956
0.44441545 0.083587244 0.0076919752
0.44529623 0.084454961 0.0082220715
0.4453257 0.085424885 0.0082161603
0.44535518 0.086394817 0.0082102502
0.44538468 0.087364748 0.00820434
0.44541416 0.088334672 0.0081984289
0.44629461 0.08919283 0.0087285833
0.44632405 0.090161167 0.0087226825
0.4463535 0.091129497 0.0087167816
0.44638291 0.092097826 0.0087108808
0.44641235 0.093066163 0.0087049799
0.44729254 0.093914777 0.0092351977
0.44732192 0.094881512 0.0092293071
0.44735131 0.095848255 0.0092234164
0.44738069 0.096814997 0.0092175249
0.44826066 0.097655632 0.0097478181
0.44828999 0.098620772 0.0097419368
0.44831935 0.099585928 0.0097360555
0.44834867 0.10055108 0.0097301733
0.448378 0.10151623 0.009724292
0.44925764 0.10234731 0.010254617
0.44928694 0.10331087 0.010248746
0.44931623 0.10427442 0.010242874
0.44934553 0.10523798 0.010237002
0.45022494 0.1060611 0.01076737
0.45025417 0.10702306 0.010761508
0.45028341 0.10798503 0.010755646
0.45116261 0.10880178 0.011286058
0.45119181 0.10976215 0.011280206
0.45122099 0.11072251 0.011274354
0.45210001 0.1115329 0.011804799
0.45212916 0.11249168 0.011798956
0.4521583 0.11345045 0.011793113
0.45218745 0.11440925 0.011787271
0.45306626 0.11521164 0.012317803
0.45309535 0.11616883 0.01231197
0.45312443 0.11712601 0.012306137
0.45315355 0.1180832 0.012300304
0.45403206 0.11887766 0.012830846
0.45406112 0.11983325 0.012825023
0.45409018 0.12078885 0.0128192
0.45411921 0.12174443 0.012813377
0.45414826 0.12270003 0.012807554
0.45417729 0.12365562 0.012801731
0.45420635 0.12461121 0.012795907
0.4542354 0.1255668 0.012790085
0.45426443 0.12652239 0.012784261
0.45429349 0.12747799 0.012778438
0.45432252 0.12843359 0.012772615
0.45435157 0.12938918 0.012766792
0.45353177 0.13052662 0.012224478
0.452712 0.13166724 0.011682105
0.45274115 0.13262601 0.011676263
0.45192158 0.13377142 0.0111339
0.45025343 0.1351082 0.010054981
0.44603959 0.1370208 0.0073663658
0.44012907 0.13933213 0.0036045103
0.43421924 0.14166573 -0.00015744298
0.42990851 0.06333182 -0.0020592359
0.43334407 0.064055502 8.2859566e-05
0.43507668 0.064907089 0.0011509099
0.43680918 0.065752305 0.0022190253
0.43769029 0.066664651 0.0027500885
0.4394224 0.067498714 0.0038182398
0.4403033 0.068403095 0.0043493835
0.44118407 0.069304302 0.0048805089
0.44121379 0.070282191 0.0048745498
0.44209442 0.071178615 0.005405704
0.4421241 0.072154909 0.0053997547
0.44215378 0.073131204 0.0053938054
0.44218343 0.074107505 0.0053878562
0.44306383 0.074995965 0.0059190649
0.44309345 0.075970665 0.0059131254
0.44312307 0.076945372 0.0059071858
0.4431527 0.077920079 0.0059012463
0.44403288 0.078800574 0.0064325295
0.44406247 0.079773679 0.0064265998
0.44409204 0.080746792 0.0064206696
0.44412163 0.081719905 0.0064147399
0.44500151 0.082592435 0.0069460399
0.44503105 0.083563954 0.0069401199
0.44506058 0.084535472 0.0069341995
0.44509012 0.085506991 0.0069282795
0.44511965 0.086478516 0.0069223591
0.44599923 0.087341495 0.0074537233
0.44602871 0.088311419 0.0074478127
0.44605821 0.089281343 0.0074419021
0.44608769 0.090251267 0.0074359919
0.44696704 0.091106281 0.0079673985
0.44699648 0.09207461 0.0079614976
0.44702592 0.093042947 0.0079555968
0.44705534 0.094011284 0.0079496959
0.44708478 0.094979621 0.0079437951
0.44796386 0.095825076 0.0084752608
0.44799325 0.096791819 0.0084693693
0.44802263 0.097758561 0.0084634786
0.44805199 0.098725304 0.0084575871
0.44893089 0.099562787 0.0089891385
0.44896021 0.10052793 0.0089832572
0.44898954 0.10149309 0.0089773759
0.4490189 0.10245824 0.0089714946
0.44904822 0.10342338 0.0089656133
0.44907755 0.10438853 0.008959732
0.44995606 0.10521488 0.0094913132
0.44998536 0.10617843 0.0094854413
0.45001462 0.10714199 0.0094795702
0.45089293 0.10796197 0.010011191
0.45092216 0.10892393 0.010005328
0.4509514 0.10988589 0.0099994661
0.45182949 0.11069949 0.010531131
0.4518587 0.11165986 0.010525279
0.45188788 0.11262024 0.010519426
0.45276579 0.11342747 0.011051125
0.45279494 0.11438625 0.011045282
0.45282409 0.11534503 0.01103944
0.45285323 0.11630381 0.011033596
0.45373094 0.11710306 0.011565375
0.45376003 0.11806025 0.011559542
0.45378914 0.11901743 0.011553709
0.45381823 0.11997463 0.011547877
0.45384732 0.12093181 0.011542044
0.45387641 0.12188899 0.011536212
0.45475376 0.12267712 0.012068031
0.45478278 0.12363271 0.012062209
0.45481184 0.1245883 0.012056385
0.45484087 0.12554389 0.012050562
0.45486993 0.12649949 0.012044739
0.45489898 0.12745509 0.012038915
0.45492801 0.12841067 0.012033093
0.45495707 0.12936628 0.012027269
0.45413825 0.13050365 0.011483716
0.45331952 0.13164425 0.010940117
0.45334864 0.13260302 0.010934274
0.45168239 0.13393497 0.0098529179
0.45086396 0.13508511 0.0093092918
0.44665518 0.13699751 0.0066145104
0.44244686 0.13892584 0.0039196373
0.43739149 0.14106305 0.00068683637
0.43233675 0.14321937 -0.002546049
0.43142188 0.064237781 -0.0022998566
0.43400294 0.065023944 -0.00069105811
0.43573344 0.065872416 0.00037947251
0.43746382 0.066714518 0.0014500797
0.43919393 0.067550257 0.0025206879
0.44007385 0.06845627 0.0030530174
0.4409537 0.069359094 0.003585404
0.44098347 0.070338584 0.0035794354
0.44186312 0.071236633 0.0041118134
0.44189286 0.072214521 0.0041058543
0.44277239 0.073107801 0.0046382616
0.44280204 0.074084096 0.0046323123
0.44283172 0.07506039 0.0046263631
0.44286141 0.076036692 0.0046204138
0.44374067 0.076921999 0.0051528695
0.44377029 0.077896707 0.0051469295
0.44379991 0.078871414 0.00514099
0.44382957 0.079846121 0.0051350505
0.44385919 0.080820821 0.005129111
0.44473821 0.08169657 0.0056616571
0.4447678 0.082669683 0.0056557269
0.44479737 0.083642796 0.0056497972
0.44482696 0.084615909 0.0056438674
0.44570568 0.0854837 0.0061764354
0.44573522 0.086455226 0.0061705154
0.44576475 0.087426744 0.006164595
0.44664329 0.088288166 0.0066971965
0.44667277 0.08925809 0.0066912859
0.44670224 0.090228014 0.0066853752
0.44673175 0.091197938 0.0066794651
0.44676122 0.092167862 0.0066735544
0.44763947 0.093019731 0.0072062141
0.44766891 0.093988068 0.0072003133
0.44769832 0.094956405 0.0071944124
0.44772777 0.095924735 0.0071885115
0.44775721 0.096893072 0.0071826107
0.44863516 0.097735383 0.0077153286
0.44866455 0.098702125 0.0077094375
0.44869393 0.09966886 0.0077035464
0.44872332 0.1006356 0.0076976554
0.4487527 0.10160235 0.0076917643
0.44963044 0.1024351 0.0082245721
0.44965976 0.10340025 0.0082186908
0.44968912 0.10436539 0.0082128095
0.44971845 0.10533053 0.0082069281
0.45059589 0.10615533 0.0087397583
0.45062515 0.10711888 0.0087338872
0.45065445 0.10808244 0.0087280152
0.45153168 0.10890087 0.009260878
0.45156091 0.10986283 0.0092550162
0.45159018 0.11082479 0.0092491545
0.4524672 0.11163684 0.0097820563
0.45249641 0.11259722 0.0097762039
0.45252559 0.11355758 0.0097703524
0.45255479 0.11451796 0.0097645
0.45258397 0.11547832 0.0097586475
0.45346072 0.11628082 0.010291608
0.45348987 0.11723959 0.010285766
0.45351902 0.11819838 0.010279923
0.45354816 0.11915715 0.010274081
0.45442474 0.11995168 0.010807121
0.45445383 0.12090886 0.010801288
0.45448291 0.12186604 0.010795455
0.454512 0.12282323 0.010789623
0.45454112 0.12378041 0.01078379
0.4545702 0.12473761 0.010777957
0.45459929 0.12569478 0.010772124
0.45462838 0.12665197 0.010766291
0.45465747 0.12760916 0.010760458
0.45468658 0.12856634 0.010754626
0.45471567 0.12952353 0.010748793
0.45474476 0.13048071 0.01074296
0.45392701 0.13162127 0.010198127
0.45310941 0.132765 0.0096533075
0.45229191 0.13391191 0.009108468
