# .PCD v0.7 - Point Cloud Data file format
VERSION 0.7
FIELDS x y z
SIZE 4 4 4
TYPE F F F
COUNT 1 1 1
WIDTH 1350
HEIGHT 1
VIEWPOINT 0 0 0 1 0 0 0
POINTS 1350
DATA ascii
0.4132145 0.0182443 0.027958715
0.41324452 0.019231746 0.027952699
0.41327453 0.02021919 0.027946681
0.41241679 0.021206584 0.027445927
0.41244683 0.022195622 0.0274399
0.4124769 0.023184661 0.027433874
0.4116194 0.024178425 0.026933113
0.4116495 0.025169056 0.026927076
0.41079211 0.026167599 0.026426286
0.41082227 0.027159823 0.026420239
0.40907767 0.02817424 0.025424648
0.40822053 0.029182339 0.024923768
0.40736353 0.030193623 0.024422901
0.4073939 0.031192217 0.024416815
0.40653706 0.032208279 0.023915919
0.4056803 0.033227526 0.023415001
0.4048236 0.034249961 0.022914041
0.40396705 0.035275578 0.022413086
0.4039976 0.036280543 0.022406962
0.40402815 0.037285507 0.022400837
0.41031998 -0.03924571 0.026552824
0.41035008 -0.038255077 0.026546787
0.41038021 -0.037264448 0.026540753
0.41129985 -0.036181349 0.02703009
0.4113299 -0.035192315 0.027024064
0.41135997 -0.034203276 0.027018037
0.41139004 -0.033214241 0.027012009
0.41230947 -0.032139108 0.027501423
0.41233948 -0.031151656 0.027495407
0.41325873 -0.030081308 0.027984822
0.41328871 -0.029095458 0.027978815
0.41331866 -0.028109595 0.027972806
0.41334864 -0.027123746 0.027966799
0.41426763 -0.026061358 0.028456263
0.41429755 -0.025077099 0.028450266
0.41432747 -0.024092836 0.028444268
0.41435739 -0.023108575 0.02843827
0.41438732 -0.022124317 0.028432272
0.41441724 -0.021140058 0.028426275
0.41444713 -0.020155795 0.028420277
0.41447705 -0.019171532 0.028414279
0.41450697 -0.018187273 0.028408282
0.41453689 -0.017203014 0.028402284
0.41456681 -0.016218754 0.028396286
0.41459674 -0.015234495 0.028390288
0.41462663 -0.014250236 0.028384291
0.41465655 -0.013265977 0.028378293
0.41468647 -0.012281709 0.028372295
0.41471639 -0.01129745 0.028366297
0.41474631 -0.010313191 0.0283603
0.41477624 -0.0093289325 0.028354302
0.41391799 -0.0083925398 0.027852656
0.41394794 -0.0074066874 0.027846649
0.41397792 -0.0064208345 0.027840642
0.41400787 -0.0054349815 0.027834633
0.41403782 -0.0044491249 0.027828626
0.4140678 -0.003463272 0.027822619
0.41409776 -0.0024774191 0.027816612
0.41412774 -0.00149157 0.027810603
0.41415769 -0.00050571706 0.027804596
0.41418767 0.00048013579 0.027798589
0.41421762 0.0014659924 0.02779258
0.4142476 0.0024518452 0.027786573
0.41427755 0.0034376981 0.027780566
0.41430753 0.0044235475 0.027774559
0.41433749 0.0054094042 0.02776855
0.41436747 0.0063952571 0.027762543
0.41439742 0.0073811081 0.027756536
0.4144274 0.008366961 0.027750529
0.41445735 0.0093528153 0.02774452
0.41448733 0.010338669 0.027738513
0.41451728 0.011324521 0.027732506
0.41366011 0.012295951 0.027230648
0.41369012 0.013283396 0.02722463
0.41372013 0.014270843 0.027218614
0.41375014 0.015258287 0.027212596
0.41378015 0.016245734 0.027206579
0.41381016 0.017233178 0.027200561
0.41384017 0.018220626 0.027194545
0.41298333 0.019204795 0.026692582
0.4130134 0.020193834 0.026686555
0.41304344 0.021182872 0.026680529
0.41218683 0.022173414 0.026178554
0.41221696 0.023164045 0.026172517
0.41224706 0.024154676 0.02616648
0.41227716 0.025145307 0.026160443
0.41142082 0.026143812 0.025658421
0.41056454 0.027145499 0.025156379
0.40970838 0.028150376 0.024654316
0.40885225 0.029158436 0.024152208
0.40799627 0.030169683 0.023650108
0.4071404 0.031184113 0.023147987
0.4071708 0.032184299 0.023141893
0.40631506 0.033203509 0.022639742
0.40545937 0.034225903 0.022137541
0.40548986 0.035229277 0.022131428
0.40552038 0.03623265 0.022125313
0.40555087 0.03723602 0.022119198
0.40469548 0.038266379 0.021616988
0.41094768 -0.039269459 0.025786182
0.41097778 -0.038278829 0.025780145
0.41100791 -0.0372882 0.025774108
0.41192654 -0.036205065 0.026264681
0.41195658 -0.035216026 0.026258653
0.41198665 -0.034226991 0.026252626
0.41201672 -0.033237953 0.0262466
0.41293514 -0.032162782 0.026737247
0.41296518 -0.03117533 0.026731228
0.41299519 -0.030187888 0.026725212
0.41391337 -0.029119095 0.02721587
0.41394332 -0.02813323 0.027209863
0.4139733 -0.027147381 0.027203856
0.41400325 -0.026161529 0.027197847
0.41403323 -0.025175676 0.02719184
0.41406319 -0.024189822 0.027185833
0.41409317 -0.023203973 0.027179826
0.41501096 -0.022147914 0.027670562
0.41504088 -0.021163655 0.027664565
0.4150708 -0.020179393 0.027658567
0.41510072 -0.01919513 0.027652569
0.41513062 -0.018210871 0.027646571
0.41427296 -0.017288852 0.02714378
0.41430292 -0.016302999 0.027137773
0.4143329 -0.015317147 0.027131766
0.41436285 -0.014331293 0.027125757
0.4143928 -0.013345445 0.02711975
0.41442278 -0.012359584 0.027113743
0.41445273 -0.011373735 0.027107736
0.41448271 -0.010387882 0.027101727
0.41451266 -0.0094020292 0.02709572
0.41454265 -0.0084161758 0.027089713
0.4145726 -0.0074303234 0.027083704
0.41460258 -0.0064444705 0.027077697
0.41463253 -0.0054586176 0.02707169
0.41466251 -0.0044727609 0.027065683
0.41469246 -0.003486908 0.027059674
0.41472244 -0.0025010551 0.027053667
0.41475239 -0.0015152061 0.02704766
0.41478238 -0.00052935316 0.027041653
0.41392562 0.00042292595 0.026538678
0.41395563 0.0014103762 0.026532659
0.41398564 0.002397819 0.026526643
0.41401565 0.0033852656 0.026520627
0.41404566 0.0043727085 0.026514608
0.41407567 0.0053601568 0.026508592
0.41410568 0.0063476032 0.026502574
0.41413569 0.0073350482 0.026496558
0.41416571 0.0083224932 0.026490539
0.41419572 0.0093099391 0.026484523
0.41422576 0.010297386 0.026478505
0.41425577 0.011284831 0.026472488
0.41428578 0.012272277 0.02646647
0.41431579 0.013259722 0.026460454
0.4143458 0.014247169 0.026454436
0.41437581 0.015234613 0.026448419
0.41351983 0.016213968 0.025945252
0.41354987 0.017203005 0.025939226
0.41357994 0.018192044 0.025933199
0.41361001 0.019181082 0.025927171
0.41275433 0.020168399 0.025423983
0.41278443 0.021159032 0.025417946
0.41281453 0.022149663 0.025411909
0.41284466 0.023140294 0.025405873
0.41198921 0.024135575 0.024902636
0.41201937 0.025127798 0.02489659
0.4120495 0.026120022 0.024890544
0.41119426 0.027121672 0.024387266
0.41033909 0.02812651 0.023883978
0.40948397 0.029134532 0.023380632
0.408629 0.03014574 0.022877302
0.40865937 0.031144334 0.022871217
0.40868971 0.03214293 0.022865131
0.40783495 0.033160508 0.022361759
0.40786535 0.034160692 0.022355665
0.4070107 0.03518305 0.021852262
0.40615612 0.036208592 0.021348814
0.40618664 0.037211966 0.0213427
0.40621713 0.038215335 0.021336585
0.41157538 -0.039293211 0.025019549
0.41160548 -0.038302578 0.025013512
0.41163558 -0.037311949 0.025007475
0.41255322 -0.036228776 0.025499275
0.41258326 -0.035239737 0.025493247
0.41261333 -0.034250703 0.025487222
0.4126434 -0.033261668 0.025481194
0.41356081 -0.032186456 0.025973074
0.41359085 -0.031199005 0.025967058
0.41362086 -0.030211562 0.02596104
0.41365087 -0.029224118 0.025955023
0.41368088 -0.028236669 0.025949005
0.41459796 -0.027171018 0.026440917
0.41462791 -0.026185164 0.02643491
0.41465789 -0.025199311 0.026428903
0.41468784 -0.024213459 0.026422895
0.41471782 -0.02322761 0.026416887
0.41474777 -0.022241756 0.02641088
0.41477776 -0.021255903 0.026404873
0.41480771 -0.020270048 0.026398866
0.41483769 -0.019284194 0.026392857
0.41486764 -0.018298341 0.02638685
0.41489762 -0.017312488 0.026380843
0.41492757 -0.016326636 0.026374836
0.41495755 -0.015340783 0.026368827
0.4149875 -0.014354929 0.02636282
0.41501749 -0.013369081 0.026356813
0.41504744 -0.01238322 0.026350806
0.41507742 -0.011397371 0.026344797
0.41510737 -0.010411518 0.02633879
0.41513732 -0.0094256653 0.026332783
0.41428116 -0.0084877564 0.025828661
0.41431117 -0.0075003132 0.025822643
0.41434118 -0.0065128664 0.025816627
0.41437119 -0.00552542 0.025810609
0.4144012 -0.0045379736 0.025804592
0.41443121 -0.0035505269 0.025798574
0.41446123 -0.0025630803 0.025792558
0.41449124 -0.0015756375 0.02578654
0.41452125 -0.00058819097 0.025780523
0.41455129 0.00039925185 0.025774507
0.4145813 0.0013867022 0.025768489
0.41461131 0.002374145 0.025762472
0.41464132 0.0033615916 0.025756454
0.41467133 0.0043490343 0.025750438
0.41470134 0.0053364825 0.02574442
0.41473135 0.0063239294 0.025738403
0.41476136 0.0073113739 0.025732385
0.41479138 0.008298819 0.025726369
0.41482139 0.0092862649 0.02572035
0.41396612 0.010256025 0.025216009
0.41399619 0.011245064 0.025209982
0.41402626 0.012234103 0.025203956
0.4140563 0.01322314 0.025197929
0.41408637 0.014212178 0.025191901
0.41411644 0.015201217 0.025185876
0.41414651 0.016190257 0.025179848
0.41417655 0.017179294 0.025173821
0.41332179 0.018163389 0.024669424
0.41335189 0.01915402 0.024663387
0.41338199 0.020144649 0.02465735
0.41341212 0.021135282 0.024651315
0.41255757 0.022127338 0.024146862
0.41258773 0.023119563 0.024140816
0.41261789 0.024111787 0.02413477
0.41264805 0.02510401 0.024128724
0.41179377 0.026104031 0.023624225
0.41093954 0.027107237 0.02311971
0.41096982 0.028102646 0.023113646
0.41011569 0.029110631 0.022609072
0.410146 0.030107632 0.022602996
0.4092921 0.031120393 0.022098418
0.4084383 0.03213634 0.021593822
0.40846869 0.033136528 0.021587728
0.40849909 0.034136716 0.021581631
0.40852949 0.035136901 0.021575537
0.40767592 0.036160812 0.021070898
0.40770635 0.037162591 0.021064794
0.40773681 0.03816437 0.021058688
0.40776727 0.039166152 0.021052584
0.41217294 -0.040307589 0.024258941
0.41220307 -0.03931696 0.024252905
0.41223317 -0.03832633 0.024246868
0.41226327 -0.037335701 0.024240833
0.4131799 -0.036252487 0.024733866
0.41320994 -0.035263453 0.024727838
0.41324002 -0.034274414 0.024721811
0.41327009 -0.033285379 0.024715783
0.41330013 -0.032296333 0.024709757
0.41421652 -0.031222679 0.02520288
0.41424653 -0.030235237 0.025196863
0.41427654 -0.029247792 0.025190845
0.41430655 -0.028260343 0.025184829
0.41433656 -0.027272901 0.025178811
0.41436657 -0.026285453 0.025172794
0.41439658 -0.025298007 0.025166776
0.41442659 -0.024310561 0.02516076
0.41445661 -0.023323117 0.025154741
0.41448665 -0.022335671 0.025148725
0.41451666 -0.021348229 0.025142707
0.41454667 -0.020360777 0.025136691
0.41457668 -0.019373331 0.025130674
0.41460669 -0.018385889 0.025124656
0.4146367 -0.017398441 0.02511864
0.41466671 -0.016410995 0.025112621
0.41469672 -0.015423552 0.025106605
0.41472673 -0.014436106 0.025100587
0.41475675 -0.013448663 0.025094571
0.41478676 -0.012461212 0.025088552
0.4148168 -0.011473767 0.025082536
0.41484681 -0.01048632 0.025076518
0.41487682 -0.0094988765 0.025070501
0.41490683 -0.0085114306 0.025064483
0.41493684 -0.0075239874 0.025058467
0.41496685 -0.006536541 0.025052449
0.41499686 -0.0055490942 0.025046432
0.41502687 -0.0045616478 0.025040414
0.41505688 -0.0035742011 0.025034398
0.414202 -0.0026251844 0.024528949
0.41423208 -0.0016361478 0.024522923
0.41426212 -0.00064711133 0.024516895
0.41429219 0.00034192888 0.024510868
0.41432226 0.001330969 0.024504842
0.41435233 0.0023200056 0.024498815
0.41438237 0.003309042 0.024492787
0.41441244 0.0042980821 0.024486762
0.41444251 0.0052871206 0.024480734
0.41447255 0.0062761591 0.024474707
0.41450262 0.0072651971 0.024468679
0.41453269 0.0082542337 0.024462653
0.41456276 0.0092432741 0.024456626
0.4145928 0.010232313 0.024450598
0.41462287 0.011221351 0.024444573
0.41465294 0.012210391 0.024438545
0.41468298 0.013199427 0.024432518
0.41382903 0.014177114 0.023926927
0.41385913 0.015167744 0.02392089
0.41388926 0.016158376 0.023914853
0.41391936 0.017149007 0.023908816
0.41394946 0.018139638 0.023902781
0.4130958 0.019126879 0.023397125
0.41312596 0.020119103 0.023391079
0.41315612 0.021111326 0.023385033
0.41318628 0.02210355 0.023378987
0.41321644 0.023095774 0.023372941
0.41236305 0.02409257 0.022867233
0.41239324 0.025086388 0.022861175
0.41154 0.026087962 0.022355439
0.41157028 0.027083371 0.022349373
0.41160053 0.02807878 0.022343308
0.41074744 0.029086726 0.021837493
0.41077775 0.030083729 0.021831419
0.40992483 0.031096451 0.021325614
0.40995517 0.032095045 0.021319529
0.40910244 0.033112548 0.020813689
0.40913284 0.034112737 0.020807594
0.40916324 0.035112921 0.020801499
0.40919363 0.036113109 0.020795405
0.40922403 0.037113294 0.02078931
0.40837157 0.038140353 0.020283418
0.40840203 0.039142132 0.020277312
0.40754965 0.04017397 0.01977136
0.41280064 -0.040331341 0.023492305
0.41283074 -0.039340712 0.023486268
0.41286087 -0.038350079 0.023480231
0.41289097 -0.03735945 0.023474194
0.41380656 -0.036276199 0.023968466
0.41383663 -0.035287164 0.023962438
0.4138667 -0.034298126 0.023956412
0.41389674 -0.033309091 0.023950385
0.41392681 -0.032320049 0.023944357
0.41395688 -0.03133101 0.023938332
0.41398695 -0.030341974 0.023932304
0.41401699 -0.029352937 0.023926277
0.41493222 -0.028284017 0.024420662
0.41496223 -0.027296573 0.024414646
0.41499224 -0.026309127 0.024408629
0.41502225 -0.025321681 0.024402611
0.41505226 -0.024334233 0.024396595
0.41508228 -0.023346791 0.024390576
0.41511229 -0.022359345 0.02438456
0.4151423 -0.021371901 0.024378542
0.41517234 -0.020384451 0.024372526
0.41520235 -0.019397005 0.024366507
0.41523236 -0.018409561 0.024360491
0.41526237 -0.017422115 0.024354473
0.41529238 -0.016434669 0.024348456
0.41532239 -0.015447226 0.024342438
0.4153524 -0.014459779 0.024336422
0.41538242 -0.013472337 0.024330404
0.41541243 -0.012484887 0.024324387
0.41455811 -0.011550243 0.023817793
0.41458818 -0.010561204 0.023811765
0.41461825 -0.0095721669 0.023805739
0.41464829 -0.0085831303 0.023799712
0.41467836 -0.00759409 0.023793684
0.41470844 -0.0066050533 0.023787659
0.41473851 -0.0056160172 0.023781631
0.41476855 -0.0046269731 0.023775604
0.41479862 -0.0036379367 0.023769578
0.41482869 -0.0026488963 0.02376355
0.41485873 -0.0016598599 0.023757523
0.4148888 -0.00067082344 0.023751497
0.41491887 0.00031821677 0.02374547
0.41494894 0.001307257 0.023739442
0.41497898 0.0022962934 0.023733415
0.41500905 0.00328533 0.023727389
0.41503912 0.0042743701 0.023721362
0.41506916 0.0052634086 0.023715334
0.41509923 0.0062524467 0.023709308
0.41424593 0.0072189448 0.023202546
0.41427606 0.008209575 0.023196509
0.41430616 0.0092002088 0.023190472
0.41433626 0.010190839 0.023184435
0.41436639 0.011181469 0.023178399
0.41439649 0.012172101 0.023172362
0.41442659 0.013162733 0.023166325
0.41445673 0.014153363 0.023160288
0.41360387 0.015134195 0.022653446
0.41363403 0.01612642 0.022647399
0.41366416 0.017118642 0.022641351
0.41369432 0.018110868 0.022635305
0.41372448 0.019103091 0.022629259
0.41375464 0.020095315 0.022623213
0.41290212 0.021087296 0.022116302
0.41293234 0.022081112 0.022110246
0.41296256 0.023074929 0.022104189
0.41211021 0.024073279 0.021597233
0.41214049 0.025068689 0.021591166
0.41217074 0.026064096 0.021585101
0.41220099 0.027059507 0.021579035
0.41134885 0.028065821 0.02107201
0.41137916 0.029062824 0.021065934
0.41140947 0.030059826 0.02105986
0.41055757 0.03107251 0.020552816
0.41058791 0.032071106 0.020546731
0.41061828 0.0330697 0.020540645
0.40976658 0.034088757 0.020033568
0.40979698 0.035088941 0.020027474
0.40894541 0.036112778 0.019520367
0.40897587 0.037114557 0.019514263
0.40900633 0.038116336 0.019508157
0.40903676 0.039118115 0.019502053
0.40818539 0.040149912 0.018994866
0.40821591 0.041153286 0.018988753
0.41342834 -0.04035509 0.022725666
0.41345844 -0.039364461 0.022719629
0.41348854 -0.038373832 0.022713592
0.41351867 -0.037383202 0.022707555
0.41354877 -0.03639257 0.022701519
0.41357887 -0.035401933 0.022695482
0.413609 -0.034411304 0.022689447
0.41452342 -0.033332802 0.023184974
0.41455349 -0.03234376 0.023178948
0.41458356 -0.031354722 0.023172921
0.41461363 -0.030365687 0.023166893
0.41464368 -0.02937665 0.023160867
0.41467375 -0.028387606 0.02315484
0.41470382 -0.02739857 0.023148812
0.41473386 -0.026409533 0.023142787
0.41476393 -0.025420493 0.023136759
0.414794 -0.024431456 0.023130732
0.41482407 -0.023442419 0.023124706
0.41485411 -0.022453379 0.023118678
0.41488418 -0.021464342 0.023112651
0.41491425 -0.0204753 0.023106625
0.41494429 -0.019486263 0.023100598
0.41497436 -0.018497227 0.02309457
0.41500443 -0.017508186 0.023088545
0.4150345 -0.01651915 0.023082517
0.41506454 -0.015530109 0.02307649
0.41509461 -0.014541073 0.023070462
0.41512468 -0.013552036 0.023064436
0.41515473 -0.012562992 0.023058409
0.4151848 -0.011573955 0.023052381
0.41521487 -0.010584916 0.023046356
0.41524494 -0.0095958794 0.023040328
0.41527498 -0.0086068427 0.023034301
0.41530505 -0.0076178024 0.023028275
0.41445208 -0.0066736406 0.022520421
0.41448221 -0.0056830104 0.022514384
0.41451231 -0.0046923766 0.022508347
0.41454241 -0.0037017465 0.022502311
0.41457254 -0.0027111126 0.022496274
0.41460264 -0.0017204825 0.022490237
0.41463274 -0.0007298523 0.0224842
0.41466287 0.00026077783 0.022478163
0.41469297 0.001251408 0.022472126
0.41472307 0.0022420418 0.022466091
0.4147532 0.0032326719 0.022460055
0.4147833 0.004223302 0.022454018
0.4148134 0.005213934 0.022447981
0.41484353 0.0062045641 0.022441944
0.41487363 0.0071951943 0.022435907
0.41490373 0.0081858244 0.02242987
0.41493386 0.0091764582 0.022423834
0.41408175 0.01014929 0.021915805
0.41411191 0.011141512 0.021909758
0.41414207 0.012133737 0.021903712
0.41417223 0.013125961 0.021897666
0.41420239 0.014118182 0.02189162
0.41423255 0.015110406 0.021885574
0.41426271 0.016102633 0.021879528
0.41341102 0.017088203 0.021371415
0.41344121 0.018082019 0.021365359
0.41347143 0.019075835 0.021359302
0.41350165 0.020069651 0.021353247
0.41265017 0.021063188 0.020845093
0.41268042 0.022058597 0.020839026
0.4127107 0.023054006 0.02083296
0.41274095 0.024049414 0.020826895
0.4127712 0.025044825 0.020820828
0.41280144 0.026040232 0.020814763
0.41195029 0.027044917 0.020306509
0.41198057 0.028041918 0.020300433
0.41201088 0.029038921 0.020294357
0.41115996 0.030049974 0.019786095
0.4111903 0.03104857 0.01978001
0.41122067 0.032047164 0.019773925
0.41125101 0.033045758 0.019767839
0.41040033 0.034064777 0.019259529
0.41043073 0.035064962 0.019253435
0.41046113 0.03606515 0.01924734
0.41049153 0.037065335 0.019241245
0.41052192 0.038065523 0.019235151
0.40967152 0.039094098 0.018726781
0.40882117 0.040125858 0.018218363
0.40885168 0.041129228 0.018212248
0.40888217 0.042132601 0.018206133
0.41408613 -0.039388213 0.021952985
0.41411623 -0.03839758 0.021946948
0.41414636 -0.037406951 0.021940913
0.41417646 -0.036416322 0.021934876
0.41508999 -0.035334587 0.022431618
0.41423669 -0.034435052 0.021922803
0.41515011 -0.033356518 0.022419564
0.4142969 -0.032453794 0.021910729
0.41432703 -0.031463165 0.021904692
0.41435713 -0.030472534 0.021898655
0.41438723 -0.029481903 0.021892618
0.41441736 -0.028491274 0.021886582
0.4153305 -0.027422281 0.022383403
0.41536054 -0.026433246 0.022377376
0.41539061 -0.025444206 0.022371348
0.41542068 -0.024455169 0.022365322
0.41545075 -0.023466133 0.022359295
0.41548079 -0.022477092 0.022353267
0.41551086 -0.021488056 0.022347242
0.41554093 -0.020499012 0.022341214
0.41557097 -0.019509975 0.022335187
0.41471845 -0.018584961 0.021826217
0.41474855 -0.01759433 0.02182018
0.41477868 -0.016603701 0.021814143
0.41480878 -0.01561307 0.021808106
0.41483888 -0.01462244 0.02180207
0.41486901 -0.01363181 0.021796033
0.41489911 -0.012641172 0.021789996
0.41492924 -0.011650542 0.021783959
0.41495934 -0.010659912 0.021777922
0.41498944 -0.0096692815 0.021771887
0.41501957 -0.0086786514 0.02176585
0.41504967 -0.0076880213 0.021759814
0.41507977 -0.0066973912 0.021753777
0.4151099 -0.005706761 0.02174774
0.41514 -0.0047161272 0.021741703
0.4151701 -0.0037254971 0.021735666
0.41431841 -0.0027734053 0.021226531
0.41434854 -0.0017811852 0.021220485
0.4143787 -0.0007889613 0.021214439
0.41440886 0.00020326249 0.021208392
0.41443902 0.0011954863 0.021202344
0.41446918 0.00218771 0.021196298
0.41449934 0.0031799339 0.021190252
0.4145295 0.0041721575 0.021184206
0.41455966 0.0051643816 0.02117816
0.41458982 0.0061566052 0.021172114
0.41461998 0.0071488293 0.021166068
0.41465014 0.008141051 0.021160021
0.4146803 0.0091332765 0.021153975
0.41471046 0.0101255 0.021147929
0.41474062 0.011117723 0.021141881
0.41388968 0.012095296 0.020632591
0.4139199 0.013089112 0.020626534
0.41395012 0.014082927 0.020620478
0.41398031 0.015076743 0.020614423
0.41401052 0.01607056 0.020608366
0.41315988 0.017057687 0.020099018
0.41319013 0.018053096 0.020092951
0.41322038 0.019048505 0.020086886
0.41325063 0.020043913 0.02008082
0.4132809 0.021039322 0.020074753
0.41331115 0.022034731 0.020068688
0.41246077 0.023033008 0.019559238
0.41249108 0.024030007 0.019553164
0.41252139 0.025027011 0.019547088
0.4125517 0.026024012 0.019541012
0.41258201 0.027021013 0.019534936
0.41261232 0.028018015 0.019528862
0.41176233 0.02902744 0.019019376
0.4117927 0.030026034 0.019013291
0.41182303 0.031024627 0.019007206
0.4118534 0.032023221 0.019001121
0.41188374 0.033021815 0.018995035
0.41191411 0.034020409 0.01898895
0.41106448 0.035040982 0.018479398
0.41109487 0.03604117 0.018473303
0.41112527 0.037041355 0.018467207
0.41115567 0.038041543 0.018461112
0.40942645 0.03909843 0.017447971
0.40945694 0.0401018 0.017441858
0.40948743 0.041105174 0.017435743
0.4086383 0.042141672 0.016926093
0.4147138 -0.039411962 0.021186354
0.41474393 -0.038421333 0.021180317
0.41477403 -0.037430704 0.02117428
0.41480416 -0.036440071 0.021168243
0.41483426 -0.035449434 0.021162206
0.41486436 -0.034458805 0.021156169
0.41489449 -0.033468176 0.021150133
0.41492459 -0.032477543 0.021144096
0.41495469 -0.031486914 0.021138061
0.41498482 -0.030496284 0.021132024
0.41501492 -0.029505653 0.021125987
0.41504502 -0.028515024 0.02111995
0.41507515 -0.027524393 0.021113914
0.41510525 -0.026533764 0.021107877
0.41513535 -0.025543129 0.02110184
0.41516548 -0.0245525 0.021095803
0.41519558 -0.023561869 0.021089766
0.41522568 -0.02257124 0.021083731
0.41525581 -0.021580609 0.021077694
0.41528592 -0.020589972 0.021071658
0.41531602 -0.019599341 0.021065621
0.41534615 -0.018608712 0.021059584
0.41537625 -0.017618081 0.021053547
0.41540635 -0.016627451 0.02104751
0.41543648 -0.01563682 0.021041473
0.41546658 -0.01464619 0.021035437
0.41461533 -0.013711659 0.020525174
0.41464549 -0.012719432 0.020519128
0.41467565 -0.011727208 0.020513082
0.41470581 -0.010734984 0.020507036
0.41473597 -0.0097427601 0.02050099
0.41476613 -0.0087505402 0.020494943
0.41479629 -0.0077583166 0.020488897
0.41482645 -0.0067660925 0.020482851
0.41485661 -0.0057738689 0.020476803
0.41488677 -0.0047816415 0.020470757
0.41491693 -0.0037894174 0.020464711
0.41494709 -0.0027971938 0.020458665
0.41497725 -0.0018049737 0.020452619
0.41412669 -0.00084814266 0.01994222
0.41415691 0.00014567107 0.019936165
0.4141871 0.0011394885 0.019930108
0.41421732 0.0021333059 0.019924052
0.41424751 0.0031271197 0.019917997
0.41427773 0.0041209371 0.019911939
0.41430795 0.0051147547 0.019905884
0.41433814 0.0061085704 0.019899828
0.41436836 0.0071023856 0.019893773
0.41439855 0.0080962013 0.019887716
0.41442877 0.0090900185 0.01988166
0.41445896 0.010083835 0.019875605
0.41448918 0.01107765 0.019869547
0.41363931 0.012056779 0.019359013
0.41366956 0.013052187 0.019352948
0.41369981 0.014047594 0.019346882
0.41373006 0.015043003 0.019340817
0.41376033 0.016038414 0.01933475
0.41379058 0.017033821 0.019328685
0.41294098 0.018024094 0.018818051
0.41297129 0.019021098 0.018811975
0.4130016 0.020018099 0.018805901
0.41303191 0.0210151 0.018799825
0.41306221 0.022012101 0.018793749
0.41309252 0.023009105 0.018787673
0.4131228 0.024006106 0.018781599
0.41315311 0.025003107 0.018775523
0.41318342 0.026000109 0.018769447
0.41233435 0.027006309 0.018258754
0.41236472 0.028004903 0.018252669
0.41239506 0.029003497 0.018246584
0.41242543 0.030002091 0.018240498
0.41245577 0.031000687 0.018234413
0.41248614 0.031999283 0.018228328
0.41251647 0.032997876 0.018222243
0.41254684 0.03399647 0.018216157
0.41169822 0.035017002 0.017705372
0.41172862 0.036017191 0.017699275
0.41175902 0.037017379 0.017693181
0.41091058 0.038044281 0.017182356
0.41094103 0.03904606 0.017176252
0.41009271 0.040077746 0.016665364
0.4101232 0.041081119 0.01665925
0.41015369 0.042084489 0.016653135
0.40666986 0.043226585 0.014627906
0.41537163 -0.038445082 0.020413673
0.41452023 -0.03754881 0.01990241
0.41543183 -0.036463823 0.020401599
0.41458055 -0.035564363 0.019890318
0.41549206 -0.034482554 0.020389527
0.41552216 -0.033491924 0.02038349
0.41467103 -0.032587692 0.019872177
0.41470119 -0.031595469 0.019866131
0.41473135 -0.030603245 0.019860085
0.41476151 -0.029611029 0.019854039
0.41479167 -0.028618798 0.019847993
0.41482183 -0.027626574 0.019841947
0.41485199 -0.02663435 0.019835901
0.41488215 -0.025642131 0.019829854
0.41491228 -0.024649907 0.019823808
0.41494244 -0.023657683 0.01981776
0.4149726 -0.022665458 0.019811714
0.41500276 -0.021673234 0.019805668
0.41503292 -0.020681007 0.019799622
0.41506308 -0.019688787 0.019793576
0.41509324 -0.018696563 0.019787529
0.4151234 -0.01770434 0.019781483
0.41515356 -0.016712116 0.019775437
0.41518372 -0.015719892 0.019769391
0.41521388 -0.014727672 0.019763345
0.41524404 -0.013735448 0.019757297
0.4152742 -0.012743221 0.019751251
0.41530436 -0.011750997 0.019745205
0.41445434 -0.010810133 0.019233676
0.41448453 -0.009816316 0.01922762
0.41451475 -0.0088225016 0.019221565
0.41454494 -0.0078286845 0.019215507
0.41457516 -0.0068348707 0.019209452
0.41460538 -0.0058410531 0.019203397
0.41463557 -0.0048472355 0.019197339
0.41466579 -0.0038534182 0.019191284
0.41469598 -0.0028596008 0.019185228
0.4147262 -0.0018657871 0.019179171
0.41387668 -0.00090740435 0.01866753
0.41390696 8.8003071e-05 0.018661465
0.41393721 0.0010834142 0.018655399
0.41396746 0.0020788216 0.018649332
0.41399771 0.0030742327 0.018643267
0.41402796 0.0040696403 0.018637201
0.41405824 0.0050650514 0.018631136
0.41408849 0.0060604587 0.018625069
0.41411874 0.0070558661 0.018619005
0.41414899 0.0080512753 0.018612938
0.41417927 0.0090466868 0.018606873
0.41420951 0.010042094 0.018600807
0.41423976 0.011037503 0.018594742
0.41427001 0.012032914 0.018588675
0.41430026 0.013028322 0.01858261
0.41345149 0.014012186 0.018070782
0.4134818 0.015009186 0.018064706
0.41351211 0.01600619 0.01805863
0.41354242 0.01700319 0.018052556
0.41357273 0.018000191 0.01804648
0.41360301 0.018997194 0.018040404
0.41363332 0.019994196 0.018034328
0.41278499 0.020990802 0.01752246
0.41281533 0.021989396 0.017516375
0.4128457 0.02298799 0.017510289
0.41287604 0.023986584 0.017504204
0.41290638 0.024985179 0.017498119
0.41293675 0.025983773 0.017492034
0.41296709 0.026982367 0.017485948
0.41299745 0.027980961 0.017479863
0.41302779 0.028979557 0.017473778
0.41305816 0.029978151 0.017467692
0.4130885 0.030976744 0.017461609
0.41311887 0.03197534 0.017455524
0.41227114 0.03299265 0.016943522
0.41230154 0.033992838 0.016937427
0.41233197 0.034993023 0.016931333
0.41236237 0.035993211 0.016925238
0.41151488 0.037018485 0.016413189
0.41154534 0.038020264 0.016407084
0.41069797 0.039050318 0.015894979
0.41072845 0.040053688 0.015888866
0.40988129 0.041088518 0.015376759
0.40991184 0.042093486 0.015370634
0.40730965 0.043202378 0.013846473
0.40207505 0.044429537 0.010804135
0.41514891 -0.0375726 0.019134544
0.41517907 -0.036580376 0.019128498
0.41520923 -0.035588153 0.019122452
0.41523939 -0.034595929 0.019116405
0.41526955 -0.033603705 0.019110359
0.41529971 -0.032611482 0.019104313
0.41532987 -0.031619258 0.019098267
0.41536003 -0.030627035 0.019092221
0.41539019 -0.029634818 0.019086173
0.41542035 -0.028642586 0.019080127
0.41457051 -0.027728839 0.018567525
0.41460073 -0.026735021 0.018561468
0.41463092 -0.025741203 0.018555412
0.41466114 -0.02474739 0.018549357
0.41469133 -0.023753572 0.018543299
0.41472155 -0.022759758 0.018537244
0.41475177 -0.021765942 0.018531188
0.41478196 -0.02077212 0.018525131
0.41481218 -0.019778306 0.018519076
0.41484237 -0.018784488 0.01851302
0.41487259 -0.017790675 0.018506965
0.41490281 -0.016796857 0.018500907
0.414933 -0.015803043 0.018494852
0.41496322 -0.014809226 0.018488796
0.41499341 -0.013815412 0.018482739
0.41502362 -0.012821591 0.018476684
0.41417459 -0.011880766 0.017963922
0.41420484 -0.010885358 0.017957855
0.41423512 -0.009889951 0.01795179
0.41426536 -0.0088945394 0.017945724
0.41429561 -0.0078991326 0.017939659
0.41432586 -0.0069037247 0.017933592
0.41435614 -0.0059083137 0.017927527
0.41438639 -0.0049129026 0.017921461
0.41441664 -0.0039174953 0.017915396
0.41444689 -0.0029220879 0.017909329
0.41447714 -0.0019266767 0.017903265
0.41450742 -0.00093126926 0.017897198
0.41453767 6.4138119e-05 0.017891133
0.41456792 0.0010595493 0.017885067
0.41459817 0.0020549567 0.017879002
0.41462845 0.0030503678 0.017872935
0.41378018 0.0040182644 0.01735997
0.41381049 0.0050152675 0.017353894
0.4138408 0.0060122684 0.01734782
0.41387108 0.0070092692 0.017341744
0.41390139 0.00800627 0.017335668
0.4139317 0.0090032751 0.017329592
0.41396201 0.010000276 0.017323518
0.41399232 0.010997278 0.017317442
0.41402262 0.01199428 0.017311366
0.41405293 0.012991281 0.01730529
0.41408321 0.013988283 0.017299216
0.41411352 0.014985284 0.01729314
0.41326594 0.01597389 0.016780086
0.41329631 0.016972484 0.016774002
0.41332665 0.017971078 0.016767917
0.41335702 0.018969674 0.016761832
0.41338736 0.019968266 0.016755747
0.41341773 0.020966861 0.016749661
0.41344807 0.021965455 0.016743576
0.41347843 0.022964049 0.016737491
0.41350877 0.023962643 0.016731406
0.41353911 0.024961239 0.01672532
0.4126921 0.025967361 0.016212154
0.4127225 0.026967548 0.01620606
0.4127529 0.027967736 0.016199965
0.41278329 0.028967923 0.01619387
0.41281369 0.029968109 0.016187776
0.41284409 0.030968295 0.016181679
0.41287449 0.031968482 0.016175585
0.41290489 0.03296867 0.01616949
0.41293529 0.033968858 0.016163396
0.41296569 0.034969043 0.016157301
0.41211918 0.035992686 0.015644034
0.41214964 0.036994468 0.015637929
0.41130322 0.038022891 0.015124596
0.41133371 0.03902626 0.015118482
0.4104875 0.040059462 0.014605156
0.41051805 0.041064426 0.014599032
0.4105486 0.04206939 0.014592908
0.40794945 0.043178171 0.013065053
0.4027209 0.044405099 0.010015314
0.41407916 -0.035794444 0.017339161
0.41410944 -0.034799036 0.017333096
0.41413969 -0.033803631 0.017327029
0.4150492 -0.032721747 0.017828699
0.41507939 -0.031727929 0.017822644
0.4151096 -0.030734118 0.017816588
0.41426072 -0.029821994 0.017302766
0.41429096 -0.028826583 0.017296702
0.41432121 -0.027831171 0.017290635
0.41435146 -0.026835768 0.01728457
0.41438174 -0.025840357 0.017278504
0.41441199 -0.02484495 0.017272439
0.41444224 -0.023849541 0.017266372
0.41447249 -0.022854131 0.017260307
0.41450274 -0.021858724 0.017254241
0.41453302 -0.020863308 0.017248176
0.41456327 -0.019867901 0.017242109
0.41459352 -0.018872494 0.017236043
0.41462377 -0.017877087 0.017229978
0.41465405 -0.016881678 0.017223911
0.4146843 -0.015886268 0.017217847
0.41471455 -0.01489086 0.01721178
0.41474479 -0.013895453 0.017205715
0.41477504 -0.012900038 0.017199649
0.41480532 -0.011904631 0.017193584
0.41483557 -0.010909223 0.017187517
0.41486582 -0.0099138161 0.017181452
0.41401795 -0.0089666601 0.016667379
0.41404825 -0.0079696588 0.016661305
0.41407856 -0.006972658 0.016655229
0.41410887 -0.0059756571 0.016649153
0.41413918 -0.0049786521 0.016643077
0.41416946 -0.0039816513 0.016637003
0.41419977 -0.00298465 0.016630927
0.41423008 -0.0019876489 0.016624851
0.41426039 -0.00099064794 0.016618777
0.4142907 6.3531179e-06 0.016612701
0.41432101 0.0010033579 0.016606625
0.41435131 0.0020003589 0.016600549
0.41438159 0.00299736 0.016594475
0.4144119 0.003994361 0.016588399
0.41444221 0.0049913642 0.016582323
0.41447252 0.005988365 0.016576247
0.41450283 0.0069853659 0.016570173
0.41453314 0.0079823667 0.016564097
0.41456342 0.0089793717 0.016558021
0.41371658 0.0099583827 0.016043793
0.41374692 0.010956976 0.016037708
0.41377729 0.011955572 0.016031623
0.41380763 0.012954165 0.016025538
0.413838 0.01395276 0.016019452
0.41386834 0.014951353 0.016013367
0.41389868 0.01594995 0.016007282
0.41392905 0.016948542 0.016001197
0.41395938 0.017947137 0.015995111
0.41311303 0.018942075 0.015480781
0.41314343 0.019942259 0.015474685
0.41317382 0.020942448 0.015468591
0.41320422 0.021942634 0.015462496
0.41323462 0.022942822 0.015456401
0.41326502 0.023943009 0.015450306
0.41329545 0.024943195 0.015444212
0.41332585 0.025943382 0.015438116
0.41335624 0.026943568 0.015432022
0.41338664 0.027943755 0.015425927
0.41341704 0.028943943 0.015419831
0.41344744 0.029944129 0.015413737
0.41347784 0.030944316 0.015407642
0.41350824 0.031944502 0.015401548
0.4126626 0.032963332 0.014887076
0.41269305 0.033965111 0.014880972
0.41272348 0.03496689 0.014874867
0.41275394 0.035968669 0.014868762
0.41190848 0.036995459 0.014354211
0.411939 0.037998833 0.014348096
0.41196948 0.039002206 0.014341982
0.41112429 0.040035367 0.013827418
0.41115484 0.041040331 0.013821295
0.41030976 0.042078272 0.013306707
0.40771362 0.043188527 0.01177511
0.40424228 0.044344503 0.009734977
0.3981449 0.045626473 0.0061692717
0.38157529 0.048461996 -0.0035051713
0.38735288 -0.042827457 0.00081687781
0.40853056 -0.037463907 0.013012309
0.41207471 -0.036092184 0.015041972
0.41210511 -0.035092 0.015035877
0.41389206 -0.033915602 0.016047701
0.41480064 -0.032832086 0.016550627
0.41483092 -0.031836674 0.01654456
0.41486117 -0.03084127 0.016538495
0.41489142 -0.029845858 0.016532429
0.41492167 -0.028850447 0.016526364
0.41495195 -0.027855037 0.016520297
0.4149822 -0.026859634 0.016514232
0.4141345 -0.025939589 0.015999097
0.41416481 -0.024942588 0.015993021
0.41419512 -0.023945587 0.015986945
0.41422543 -0.022948585 0.015980871
0.41425571 -0.021951584 0.015974795
0.41428602 -0.020954579 0.015968719
0.41431633 -0.019957578 0.015962644
0.41434664 -0.018960578 0.015956569
0.41437694 -0.017963577 0.015950494
0.41440725 -0.016966576 0.015944418
0.41443756 -0.015969574 0.015938342
0.41446784 -0.014972573 0.015932268
0.41449815 -0.013975572 0.015926192
0.41452846 -0.012978568 0.015920116
0.41455877 -0.011981566 0.015914042
0.41458908 -0.010984565 0.015907966
0.41461939 -0.0099875648 0.01590189
0.41464967 -0.0089905635 0.015895814
0.41467997 -0.0079935621 0.01588974
0.41471028 -0.0069965613 0.015883664
0.41474059 -0.00599956 0.015877588
0.41389403 -0.0050444715 0.015362272
0.41392437 -0.0040458771 0.015356187
0.41395473 -0.0030472861 0.015350102
0.41398507 -0.0020486913 0.015344016
0.41401544 -0.0010500966 0.015337931
0.41404578 -5.1501844e-05 0.015331846
0.41407612 0.00094709289 0.01532576
0.41410649 0.0019456876 0.015319675
0.41413683 0.0029442785 0.015313591
0.4141672 0.0039428733 0.015307506
0.41419753 0.00494147 0.01530142
0.4142279 0.0059400629 0.015295335
0.41425824 0.0069386573 0.01528925
0.41428861 0.0079372507 0.015283165
0.41431895 0.0089358473 0.015277079
0.41434932 0.0099344412 0.015270994
0.41437966 0.010933034 0.015264909
0.41441002 0.011931631 0.015258824
0.41444036 0.012930224 0.015252739
0.41359475 0.013917159 0.014737229
0.41362515 0.014917346 0.014731133
0.41365555 0.015917534 0.014725039
0.41368598 0.01691772 0.014718944
0.41371638 0.017917907 0.014712849
0.41374677 0.018918095 0.014706754
0.41377717 0.01991828 0.01470066
0.41380757 0.020918468 0.014694564
0.41383797 0.021918654 0.014688469
0.41386837 0.022918843 0.014682375
0.41389877 0.023919029 0.01467628
0.41305375 0.024925077 0.014160647
0.41308421 0.025926856 0.014154543
0.41311467 0.026928635 0.014148438
0.4131451 0.027930414 0.014142334
0.41317555 0.028932195 0.014136229
0.41320601 0.029933974 0.014130125
0.41323644 0.030935753 0.01412402
0.4132669 0.031937532 0.014117915
0.41329736 0.032939311 0.01411181
0.41245276 0.033961289 0.013596055
0.41248325 0.034964662 0.013589941
0.41251376 0.035968032 0.013583827
0.41254425 0.036971405 0.013577712
0.41257474 0.037974779 0.013571598
0.4117305 0.039006308 0.013055816
0.41176105 0.040011272 0.013049692
0.41091695 0.041047581 0.012533881
0.41094753 0.042054139 0.012527747
0.40835443 0.043164283 0.010992456
0.40488711 0.044320103 0.0089473901
0.39967126 0.045564093 0.0058827889
0.3866182 0.048232105 -0.0017760367
0.40922955 -0.035474923 0.01222107
0.411892 -0.034203932 0.013745552
0.41367689 -0.033029057 0.014759852
0.4145844 -0.031945501 0.015263978
0.41461471 -0.030948505 0.015257903
0.41464502 -0.0299515 0.015251827
0.41467533 -0.028954495 0.015245752
0.41470563 -0.027957497 0.015239676
0.41473594 -0.026960492 0.015233601
0.41476622 -0.025963493 0.015227525
0.41479653 -0.024966491 0.01522145
0.41482684 -0.02396949 0.015215375
0.41398039 -0.023043115 0.014699
0.41401076 -0.022044519 0.014692915
0.4140411 -0.021045921 0.014686829
0.41407147 -0.020047326 0.014680744
0.41410181 -0.019048735 0.01467466
0.41413218 -0.018050142 0.014668575
0.41416252 -0.017051546 0.014662489
0.41419289 -0.016052952 0.014656404
0.41422322 -0.01505436 0.014650319
0.41425359 -0.014055765 0.014644234
0.41428393 -0.013057168 0.014638148
0.4143143 -0.012058573 0.014632063
0.41434464 -0.011059982 0.014625978
0.41437501 -0.010061387 0.014619893
0.41440535 -0.0090627922 0.014613808
0.41443568 -0.0080641974 0.014607723
0.41446605 -0.0070656063 0.014601638
0.41449639 -0.0060670115 0.014595552
0.41452676 -0.0050684134 0.014589467
0.4145571 -0.0040698186 0.014583382
0.41458747 -0.0030712276 0.014577297
0.41461781 -0.0020726328 0.014571211
0.41464818 -0.0010740381 0.014565127
0.41467851 -7.5443393e-05 0.014559042
0.41383329 0.00089075125 0.014042424
0.41386369 0.0018909359 0.014036329
0.41389409 0.0028911242 0.014030234
0.41392449 0.003891309 0.014024139
0.41395491 0.0048914989 0.014018045
0.41398531 0.005891684 0.014011949
0.41401571 0.0068918704 0.014005855
0.41404611 0.0078920564 0.01399976
0.41407651 0.0088922456 0.013993665
0.41410691 0.009892432 0.01398757
0.4141373 0.010892618 0.013981475
0.4141677 0.011892807 0.01397538
0.4141981 0.012892993 0.013969285
0.4142285 0.01389318 0.013963191
0.4142589 0.014893366 0.013957096
0.41428933 0.015893554 0.013951001
0.41431972 0.016893741 0.013944906
0.41435012 0.017893927 0.013938812
0.41350582 0.018890381 0.01342201
0.41353625 0.019892162 0.013415905
0.41356671 0.020893941 0.0134098
0.41359717 0.02189572 0.013403696
0.41362759 0.022897501 0.013397591
0.41365805 0.02389928 0.013391486
0.41281405 0.024906883 0.012874585
0.41284454 0.025910253 0.012868471
0.41287503 0.026913626 0.012862356
0.41290554 0.027916998 0.012856242
0.41293603 0.028920371 0.012850127
0.41296652 0.029923743 0.012844013
0.41299704 0.030927116 0.012837899
0.41302752 0.031930488 0.012831785
0.41305801 0.032933861 0.012825671
0.41308853 0.033937231 0.012819557
0.41311902 0.034940604 0.012813442
0.41314951 0.035943978 0.012807327
0.41230619 0.036972284 0.012290326
0.41233674 0.037977248 0.012284202
0.41236728 0.038982213 0.012278078
0.41152415 0.04001689 0.011761043
0.41155472 0.041023448 0.01175491
0.41158533 0.042030007 0.011748776
0.40899524 0.043140035 0.01020979
0.40640551 0.044259619 0.0086707734
0.40119562 0.045501787 0.0055987556
0.39511296 0.046802334 0.0020156845
0.38556954 0.049342964 -0.0036179319
0.4081454 -0.034668863 0.010413119
0.41080472 -0.033399355 0.011941273
0.41258764 -0.032224391 0.012958071
0.41437033 -0.03105581 0.013974877
0.41440067 -0.03005722 0.013968792
0.41443104 -0.02905862 0.013962707
0.41446137 -0.028060023 0.013956621
0.41449174 -0.027061431 0.013950536
0.41452208 -0.026062837 0.013944451
0.41455245 -0.025064241 0.013938366
0.41458279 -0.024065651 0.01393228
0.41461316 -0.023067055 0.013926196
0.4146435 -0.022068461 0.013920111
0.41467386 -0.021069862 0.013914025
0.4147042 -0.020071268 0.01390794
0.41473454 -0.019072678 0.013901855
0.41476491 -0.018074082 0.01389577
0.41391984 -0.017136592 0.013378094
0.41395023 -0.016136408 0.013371998
0.41398063 -0.01513622 0.013365904
0.41401103 -0.014136036 0.013359809
0.41404143 -0.013135843 0.013353714
0.41407183 -0.012135658 0.013347619
0.41410223 -0.01113547 0.013341525
0.41413262 -0.010135286 0.013335429
0.41416302 -0.009135101 0.013329335
0.41419342 -0.0081349127 0.01332324
0.41422382 -0.0071347281 0.013317144
0.41425425 -0.0061345398 0.01331105
0.41428465 -0.0051343474 0.013304955
0.41431504 -0.0041341628 0.013298861
0.41434544 -0.0031339782 0.013292765
0.41437584 -0.0021337899 0.013286671
0.41440624 -0.0011336053 0.013280576
0.41443664 -0.00013341688 0.013274481
0.41446704 0.0008667715 0.013268386
0.41449744 0.0018669561 0.013262291
0.41452783 0.0028671445 0.013256196
0.41455823 0.0038673291 0.013250101
0.41458866 0.0048675193 0.013244007
0.41461906 0.0058677038 0.013237911
0.41464946 0.0068678907 0.013231817
0.41467986 0.0078680767 0.013225722
0.41471025 0.0088682659 0.013219627
0.41474065 0.0098684523 0.013213532
0.41477105 0.010868639 0.013207437
0.41480145 0.011868827 0.013201343
0.41483185 0.012869013 0.013195247
0.41398832 0.013857466 0.012677261
0.41401878 0.014859244 0.012671157
0.41404921 0.015861027 0.012665052
0.41407967 0.016862804 0.012658947
0.41411012 0.017864583 0.012652842
0.41326681 0.018862592 0.012134766
0.41329733 0.019865964 0.012128651
0.41332781 0.020869337 0.012122537
0.4133583 0.021872709 0.012116423
0.41338882 0.022876082 0.012110309
0.41341931 0.023879454 0.012104195
0.41344979 0.024882827 0.01209808
0.41348031 0.025886197 0.012091966
0.4135108 0.02688957 0.012085851
0.41354129 0.027892942 0.012079737
0.4135718 0.028896315 0.012073623
0.41360229 0.029899687 0.012067509
0.41363281 0.030903058 0.012061395
0.4136633 0.03190643 0.012055281
0.41369379 0.032909803 0.012049166
0.41285133 0.033933293 0.011530966
0.41288188 0.034938261 0.011524842
0.4129124 0.035943225 0.011518718
0.41294295 0.036948189 0.011512594
0.41210073 0.037979644 0.010994345
0.41213134 0.038986199 0.010988211
0.41216192 0.039992757 0.010982078
0.41131988 0.041030582 0.01046379
0.41135052 0.042038731 0.010457647
0.40876353 0.043150239 0.0089149522
0.40617681 0.044271305 0.0073721986
0.40184551 0.045477197 0.0048050019
0.3975147 0.046699017 0.0022377023
0.39231202 0.047977589 -0.00084190059
0.38798222 0.049232855 -0.0034093983
0.40794063 -0.033769958 0.0091128387
0.41059688 -0.032503515 0.010644743
0.41237769 -0.031330079 0.011663986
0.41328329 -0.030244853 0.012170597
0.41418874 -0.029162815 0.0126772
0.41421914 -0.02816263 0.012671105
0.41424957 -0.027162446 0.01266501
0.41427997 -0.026162257 0.012658915
0.41431037 -0.025162069 0.01265282
0.41434076 -0.024161885 0.012646725
0.41437116 -0.023161696 0.012640631
0.41440156 -0.022161512 0.012634535
0.41443196 -0.02116132 0.012628441
0.41446236 -0.020161133 0.012622346
0.41449276 -0.019160945 0.012616252
0.41452315 -0.01816076 0.012610156
0.41455355 -0.017160572 0.012604062
0.41458398 -0.016160388 0.012597967
0.41461438 -0.015160199 0.012591871
0.41464478 -0.014160015 0.012585777
0.41467518 -0.013159823 0.012579682
0.41470557 -0.012159638 0.012573587
0.41473597 -0.01115945 0.012567492
0.41476637 -0.010159265 0.012561398
0.41479677 -0.0091590807 0.012555302
0.41482717 -0.0081588924 0.012549208
0.41398364 -0.0072039259 0.012030192
0.41401407 -0.0062021441 0.012024087
0.41404453 -0.0052003618 0.012017982
0.41407499 -0.0041985838 0.012011878
0.41410545 -0.0031968052 0.012005773
0.41413587 -0.0021950232 0.011999669
0.41416633 -0.0011932449 0.011993564
0.41419679 -0.00019146661 0.01198746
0.41422722 0.00081031543 0.011981355
0.41425768 0.0018120938 0.01197525
0.41428813 0.0028138719 0.011969145
0.41431859 0.0038156502 0.011963041
0.41434902 0.0048174323 0.011956937
0.41437948 0.0058192108 0.011950832
0.41440994 0.0068209907 0.011944728
0.41444036 0.0078227688 0.011938623
0.41447082 0.0088245515 0.011932518
0.41450128 0.0098263295 0.011926414
0.41453174 0.010828108 0.01192031
0.41456217 0.011829889 0.011914205
0.41459262 0.012831668 0.0119081
0.41462308 0.013833448 0.011901995
0.4137806 0.014825046 0.01138273
0.41381109 0.015828419 0.011376616
0.41384158 0.016831791 0.011370501
0.41387209 0.017835164 0.011364387
0.41390258 0.018838536 0.011358273
0.41393307 0.019841908 0.011352158
0.41396359 0.020845281 0.011346044
0.41399407 0.021848653 0.01133993
0.41402456 0.022852026 0.011333816
0.41405508 0.023855397 0.011327702
0.41408557 0.024858771 0.011321587
0.41324371 0.025869481 0.010802232
0.41327426 0.026874445 0.010796107
0.41330481 0.027879411 0.010789983
0.41333535 0.028884375 0.01078386
0.4133659 0.029889341 0.010777735
0.41339645 0.030894306 0.010771612
0.413427 0.03189927 0.010765487
0.41345754 0.032904234 0.010759364
0.41348809 0.033909202 0.01075324
0.41351864 0.034914166 0.010747115
0.41354918 0.03591913 0.010740992
0.41270792 0.036948953 0.01022152
0.4127385 0.037955511 0.010215386
0.41276911 0.038962066 0.010209252
0.41192803 0.039998259 0.0096897408
0.41195866 0.041006412 0.0096835978
0.4119893 0.042014562 0.0096774539
0.40940535 0.043125954 0.0081310589
0.40769318 0.044210896 0.007098054
0.40423831 0.045377407 0.005038132
0.39991245 0.046595849 0.0024646912
0.39558706 0.047830224 -0.00010884114
0.39126217 0.049080521 -0.0026824763
0.40773803 -0.032867942 0.0078101042
0.41039115 -0.031604577 0.0093457233
0.41129586 -0.030514538 0.0098535111
0.41220045 -0.029427681 0.010361313
0.41397893 -0.028265307 0.011383122
0.41400939 -0.027263528 0.011377017
0.41403985 -0.026261751 0.011370913
0.41407031 -0.025259972 0.011364808
0.41410074 -0.024258194 0.011358703
0.41413119 -0.023256416 0.0113526
0.41416165 -0.022254637 0.011346495
0.41419208 -0.021252852 0.01134039
0.41422254 -0.020251073 0.011334285
0.414253 -0.019249294 0.011328181
0.41428345 -0.018247517 0.011322076
0.41431388 -0.017245738 0.011315972
0.41434434 -0.016243955 0.011309867
0.4143748 -0.015242178 0.011303763
0.41440523 -0.014240399 0.011297658
0.41443568 -0.013238617 0.011291553
0.41446614 -0.012236835 0.011285448
0.4144966 -0.011235057 0.011279345
0.41452703 -0.010233278 0.01127324
0.41455749 -0.0092315003 0.011267135
0.41458794 -0.0082297223 0.011261031
0.41461837 -0.0072279437 0.011254926
0.41377589 -0.0062698307 0.010734625
0.41380641 -0.0052664513 0.010728511
0.4138369 -0.004263083 0.010722397
0.41386738 -0.003259711 0.010716283
0.4138979 -0.002256339 0.010710168
0.41392839 -0.001252967 0.010704054
0.41395888 -0.00024959512 0.010697939
0.41398939 0.00075378054 0.010691825
0.41401988 0.0017571525 0.010685711
0.41405037 0.0027605244 0.010679597
0.41408089 0.0037638927 0.010673483
0.41411138 0.0047672684 0.010667368
0.41414186 0.0057706404 0.010661254
0.41417238 0.0067740125 0.01065514
0.41420287 0.0077773845 0.010649025
0.41423336 0.0087807579 0.010642911
0.41426387 0.0097841304 0.010636797
0.41429436 0.0107875 0.010630682
0.41432485 0.011790876 0.010624568
0.41435537 0.012794246 0.010618454
0.41438586 0.013797618 0.01061234
0.41441634 0.01480099 0.010606226
0.41444686 0.015804363 0.010600111
0.41447735 0.016807735 0.010593997
0.41450784 0.017811108 0.010587882
0.41453835 0.01881448 0.010581768
0.41369721 0.019815598 0.010061237
0.41372776 0.020820562 0.010055114
0.41375831 0.021825526 0.010048989
0.41378886 0.022830492 0.010042866
0.4138194 0.023835456 0.010036741
0.41384995 0.024840422 0.010030618
0.4138805 0.025845386 0.010024494
0.41391104 0.026850352 0.010018369
0.41394159 0.027855316 0.010012246
0.41397214 0.02886028 0.010006121
0.41400269 0.029865246 0.0099999979
0.41403323 0.03087021 0.0099938735
0.41406378 0.031875174 0.0099877501
0.41409433 0.032880142 0.0099816257
0.4132539 0.033905149 0.0094609549
0.41328451 0.034911707 0.0094548212
0.41331509 0.035918262 0.0094486875
0.41334569 0.03692482 0.0094425539
0.41250554 0.037957791 0.0089218291
0.41253617 0.03896594 0.0089156851
0.41256681 0.03997409 0.0089095421
0.41259748 0.040982239 0.0089033991
0.41175756 0.042023174 0.0083826249
0.41091767 0.043067295 0.0078618005
0.40920746 0.044150565 0.0068263439
0.406627 0.045277771 0.0052761519
0.40230608 0.046492837 0.0026965754
0.39885598 0.04768309 0.00063157466
0.39540625 0.048886076 -0.0014335037
0.3910867 0.050145742 -0.0040133577
0.40666446 -0.032046333 0.0059897345
0.40931445 -0.030784452 0.007529031
0.41109124 -0.029612441 0.0085532432
0.41286775 -0.028446808 0.0095774624
0.4128983 -0.027441842 0.0095713381
0.4138017 -0.026361329 0.010080418
0.41383219 -0.025357958 0.010074303
0.41386271 -0.024354586 0.010068189
0.41389319 -0.023351213 0.010062075
0.41392368 -0.022347841 0.01005596
0.4139542 -0.021344466 0.010049846
