# .PCD v0.7 - Point Cloud Data file format
VERSION 0.7
FIELDS x y z
SIZE 4 4 4
TYPE F F F
COUNT 1 1 1
WIDTH 1350
HEIGHT 1
VIEWPOINT 0 0 0 1 0 0 0
POINTS 1350
DATA ascii
0.55067211 -0.028268587 0.032363355
0.55150664 -0.027360843 0.032951184
0.55234104 -0.026456295 0.033538997
0.55236566 -0.025647227 0.033534069
0.55319989 -0.024747459 0.034121908
0.55322444 -0.023939984 0.034116991
0.553249 -0.023132509 0.03411207
0.55408305 -0.02223911 0.03469995
0.55410755 -0.021433227 0.03469504
0.55413204 -0.020627338 0.034690131
0.55415654 -0.019821458 0.034685217
0.55418104 -0.019015577 0.034680307
0.55420554 -0.018209692 0.034675397
0.55423003 -0.017403811 0.034670487
0.55425453 -0.01659793 0.034665573
0.55427903 -0.015792044 0.034660663
0.55430347 -0.014986163 0.034655754
0.55432796 -0.014180275 0.034650844
0.55435246 -0.013374394 0.03464593
0.55437696 -0.012568512 0.03464102
0.55440146 -0.011762627 0.03463611
0.55442595 -0.010956747 0.0346312
0.55445045 -0.010150862 0.034626286
0.55447495 -0.0093449801 0.034621377
0.55449945 -0.0085390992 0.034616467
0.55452394 -0.0077332105 0.034611557
0.55454844 -0.0069273296 0.034606643
0.55457294 -0.0061214445 0.034601733
0.55459744 -0.0053155632 0.034596823
0.55462193 -0.0045096823 0.034591913
0.55464643 -0.0037037972 0.034587
0.55467093 -0.0028979161 0.03458209
0.55469543 -0.0020920313 0.03457718
0.55471992 -0.0012861463 0.03457227
0.55474442 -0.00048026515 0.03456736
0.55476892 0.00032561974 0.034562446
0.55479342 0.0011315028 0.034557536
0.55481791 0.0019373839 0.034552626
0.55403435 0.0027067149 0.033954613
0.55405891 0.0035141935 0.033949692
0.55408347 0.0043216683 0.033944771
0.55410802 0.0051291431 0.03393985
0.55413258 0.005936618 0.033934928
0.55415708 0.0067440965 0.033930007
0.55418164 0.0075515714 0.03392509
0.55420619 0.0083590457 0.033920169
0.55423075 0.009166521 0.033915248
0.55425525 0.0099739991 0.033910327
0.5542798 0.010781474 0.033905406
0.55430436 0.011588949 0.033900484
0.55432892 0.012396426 0.033895567
0.55435342 0.013203902 0.033890646
0.55437797 0.014011377 0.033885725
0.55359524 0.014806191 0.033287555
0.55361986 0.01561526 0.033282626
0.55364442 0.016424328 0.033277694
0.55366904 0.017233396 0.033272766
0.55369359 0.018042466 0.033267833
0.55371821 0.018851532 0.033262905
0.55374283 0.019660601 0.033257972
0.55376738 0.020469669 0.033253044
0.553792 0.021278739 0.033248112
0.55381656 0.022087807 0.033243183
0.55384117 0.022896875 0.033238254
0.55386573 0.023705943 0.033233322
0.55389035 0.024515012 0.033228394
0.55391496 0.02532408 0.033223461
0.55313295 0.026142783 0.032625146
0.55315757 0.026953444 0.032620206
0.55318218 0.027764106 0.032615267
0.55320686 0.028574767 0.032610327
0.55242503 0.029401435 0.03201193
0.5524497 0.030213688 0.032006979
0.55086178 0.031064322 0.030815145
0.5500803 0.031900544 0.030216724
0.54849261 0.03276233 0.029024785
0.54690522 0.033630483 0.027832843
0.54531795 0.03450501 0.026640829
0.54453701 0.035358753 0.026042301
0.54295009 0.036244426 0.024850253
0.54136336 0.037136469 0.02365813
0.54058284 0.038002953 0.023059525
0.54060823 0.038839098 0.02305443
0.53982782 0.039710358 0.022455795
0.53904748 0.040584803 0.021857141
0.54858643 -0.03429861 0.029987713
0.54861128 -0.033481576 0.029982734
0.54944515 -0.032559473 0.030571673
0.54946995 -0.031744033 0.030566704
0.54949474 -0.030928595 0.030561734
0.55032849 -0.030012859 0.031150714
0.55116212 -0.029100312 0.031739712
0.5511868 -0.028288061 0.031734761
0.55202031 -0.02738028 0.032323822
0.55204499 -0.026569618 0.032318883
0.55287832 -0.025666624 0.03290794
0.55290288 -0.024857556 0.032903008
0.55373609 -0.023959344 0.033492092
0.55376065 -0.023151869 0.033487175
0.55378515 -0.022344394 0.033482254
0.5538097 -0.021536915 0.033477332
0.55383426 -0.020729437 0.033472411
0.55466717 -0.019840779 0.034061555
0.55469167 -0.019034898 0.034056641
0.55471617 -0.018229013 0.034051731
0.55474067 -0.017423132 0.034046821
0.55476511 -0.01661725 0.034041911
0.5547896 -0.015811365 0.034037001
0.5548141 -0.015005484 0.034032088
0.5540306 -0.01426963 0.033433046
0.55405515 -0.013462156 0.033428125
0.55407971 -0.012654681 0.033423208
0.55410421 -0.011847206 0.033418287
0.55412877 -0.011039731 0.033413365
0.55415332 -0.010232257 0.033408444
0.55417788 -0.0094247814 0.033403523
0.55420238 -0.0086173071 0.033398602
0.55422693 -0.0078098248 0.033393681
0.55425149 -0.0070023499 0.033388764
0.55427605 -0.0061948751 0.033383843
0.55430061 -0.0053874003 0.033378921
0.5543251 -0.0045799254 0.033374
0.55434966 -0.0037724504 0.033369079
0.55437422 -0.0029649758 0.033364158
0.55439878 -0.0021575009 0.033359241
0.55442327 -0.0013500185 0.03335432
0.55444783 -0.00054254377 0.033349399
0.55447239 0.00026493109 0.033344477
0.55449694 0.001072406 0.033339556
0.55452144 0.0018798808 0.033334635
0.554546 0.0026873555 0.033329714
0.55457056 0.0034948341 0.033324797
0.55459511 0.0043023089 0.033319876
0.55461967 0.0051097837 0.033314954
0.55464417 0.0059172586 0.033310033
0.55466872 0.0067247371 0.033305112
0.55469328 0.007532212 0.033300191
0.55391115 0.0083142463 0.03270087
0.55393577 0.0091233132 0.032695938
0.55396032 0.0099323839 0.032691009
0.55398494 0.010741452 0.032686077
0.5540095 0.011550519 0.032681148
0.55403411 0.012359589 0.03267622
0.55405873 0.013168657 0.032671288
0.55408329 0.013977726 0.032666359
0.5541079 0.014786793 0.032661427
0.55413246 0.015595863 0.032656498
0.55415708 0.016404931 0.032651566
0.55418169 0.017213998 0.032646637
0.55420625 0.018023068 0.032641705
0.55423087 0.018832134 0.032636777
0.55425543 0.019641204 0.032631844
0.55347407 0.02044872 0.032032367
0.55349874 0.021259382 0.032027427
0.55352336 0.022070043 0.032022487
0.55354804 0.022880705 0.032017548
0.55357265 0.023691365 0.032012608
0.55359727 0.024502026 0.032007668
0.55362195 0.025312686 0.032002725
0.55364656 0.026123347 0.031997785
0.55367124 0.026934009 0.031992845
0.55369586 0.027744669 0.031987906
0.55291498 0.028569706 0.031388287
0.55293971 0.029381961 0.031383336
0.55296439 0.030194214 0.031378385
0.55137843 0.031044772 0.030184086
0.55059797 0.031880956 0.029584432
0.54901236 0.032742664 0.028390029
0.54823214 0.033586811 0.027790327
0.54664683 0.034459669 0.026595891
0.54586685 0.035311781 0.025996104
0.5442819 0.036195785 0.024801601
0.54350215 0.037055857 0.024201803
0.54191756 0.037951015 0.023007195
0.54113805 0.038819052 0.022407347
0.54116344 0.039655194 0.022402251
0.54038411 0.040528007 0.021802375
0.5490793 -0.035135224 0.029360401
0.54910409 -0.034318198 0.029355422
0.54912895 -0.033501163 0.029350443
0.5491538 -0.03268414 0.029345464
0.54998666 -0.031763583 0.029935645
0.5508194 -0.030846218 0.030525846
0.55084413 -0.030032372 0.030520886
0.55086887 -0.029218527 0.030515928
0.55170143 -0.028307535 0.031106168
0.55172616 -0.027495274 0.031101217
0.5525586 -0.026589053 0.031691521
0.55258328 -0.025778394 0.031686582
0.55341554 -0.024876954 0.03227688
0.55344015 -0.024067888 0.032271951
0.55427223 -0.023171227 0.032862276
0.55429679 -0.022363754 0.032857355
0.55432135 -0.021556275 0.032852437
0.55434591 -0.020748796 0.032847516
0.55437046 -0.019941321 0.032842595
0.55439496 -0.019133847 0.032837674
0.55441952 -0.018326372 0.032832753
0.55444407 -0.017518897 0.032827832
0.55446863 -0.016711421 0.032822911
0.55449313 -0.015903948 0.032817993
0.55451769 -0.015096473 0.032813072
0.55454224 -0.01428899 0.032808151
0.5545668 -0.013481515 0.03280323
0.5545913 -0.01267404 0.032798309
0.55461586 -0.011866566 0.032793388
0.55464041 -0.01105909 0.03278847
0.55466497 -0.010251616 0.032783549
0.55468953 -0.0094441408 0.032778628
0.55471402 -0.0086366665 0.032773707
0.55473858 -0.0078291837 0.032768786
0.55476314 -0.0070217093 0.032763865
0.5547877 -0.0062142345 0.032758944
0.55481219 -0.0054067597 0.032754026
0.55483675 -0.0045992848 0.032749105
0.55486131 -0.0037918098 0.032744184
0.55488586 -0.0029843349 0.032739263
0.55491036 -0.0021768601 0.032734342
0.55493492 -0.0013693779 0.032729421
0.55495948 -0.00056190306 0.032724503
0.55498403 0.00024557175 0.032719582
0.55500859 0.0010530466 0.032714661
0.55422705 0.0018223012 0.032114182
0.55425167 0.0026313697 0.032109253
0.55427623 0.0034404381 0.032104321
0.55430084 0.0042495066 0.032099392
0.55432546 0.005058575 0.03209446
0.55435002 0.0058676437 0.032089531
0.55437464 0.0066767121 0.032084599
0.55439919 0.0074857804 0.032079671
0.55442381 0.0082948487 0.032074738
0.55444837 0.0091039157 0.03206981
0.55447298 0.0099129863 0.032064881
0.5544976 0.010722054 0.032059949
0.55452216 0.011531121 0.03205502
0.55374134 0.012322675 0.031454403
0.55376601 0.013133336 0.031449463
0.55379063 0.013943996 0.031444523
0.55381525 0.014754657 0.031439584
0.55383992 0.015565319 0.031434644
0.55386454 0.016375979 0.031429704
0.55388921 0.01718664 0.031424765
0.55391383 0.017997302 0.031419825
0.55393845 0.018807963 0.031414885
0.55396312 0.019618623 0.031409945
0.55398774 0.020429285 0.031405006
0.55401242 0.021239946 0.031400066
0.55403703 0.022050606 0.031395126
0.55406165 0.022861268 0.031390186
0.55408633 0.023671929 0.031385247
0.55411094 0.024482589 0.031380303
0.55413562 0.025293251 0.031375363
0.55335557 0.026113471 0.030774541
0.55338031 0.026925724 0.03076959
0.55340499 0.027737979 0.030764641
0.55342966 0.028550232 0.030759692
0.55345434 0.029362487 0.030754741
0.55267471 0.030192262 0.030153895
0.55189514 0.031025222 0.029553028
0.55111569 0.031861369 0.02895214
0.54953206 0.032723002 0.027755274
0.54875284 0.033567108 0.027154338
0.54797369 0.034414403 0.026553383
0.54639059 0.035291962 0.025356418
0.54561168 0.036147222 0.024755416
0.54483289 0.037005663 0.024154393
0.54325032 0.037899148 0.022957366
0.54247171 0.038765557 0.022356261
0.5424971 0.039600108 0.022351176
0.54171866 0.040471289 0.021750076
0.54957217 -0.03597185 0.028733086
0.54959697 -0.035154812 0.028728107
0.55042899 -0.034229454 0.029319491
0.55045378 -0.033414006 0.029314522
0.55047852 -0.032598574 0.029309554
0.55050331 -0.031783134 0.029304584
0.55052811 -0.030967696 0.029299615
0.55135983 -0.030051883 0.029891059
0.55138457 -0.029238038 0.0298861
0.55221611 -0.028327009 0.030477572
0.55224079 -0.027514748 0.030472621
0.55226552 -0.026702495 0.030467672
0.55309689 -0.025797831 0.031059219
0.55312157 -0.024987169 0.031054279
0.55395275 -0.024087286 0.03164582
0.55397737 -0.023278218 0.031640887
0.55400193 -0.02246915 0.031635959
0.55402654 -0.02166008 0.031631026
0.55405116 -0.020851009 0.031626098
0.55488205 -0.019960681 0.032217696
0.55490661 -0.019153206 0.032212775
0.55493116 -0.01834573 0.032207854
0.55414951 -0.017614739 0.031606376
0.55417413 -0.016805669 0.031601448
0.55419868 -0.015996601 0.031596515
0.5542233 -0.015187533 0.031591587
0.55424786 -0.01437846 0.031586654
0.55427247 -0.013569396 0.031581726
0.55429709 -0.012760327 0.031576794
0.55432165 -0.011951258 0.031571865
0.55434626 -0.011142191 0.031566937
0.55437082 -0.010333122 0.031562004
0.55439544 -0.009524053 0.031557076
0.55441999 -0.0087149888 0.031552143
0.55444461 -0.0079059163 0.031547215
0.55446923 -0.007096848 0.031542283
0.55449378 -0.0062877792 0.031537354
0.5545184 -0.0054787109 0.031532422
0.55454296 -0.0046696425 0.031527493
0.55456758 -0.003860574 0.031522565
0.55459219 -0.0030515091 0.031517632
0.55461675 -0.0022424408 0.031512704
0.55464137 -0.0014333685 0.031507771
0.55466592 -0.00062430004 0.031502843
0.55469054 0.00018476846 0.031497911
0.5547151 0.00099383504 0.031492982
0.55473971 0.0018029036 0.03148805
0.55476433 0.0026119722 0.031483121
0.55478889 0.0034210405 0.031478189
0.5548135 0.004230109 0.03147326
0.55483806 0.0050391774 0.031468332
0.55486268 0.0058482462 0.0314634
0.55408251 0.0066286125 0.030861622
0.55410719 0.0074392729 0.030856682
0.55413181 0.0082499329 0.03085174
0.55415642 0.0090605933 0.030846801
0.5541811 0.0098712556 0.030841861
0.55420572 0.010681918 0.030836921
0.55423039 0.011492577 0.030831981
0.55425501 0.01230324 0.030827042
0.55427963 0.0131139 0.030822102
0.5543043 0.013924561 0.030817162
0.55432892 0.014735221 0.030812223
0.55435359 0.015545883 0.030807281
0.55437821 0.016356545 0.030802341
0.55440283 0.017167205 0.030797401
0.55362338 0.01797146 0.030195441
0.55364805 0.018783713 0.030190492
0.55367273 0.019595968 0.030185541
0.55369747 0.020408221 0.030180592
0.55372214 0.021220475 0.030175643
0.55374682 0.022032728 0.030170692
0.5537715 0.022844981 0.030165743
0.55379617 0.023657236 0.030160794
0.55382091 0.024469489 0.030155845
0.55384558 0.025281744 0.030150894
0.55387026 0.026093997 0.030145945
0.55389494 0.02690625 0.030140996
0.55391961 0.027718505 0.030136045
0.55394435 0.028530758 0.030131096
0.55316561 0.029358903 0.029529026
0.55319035 0.03017275 0.029524067
0.55241179 0.031005671 0.028921966
0.55163336 0.031841781 0.028319849
0.55085498 0.032681074 0.02771771
0.55007666 0.033523552 0.027115516
0.54929852 0.034369215 0.026513338
0.54771739 0.035245106 0.025313955
0.54693943 0.036098734 0.024711693
0.54616159 0.036955547 0.024109447
0.54538387 0.037815541 0.023507183
0.54460627 0.038678724 0.022904899
0.54382873 0.039545093 0.022302596
0.54305124 0.04041465 0.021700237
0.53833729 0.04401065 0.018096147
0.53675789 0.044943873 0.016896412
0.55008984 -0.035991441 0.028100794
0.55011469 -0.0351744 0.028095815
0.55094564 -0.034249004 0.028688433
0.55097044 -0.033433557 0.028683463
0.55099523 -0.032618124 0.028678495
0.55102003 -0.031802684 0.028673526
0.55104482 -0.030987246 0.028668556
0.55187547 -0.030071396 0.029261231
0.55190021 -0.029257551 0.029256271
0.5527308 -0.028346481 0.029848976
0.55275548 -0.027534222 0.029844027
0.55278015 -0.026721969 0.029839078
0.55361056 -0.025817266 0.030431857
0.55363518 -0.025006603 0.030426918
0.55365986 -0.024195941 0.030421978
0.55368447 -0.023385283 0.030417038
0.55451459 -0.022488547 0.031009829
0.5545392 -0.021679478 0.031004898
0.55456376 -0.020870406 0.030999968
0.55458838 -0.020061338 0.030995037
0.55461299 -0.019252272 0.030990109
0.55463755 -0.018443204 0.030985178
0.55466217 -0.017634137 0.030980248
0.55468673 -0.016825067 0.030975318
0.55471134 -0.016015999 0.030970387
0.55473596 -0.01520693 0.030965457
0.55395555 -0.014468011 0.030362699
0.55398017 -0.013657349 0.030357759
0.55400479 -0.012846687 0.030352818
0.55402946 -0.012036028 0.030347878
0.55405408 -0.011225366 0.030342938
0.55407876 -0.010414707 0.030337999
0.55410337 -0.0096040452 0.030333059
0.55412799 -0.0087933876 0.030328119
0.55415267 -0.0079827216 0.030323179
0.55417728 -0.0071720593 0.03031824
0.55420196 -0.0063614007 0.0303133
0.55422658 -0.0055507384 0.030308358
0.55425119 -0.0047400803 0.030303419
0.55427587 -0.003929418 0.030298479
0.55430049 -0.003118756 0.030293539
0.55432516 -0.0023080974 0.030288599
0.55434978 -0.0014974317 0.03028366
0.5543744 -0.00068677322 0.03027872
0.55439907 0.00012388889 0.03027378
0.55442369 0.0009345492 0.030268839
0.55444837 0.0017452094 0.030263899
0.55447298 0.0025558698 0.030258959
0.5544976 0.0033665318 0.030254019
0.55452228 0.0041771922 0.03024908
0.55454689 0.0049878545 0.03024414
0.55457151 0.0057985145 0.0302392
0.55459619 0.0066091768 0.03023426
0.5546208 0.0074198372 0.030229321
0.55464548 0.0082304971 0.030224379
0.5546701 0.0090411576 0.030219439
0.55469471 0.0098518198 0.0302145
0.55471939 0.010662482 0.03020956
0.55474401 0.011473143 0.03020462
0.55396521 0.012266209 0.029601494
0.55398989 0.013078463 0.029596545
0.55401462 0.013890717 0.029591596
0.5540393 0.014702969 0.029586645
0.55406398 0.015515225 0.029581696
0.55408865 0.016327478 0.029576747
0.55411333 0.017139731 0.029571796
0.55413806 0.017951986 0.029566847
0.55416274 0.018764239 0.029561898
0.55418742 0.019576494 0.029556947
0.55421209 0.020388747 0.029551998
0.55423677 0.021201001 0.029547049
0.55426151 0.022013254 0.029542098
0.55428618 0.022825507 0.029537149
0.55431086 0.023637762 0.0295322
0.55433553 0.024450015 0.029527249
0.55436021 0.02526227 0.0295223
0.55358237 0.026084006 0.028919036
0.55360711 0.026897851 0.028914075
0.55363184 0.027711697 0.028909117
0.55365658 0.028525544 0.028904157
0.55368131 0.029339392 0.028899198
0.55370605 0.030153237 0.028894238
0.55292851 0.030986121 0.028290909
0.55215102 0.03182219 0.027687557
0.55137372 0.032661445 0.027084185
0.55059642 0.033503886 0.02648076
0.54981923 0.034349512 0.025877349
0.54904217 0.035198323 0.025273921
0.54826522 0.03605032 0.024670472
0.54748833 0.036905501 0.02406697
0.54671156 0.037763871 0.023463482
0.54593486 0.038625423 0.022859974
0.54515833 0.03949016 0.022256449
0.5443818 0.040358081 0.021652903
0.5428037 0.041267339 0.020450814
0.54202747 0.042143226 0.01984722
0.54044974 0.043063633 0.018645098
0.53967369 0.043947484 0.018041421
0.53809625 0.044879038 0.016839229
0.53732049 0.04577085 0.016235538
0.55141276 -0.035899431 0.028067311
0.55143756 -0.035083987 0.028062342
0.55146235 -0.034268554 0.028057374
0.55148715 -0.033453107 0.028052405
0.55151188 -0.032637674 0.028047435
0.55153668 -0.031822234 0.028042465
0.55236644 -0.030904753 0.028636364
0.55239117 -0.030090908 0.028631404
0.55241591 -0.029277062 0.028626446
0.55324543 -0.028365955 0.029220384
0.55327016 -0.027553696 0.029215435
0.55329484 -0.026741443 0.029210484
0.55331951 -0.025929192 0.029205535
0.55414885 -0.02502604 0.029799554
0.55417353 -0.024215378 0.029794615
0.55419815 -0.023404719 0.029789675
0.55422276 -0.022594057 0.029784735
0.55424744 -0.021783398 0.029779796
0.55427206 -0.020972732 0.029774856
0.55429673 -0.020162074 0.029769916
0.55432135 -0.019351412 0.029764976
0.55434597 -0.018540749 0.029760035
0.55437064 -0.017730091 0.029755095
0.55439526 -0.01691943 0.029750155
0.55441993 -0.016108772 0.029745216
0.55444455 -0.015298109 0.029740276
0.55446917 -0.014487447 0.029735336
0.55449384 -0.013676785 0.029730396
0.55451846 -0.012866123 0.029725457
0.55454314 -0.012055464 0.029720517
0.55456775 -0.011244802 0.029715575
0.5537886 -0.010496369 0.029111492
0.55381328 -0.0096841166 0.029106542
0.55383795 -0.0088718645 0.029101592
0.55386269 -0.008059605 0.029096643
0.55388737 -0.007247353 0.029091693
0.55391204 -0.0064351009 0.029086743
0.55393672 -0.0056228451 0.029081794
0.5539614 -0.0048105931 0.029076844
0.55478948 -0.0039488538 0.029671116
0.55481416 -0.0031381918 0.029666176
0.55483878 -0.0023275332 0.029661236
0.55406016 -0.0015615774 0.029057045
0.55408484 -0.00074932532 0.029052095
0.55410957 6.2930456e-05 0.029047146
0.55413425 0.00087518251 0.029042196
0.55415893 0.0016874365 0.029037246
0.5541836 0.0024996905 0.029032297
0.55420828 0.0033119444 0.029027347
0.55423301 0.0041241981 0.029022397
0.55425769 0.0049364502 0.029017448
0.55428237 0.0057487041 0.029012498
0.55430704 0.0065609603 0.029007548
0.55433178 0.0073732124 0.029002599
0.55435646 0.0081854658 0.028997649
0.55438113 0.0089977197 0.028992699
0.55440581 0.0098099736 0.02898775
0.55443048 0.010622228 0.028982801
0.55445522 0.011434481 0.02897785
0.5544799 0.012246735 0.028972901
0.55450457 0.013058989 0.028967952
0.55452925 0.013871244 0.028963001
0.55455393 0.014683496 0.028958052
0.55457866 0.015495752 0.028953103
0.55460334 0.016308004 0.028948152
0.55462801 0.017120257 0.028943203
0.55465269 0.017932512 0.028938254
0.55387539 0.018739875 0.028333843
0.55390012 0.019553723 0.028328884
0.55392486 0.020367568 0.028323924
0.55394959 0.021181416 0.028318966
0.55397433 0.021995261 0.028314006
0.55399907 0.022809109 0.028309047
0.5540238 0.023622954 0.028304087
0.55404854 0.0244368 0.028299129
0.55407327 0.025250647 0.028294168
0.55409801 0.026064493 0.028289208
0.55412275 0.02687834 0.02828425
0.55414748 0.027692186 0.02827929
0.55417222 0.028506033 0.028274331
0.55339563 0.029335694 0.027669786
0.55342042 0.030151132 0.027664818
0.55344516 0.030966571 0.027659848
0.55266875 0.031802602 0.027055265
0.5518924 0.032641821 0.026450662
0.55111611 0.033484224 0.025846003
0.55114102 0.03430444 0.025841005
0.55036497 0.035151619 0.025236351
0.54958892 0.036001984 0.024631681
0.54881305 0.036855534 0.02402699
0.54803717 0.037712272 0.023422245
0.54726148 0.038572196 0.022817515
0.54648584 0.039435301 0.022212766
0.54571033 0.040301591 0.021607997
0.5441342 0.041209184 0.020403452
0.54255825 0.042123143 0.019198906
0.54178315 0.043002173 0.018594058
0.54020751 0.043927286 0.017389407
0.53863209 0.044858761 0.016184753
0.53785735 0.045750536 0.015579829
0.53708267 0.0466455 0.01497485
0.55192947 -0.035918981 0.027436253
0.55195421 -0.035103537 0.027431283
0.55197901 -0.034288105 0.027426315
0.5520038 -0.033472657 0.027421346
0.5520286 -0.032657225 0.027416376
0.55285734 -0.03173811 0.028011497
0.55288213 -0.030924266 0.028006537
0.55290687 -0.030110421 0.028001579
0.55293161 -0.029296575 0.027996618
0.55376011 -0.028385429 0.028591789
0.55378479 -0.02757317 0.02858684
0.55380946 -0.026760917 0.028581889
0.5538342 -0.025948666 0.02857694
0.55385888 -0.025136409 0.028571991
0.55388355 -0.024324158 0.02856704
0.55471182 -0.023424154 0.029162314
0.55473644 -0.022613492 0.029157374
0.55476105 -0.021802835 0.029152434
0.55478573 -0.020992169 0.029147495
0.55481035 -0.020181511 0.029142555
0.55483502 -0.019370848 0.029137615
0.55485964 -0.018560186 0.029132674
0.55408108 -0.017826127 0.028527444
0.55410576 -0.017013874 0.028522493
0.55413043 -0.016201623 0.028517544
0.55415511 -0.015389366 0.028512595
0.55417985 -0.01457711 0.028507644
0.55420452 -0.013764858 0.028502695
0.5542292 -0.012952602 0.028497746
0.55425388 -0.01214035 0.028492795
0.55427855 -0.011328098 0.028487846
0.55430329 -0.010515843 0.028482897
0.55432796 -0.0097035905 0.028477946
0.55435264 -0.0088913385 0.028472997
0.55437732 -0.008079079 0.028468048
0.55440199 -0.0072668269 0.028463097
0.55442673 -0.0064545749 0.028458148
0.55445141 -0.0056423191 0.028453199
0.55447608 -0.004830067 0.02844825
0.55450076 -0.004017815 0.028443299
0.55452543 -0.0032055629 0.02843835
0.55455017 -0.0023933072 0.028433401
0.55457485 -0.0015810514 0.02842845
0.55459952 -0.00076879928 0.028423501
0.5546242 4.3456541e-05 0.028418552
0.55464894 0.00085570861 0.028413601
0.55467361 0.0016679625 0.028408652
0.55469829 0.0024802166 0.028403703
0.55472296 0.0032924705 0.028398752
0.55474764 0.0041047242 0.028393803
0.55477238 0.0049169767 0.028388854
0.55479705 0.0057292306 0.028383903
0.55482173 0.0065414864 0.028378954
0.55484641 0.0073537384 0.028374005
0.55487108 0.0081659919 0.028369054
0.55489582 0.0089782458 0.028364105
0.55492049 0.0097904997 0.028359156
0.55494517 0.010602754 0.028354205
0.55496985 0.011415008 0.028349256
0.55499452 0.012227262 0.028344307
0.55501926 0.013039516 0.028339356
0.55424267 0.013837285 0.027733773
0.55426741 0.014651131 0.027728813
0.55429214 0.015464978 0.027723854
0.55431688 0.016278826 0.027718894
0.55434161 0.017092671 0.027713936
0.55436635 0.017906517 0.027708976
0.55439109 0.018720364 0.027704017
0.55441582 0.01953421 0.027699057
0.55444056 0.020348057 0.027694099
0.55446529 0.021161903 0.027689138
0.55449003 0.021975748 0.02768418
0.55371404 0.022792632 0.02707848
0.55373877 0.02360807 0.027073512
0.55376357 0.02442351 0.027068542
0.55378836 0.025238948 0.027063573
0.55381316 0.026054386 0.027058605
0.55383795 0.026869826 0.027053636
0.55386275 0.027685264 0.027048666
0.55388749 0.028500704 0.027043696
0.55391228 0.029316144 0.027038729
0.55393708 0.030131582 0.027033759
0.55316162 0.030965982 0.026427953
0.55318642 0.031783015 0.026422974
0.55241108 0.032622192 0.025817137
0.5516358 0.033464558 0.025211247
0.55166078 0.034284774 0.025206247
0.55088568 0.035131916 0.024600362
0.55091065 0.035953727 0.024595356
0.55013567 0.036805645 0.023989441
0.54936087 0.037660751 0.023383509
0.54858607 0.038519043 0.02277752
0.54781139 0.039380521 0.022171549
0.54703683 0.040245179 0.021565558
0.54546273 0.041151099 0.020358592
0.54388869 0.042063389 0.019151554
0.54311454 0.042940792 0.018545486
0.54154092 0.043864232 0.017338414
0.53996748 0.044794042 0.016131267
0.53919369 0.045684185 0.015525122
0.53842002 0.046577513 0.014918956
0.536847 0.047523253 0.013711713
0.55244613 -0.035938531 0.026805192
0.55247092 -0.035123087 0.026800223
0.55249572 -0.034307655 0.026795253
0.55332357 -0.033385314 0.027391588
0.55254525 -0.032676775 0.026785316
0.55337304 -0.031757623 0.02738167
0.55339777 -0.030943777 0.02737671
0.55342251 -0.030129932 0.027371751
0.55344725 -0.029316086 0.027366791
0.55347198 -0.028502241 0.027361833
0.55429947 -0.027592644 0.027958244
0.55432415 -0.026780391 0.027953293
0.55434883 -0.02596814 0.027948344
0.55437356 -0.025155883 0.027943395
0.55439824 -0.024343632 0.027938444
0.55442291 -0.023531379 0.027933495
0.55444759 -0.022719124 0.027928546
0.55447227 -0.021906871 0.027923595
0.554497 -0.021094617 0.027918646
0.55452168 -0.02028236 0.027913697
0.55454636 -0.019470109 0.027908746
0.55457103 -0.018657856 0.027903797
0.55459571 -0.017845601 0.027898848
0.55462044 -0.017033348 0.027893897
0.55464512 -0.016221097 0.027888948
0.5546698 -0.01540884 0.027883999
0.55469447 -0.014596584 0.027879048
0.55471915 -0.013784332 0.027874099
0.55474389 -0.012972076 0.02786915
0.55396676 -0.012225311 0.027262645
0.5539915 -0.011411466 0.027257685
0.55401623 -0.01059762 0.027252726
0.55404097 -0.0097837737 0.027247766
0.5540657 -0.0089699281 0.027242808
0.55409044 -0.0081560789 0.027237847
0.55411518 -0.0073422333 0.027232889
0.55413991 -0.0065283873 0.027227929
0.55416465 -0.0057145418 0.027222971
0.55418938 -0.0049006958 0.02721801
0.55421412 -0.0040868465 0.02721305
0.55423886 -0.0032730007 0.027208092
0.55426359 -0.0024591549 0.027203131
0.55428833 -0.0016453055 0.027198173
0.55431306 -0.00083145977 0.027193213
0.5543378 -1.7614022e-05 0.027188255
0.55436254 0.00079623173 0.027183294
0.55438727 0.0016100775 0.027178336
0.55441201 0.0024239232 0.027173376
0.55443674 0.0032377709 0.027168417
0.55446148 0.0040516164 0.027163457
0.55448622 0.0048654624 0.027158499
0.55451095 0.005679308 0.027153539
0.55453569 0.0064931554 0.02714858
0.55456042 0.0073070014 0.02714362
0.55458516 0.0081208488 0.02713866
0.55460989 0.0089346943 0.027133701
0.55463463 0.0097485427 0.027128741
0.55465937 0.010562388 0.027123783
0.5546841 0.011376234 0.027118823
0.55470884 0.012190081 0.027113864
0.55473357 0.013003927 0.027108904
0.55475831 0.013817773 0.027103946
0.55478305 0.014631619 0.027098985
0.55480778 0.015445466 0.027094027
0.55403239 0.016249569 0.026487172
0.55405718 0.017065007 0.026482202
0.55408198 0.017880447 0.026477234
0.55410677 0.018695885 0.026472265
0.55413157 0.019511325 0.026467295
0.55415636 0.020326763 0.026462326
0.5541811 0.021142203 0.026457358
0.55420589 0.021957641 0.026452389
0.55423069 0.022773081 0.026447419
0.55425549 0.02358852 0.02644245
0.55428028 0.02440396 0.026437482
0.55430508 0.025219398 0.026432512
0.55432981 0.026034836 0.026427543
0.55355513 0.026861235 0.025820553
0.55357999 0.027678268 0.025815574
0.55360478 0.028495299 0.025810596
0.55362964 0.029312331 0.025805617
0.55365449 0.030129362 0.025800638
0.55367929 0.030946394 0.025795659
0.5529049 0.031783942 0.025188601
0.55292982 0.032602567 0.025183612
0.55215555 0.033444893 0.024576487
0.55218047 0.034265108 0.02457149
0.55220538 0.035085328 0.024566492
0.55143136 0.035934024 0.023959365
0.55145633 0.036755834 0.023954358
0.55068249 0.037609309 0.023347203
0.5499087 0.038465966 0.022740025
0.54913491 0.039325815 0.022132795
0.5475626 0.040225286 0.020923404
0.54678917 0.041093092 0.020316161
0.54521716 0.042003717 0.019106667
0.54364532 0.042920709 0.01789717
0.54207379 0.04384407 0.016687632
0.54130077 0.0447294 0.016080247
0.53972954 0.045663912 0.014870643
0.53895688 0.046557199 0.014263244
0.53818423 0.047453679 0.01365579
0.53741175 0.04835334 0.013048354
0.55296284 -0.035958081 0.026174132
0.55378979 -0.035032518 0.02677168
0.55381453 -0.03421868 0.026766721
0.55383927 -0.033404827 0.026761761
0.553864 -0.032590989 0.026756803
0.55388874 -0.031777136 0.026751842
0.55391347 -0.03096329 0.026746884
0.55393821 -0.030149445 0.026741924
0.55396295 -0.029335599 0.026736965
0.55398768 -0.028521754 0.026732005
0.55401242 -0.027707903 0.026727045
0.55483884 -0.026799865 0.027324701
0.55486351 -0.025987614 0.027319752
0.55488819 -0.025175357 0.027314801
0.55491287 -0.024363106 0.027309852
0.5549376 -0.023550853 0.027304903
0.55496228 -0.022738598 0.027299952
0.55498695 -0.021926345 0.027295003
0.55501163 -0.02111409 0.027290054
0.55503631 -0.020301834 0.027285103
0.55506104 -0.019489583 0.027280154
0.55508572 -0.01867733 0.027275205
0.55511039 -0.017865075 0.027270254
0.55433398 -0.017127901 0.026662575
0.55435872 -0.016314056 0.026657615
0.55438346 -0.01550021 0.026652655
0.55440819 -0.014686361 0.026647696
0.55443293 -0.013872514 0.026642736
0.55445766 -0.013058669 0.026637778
0.5544824 -0.012244823 0.026632817
0.55450714 -0.011430978 0.026627859
0.55453187 -0.010617132 0.026622899
0.55455661 -0.0098032858 0.026617941
0.55458134 -0.0089894403 0.02661298
0.55460608 -0.008175591 0.026608022
0.55463082 -0.007361745 0.026603062
0.55465555 -0.0065478995 0.026598103
0.55468029 -0.0057340539 0.026593143
0.55470502 -0.0049202079 0.026588185
0.55472976 -0.0041063586 0.026583225
0.5547545 -0.0032925128 0.026578264
0.55477923 -0.0024786671 0.026573306
0.55480397 -0.0016648176 0.026568346
0.5548287 -0.00085097185 0.026563387
0.55485344 -3.7126098e-05 0.026558427
0.55487818 0.00077671965 0.026553469
0.55490291 0.0015905654 0.026548509
0.55492765 0.0024044111 0.02654355
0.55495244 0.0032182587 0.02653859
0.55497718 0.0040321043 0.026533632
0.55500191 0.0048459503 0.026528671
0.55502665 0.0056597958 0.026523713
0.55505139 0.0064736437 0.026518753
0.55507612 0.0072874893 0.026513793
0.55510086 0.0081013367 0.026508834
0.55512559 0.0089151822 0.026503874
0.55435079 0.0097065065 0.025895864
0.55437559 0.010521946 0.025890896
0.55440038 0.011337383 0.025885927
0.55442518 0.012152825 0.025880957
0.55444998 0.012968262 0.025875987
0.55447471 0.013783702 0.02587102
0.55449951 0.014599139 0.02586605
0.5545243 0.01541458 0.025861081
0.5545491 0.016230019 0.025856111
0.55457389 0.017045457 0.025851144
0.55459869 0.017860897 0.025846174
0.55462343 0.018676335 0.025841204
0.55384934 0.019488363 0.025233069
0.55387414 0.020305395 0.025228091
0.55389899 0.021122426 0.025223112
0.55392379 0.021939458 0.025218133
0.55394864 0.022756489 0.025213154
0.5539735 0.023573522 0.025208175
0.55399829 0.024390552 0.025203196
0.55402315 0.025207585 0.025198217
0.554048 0.026024615 0.02519324
0.5540728 0.026841648 0.025188262
0.55409765 0.027658679 0.025183283
0.55412251 0.028475711 0.025178304
0.5541473 0.029292742 0.025173325
0.55337387 0.030127067 0.024565052
0.55339873 0.03094569 0.024560064
0.55342364 0.031764314 0.024555076
0.5534485 0.032582939 0.024550086
0.55267525 0.033425227 0.023941731
0.55270016 0.034245446 0.023936734
0.55272514 0.035065662 0.023931734
0.55275005 0.035885878 0.023926737
0.55197704 0.036736131 0.023318367
0.5512042 0.037589565 0.022709981
0.55122924 0.03841297 0.022704963
0.55045646 0.039271183 0.022096545
0.54888606 0.040168986 0.020884663
0.54811358 0.041035164 0.020276196
0.5465436 0.041944116 0.019064281
0.54497373 0.042859443 0.017852293
0.5434041 0.043781135 0.016640302
0.54183465 0.044709202 0.015428235
0.54106283 0.045597672 0.014819634
0.53949374 0.046536885 0.013607534
0.5387221 0.047433328 0.012998848
0.53795063 0.048332948 0.012390178
0.53717929 0.049235757 0.011781489
0.55350429 -0.035162188 0.025538104
0.55352908 -0.034346756 0.025533136
0.55355388 -0.033531308 0.025528166
0.55357862 -0.032715876 0.025523197
0.55360341 -0.031900436 0.025518227
0.55442911 -0.030982802 0.026117057
0.55445385 -0.030168956 0.026112098
0.55447859 -0.029355111 0.026107138
0.55450332 -0.028541265 0.026102178
0.55452806 -0.027727416 0.026097219
0.55455279 -0.02691357 0.026092259
0.55457753 -0.026099725 0.026087301
0.55460227 -0.025285879 0.026082341
0.554627 -0.024472032 0.026077382
0.55465174 -0.023658186 0.026072422
0.5554769 -0.022758072 0.026671357
0.55550164 -0.021945819 0.026666408
0.55472594 -0.021216642 0.026057545
0.55475068 -0.020402797 0.026052585
0.55477548 -0.019588951 0.026047627
0.55480021 -0.018775105 0.026042666
0.55482495 -0.01796126 0.026037708
0.55484968 -0.017147414 0.026032748
0.55487442 -0.016333567 0.026027787
0.55489916 -0.015519722 0.026022829
0.55492389 -0.014705872 0.026017869
0.55414873 -0.013960773 0.025408909
0.55417347 -0.013145338 0.025403939
0.55419827 -0.012329899 0.025398972
0.55422306 -0.011514459 0.025394002
0.55424786 -0.01069902 0.025389032
0.55427265 -0.0098835835 0.025384063
0.55429745 -0.0090681445 0.025379095
0.55432218 -0.0082527017 0.025374126
0.55434698 -0.0074372618 0.025369156
0.55437177 -0.0066218227 0.025364187
0.55439657 -0.0058063869 0.025359219
0.55442137 -0.0049909474 0.025354249
0.55444616 -0.0041755079 0.02534928
0.5544709 -0.0033600687 0.02534431
0.55449569 -0.0025446331 0.025339343
0.55452049 -0.0017291899 0.025334373
0.55454528 -0.00091375055 0.025329404
0.55457008 -9.8311153e-05 0.025324434
0.55459487 0.00071712636 0.025319466
0.55461961 0.0015325658 0.025314497
0.55464441 0.0023480032 0.025309527
0.5546692 0.0031634446 0.025304558
0.554694 0.003978882 0.02529959
0.55471879 0.0047943215 0.025294621
0.55474359 0.0056097591 0.025289651
0.55476832 0.0064252005 0.025284681
0.55479312 0.0072406377 0.025279714
0.55481791 0.0080560772 0.025274744
0.55484271 0.0088715162 0.025269775
0.55486751 0.0096869562 0.025264807
0.5548923 0.010502395 0.025259838
0.55491704 0.011317833 0.025254868
0.55494183 0.012133274 0.025249898
0.55496663 0.012948711 0.025244931
0.55419314 0.013749552 0.02463563
0.55421799 0.014566583 0.024630651
0.55424285 0.015383616 0.024625672
0.55426764 0.016200649 0.024620693
0.5542925 0.017017679 0.024615714
0.55431736 0.017834712 0.024610735
0.55434215 0.018651742 0.024605757
0.55436701 0.019468775 0.024600778
0.55439186 0.020285806 0.024595799
0.55441666 0.021102838 0.02459082
0.55444151 0.021919869 0.024585841
0.55446637 0.022736901 0.024580862
0.55369353 0.023558445 0.023971437
0.55371839 0.02437707 0.023966448
0.55374324 0.025195694 0.02396146
0.55376816 0.026014319 0.02395647
0.55379301 0.026832944 0.023951482
0.55381793 0.027651567 0.023946494
0.55384278 0.028470192 0.023941506
0.5538677 0.029288815 0.023936518
0.55389255 0.03010744 0.023931529
0.55391747 0.030926064 0.023926539
0.55394232 0.031744689 0.023921551
0.55317003 0.032585345 0.023311973
0.55319494 0.033405565 0.023306973
0.55321991 0.034225781 0.023301976
0.55324483 0.035045996 0.023296978
0.55326974 0.035866216 0.023291979
0.55329466 0.036686432 0.023286982
0.55252278 0.037538238 0.022677371
0.55254775 0.038360048 0.022672363
0.55177599 0.03921663 0.022062723
0.55020756 0.040112764 0.020848384
0.54943603 0.040977314 0.020238696
0.54786795 0.041884594 0.019024327
0.54630011 0.042798251 0.017809883
0.54473245 0.043718275 0.016595436
0.54316497 0.044644669 0.01538095
0.5423941 0.045531515 0.014771089
0.54082698 0.046469059 0.013556535
0.53925997 0.047412973 0.012341906
0.53928578 0.048261859 0.012336733
0.53771913 0.049215332 0.011122082
0.55402094 -0.035181738 0.024907043
0.55404574 -0.034366306 0.024902074
0.55407053 -0.033550858 0.024897106
0.55409533 -0.032735426 0.024892136
0.55412012 -0.031919986 0.024887167
0.55414492 -0.031104548 0.024882197
0.55416965 -0.030289108 0.02487723
0.55499429 -0.029374624 0.025477311
0.55501902 -0.028560776 0.02547235
0.55504376 -0.027746927 0.025467392
0.55506849 -0.026933081 0.025462432
0.55509323 -0.026119236 0.025457473
0.55511796 -0.02530539 0.025452513
0.5551427 -0.024491545 0.025447555
0.55516744 -0.023677699 0.025442595
0.55519217 -0.022863854 0.025437634
0.55521691 -0.022050008 0.025432676
0.55524164 -0.021236155 0.025427716
0.55526638 -0.020422308 0.025422757
0.55529112 -0.019608462 0.025417797
0.55531585 -0.018794617 0.025412839
0.55454147 -0.018057521 0.024802692
0.55456626 -0.017242081 0.024797725
0.55459106 -0.016426645 0.024792755
0.5546158 -0.015611206 0.024787785
0.55464059 -0.014795763 0.024782816
0.55466539 -0.013980323 0.024777848
0.55469018 -0.013164888 0.024772879
0.55471498 -0.012349449 0.024767909
0.55473977 -0.011534009 0.02476294
0.55476451 -0.01071857 0.024757972
0.55399066 -0.0099639548 0.024147721
0.55401552 -0.0091469251 0.024142742
0.55404037 -0.0083298879 0.024137763
0.55406517 -0.0075128591 0.024132784
0.55409002 -0.0066958261 0.024127806
0.55411482 -0.0058787963 0.024122827
0.55413967 -0.0050617633 0.024117848
0.55416453 -0.0042447341 0.024112869
0.55418932 -0.0034277011 0.02410789
0.55421418 -0.0026106718 0.024102911
0.55423903 -0.001793635 0.024097933
0.55426383 -0.00097660569 0.024092954
0.55428869 -0.00015957262 0.024087975
0.55431354 0.00065745669 0.024082996
0.55433834 0.0014744879 0.024078017
0.55436319 0.0022915192 0.024073038
0.55438805 0.0031085522 0.024068061
0.55441284 0.0039255833 0.024063082
0.5544377 0.0047426145 0.024058104
0.55446249 0.0055596456 0.024053125
0.55448735 0.0063766786 0.024048146
0.5545122 0.0071937102 0.024043167
0.554537 0.0080107413 0.024038188
0.55456185 0.008827772 0.024033209
0.55458671 0.0096448055 0.02402823
0.5546115 0.010461837 0.024023252
0.55463636 0.011278868 0.024018273
0.55466121 0.012095901 0.024013294
0.55468601 0.012912932 0.024008315
0.55471087 0.013729963 0.024003336
0.55473572 0.014546994 0.023998357
0.55476052 0.015364028 0.023993379
0.55398828 0.0161712 0.023382807
0.55401313 0.016989825 0.023377817
0.55403805 0.017808449 0.023372829
0.5540629 0.018627074 0.023367841
0.55408782 0.019445697 0.023362853
0.55411267 0.020264322 0.023357864
0.55413759 0.021082947 0.023352876
0.55416244 0.02190157 0.023347886
0.5541873 0.022720195 0.023342898
0.55421221 0.023538819 0.02333791
0.55423707 0.024357444 0.023332922
0.55426198 0.025176067 0.023327934
0.55428684 0.025994692 0.023322945
0.55431175 0.026813317 0.023317955
0.55433661 0.02763194 0.023312967
0.55436152 0.028450565 0.023307979
0.55359 0.029284814 0.022697207
0.55361497 0.03010503 0.022692209
0.55363989 0.030925248 0.02268721
0.5536648 0.031745464 0.022682212
0.55368972 0.032565683 0.022677215
0.55371469 0.033385899 0.022672215
0.55373961 0.034206115 0.022667218
0.55376452 0.035026334 0.022662219
0.55378944 0.03584655 0.022657221
0.55301851 0.036696725 0.022046387
0.55304348 0.037518535 0.022041379
0.55306846 0.038340345 0.022036372
0.55229771 0.03919689 0.021425499
0.55152702 0.040056616 0.020814607
0.55075639 0.040919535 0.020203659
0.54919034 0.041825149 0.018986834
0.54762447 0.042737134 0.01776997
0.54605877 0.043655492 0.016553031
0.54449326 0.044580217 0.015336091
0.54292792 0.045511317 0.014119074
0.54215819 0.046401307 0.013507999
0.54059321 0.047343552 0.01229095
0.53982365 0.048241507 0.011679788
0.53905427 0.049142648 0.011068645
0.53748977 0.050100818 0.0098514995
0.55453765 -0.035201289 0.024275985
0.55456245 -0.034385856 0.024271015
0.55458724 -0.033570409 0.024266047
0.55461198 -0.032754976 0.024261078
0.55463678 -0.031939536 0.024256108
0.55466157 -0.031124098 0.024251139
0.55468637 -0.030308658 0.024246171
0.55471116 -0.029493218 0.024241202
0.55473596 -0.02867778 0.024236232
0.55476069 -0.02786234 0.024231263
0.55478549 -0.0270469 0.024226295
0.55481029 -0.02623146 0.024221325
0.55483508 -0.025416022 0.024216356
0.55485988 -0.024600582 0.024211388
0.55488467 -0.023785146 0.024206419
0.55490941 -0.022969708 0.024201449
0.5549342 -0.022154268 0.024196479
0.554959 -0.021338824 0.024191512
0.55498379 -0.02052339 0.024186542
0.55500859 -0.01970795 0.024181573
0.55503339 -0.01889251 0.024176603
0.55505812 -0.018077072 0.024171636
0.55508292 -0.017261632 0.024166666
0.55510771 -0.016446196 0.024161696
0.55433452 -0.015702767 0.023550279
0.55435938 -0.01488573 0.023545302
0.55438417 -0.0140687 0.023540324
0.55440903 -0.013251668 0.023535345
0.55443388 -0.012434638 0.023530366
0.55445868 -0.011617606 0.023525387
0.55448353 -0.010800576 0.023520408
0.55450839 -0.0099835424 0.023515429
0.55453318 -0.0091665136 0.02351045
0.55455804 -0.0083494764 0.023505472
0.55458289 -0.0075324476 0.023500493
0.55381024 -0.0067699053 0.02288896
0.55383515 -0.0059512826 0.022883972
0.55386001 -0.0051326593 0.022878984
0.55388492 -0.0043140328 0.022873994
0.55390978 -0.0034954099 0.022869006
0.55393469 -0.0026767869 0.022864018
0.55395955 -0.0018581601 0.022859029
0.55398446 -0.0010395334 0.022854041
0.55400932 -0.00022091041 0.022849051
0.55403417 0.00059771258 0.022844063
0.55405909 0.0014163356 0.022839075
0.55408394 0.0022349604 0.022834087
0.55410886 0.0030535853 0.022829099
0.55413371 0.0038722102 0.02282411
0.55415863 0.0046908329 0.022819122
0.55418348 0.005509458 0.022814132
0.5542084 0.0063280826 0.022809144
0.55423325 0.0071467059 0.022804156
0.55425817 0.007965331 0.022799168
0.55428302 0.0087839533 0.02279418
0.55430794 0.0096025802 0.022789191
0.55433279 0.010421203 0.022784201
0.55435765 0.011239829 0.022779213
0.55438256 0.012058453 0.022774225
0.55440742 0.012877078 0.022769237
0.55443233 0.013695701 0.022764249
0.55445719 0.014514324 0.022759261
0.5544821 0.01533295 0.022754271
0.55450696 0.016151575 0.022749282
0.55453187 0.016970199 0.022744294
0.55455673 0.017788822 0.022739306
0.55458164 0.018607447 0.022734318
0.5546065 0.019426072 0.02272933
0.55383551 0.020242762 0.02211743
0.55386043 0.021062979 0.022112431
0.55388534 0.021883195 0.022107434
0.55391026 0.022703413 0.022102436
0.55393523 0.023523631 0.022097437
0.55396014 0.024343846 0.022092439
0.55398506 0.025164064 0.022087442
0.55400997 0.02598428 0.022082442
0.55403495 0.026804497 0.022077445
0.55405986 0.027624715 0.022072446
0.55408478 0.028444931 0.022067448
0.55410975 0.029265149 0.022062451
0.55413467 0.030085366 0.022057451
0.55415958 0.030905582 0.022052454
0.5541845 0.031725802 0.022047456
0.55420947 0.032546017 0.022042457
0.55423439 0.033366233 0.02203746
0.55346429 0.034211591 0.021425422
0.55348927 0.035033401 0.021420414
0.55351424 0.035855211 0.021415407
0.55353922 0.036677022 0.021410398
0.55356419 0.037498832 0.02140539
0.55358917 0.038320642 0.021400383
0.55281943 0.039177146 0.020788277
0.55204976 0.040036839 0.020176152
0.55128014 0.04089972 0.019563971
0.5505107 0.041765779 0.018951809
0.5489468 0.042676095 0.01773249
0.54738301 0.043592785 0.016513096
0.54581952 0.044515841 0.0152937
0.54425621 0.045445267 0.014074264
0.54269302 0.046381067 0.012854753
0.54192436 0.047274206 0.012242425
0.54115582 0.048170529 0.011630077
0.53959316 0.049122255 0.010410469
0.53803068 0.050080352 0.0091908593
0.5542562 -0.035331108 0.023037478
0.5550791 -0.034405407 0.023639956
0.55430585 -0.03369705 0.023027522
0.55433071 -0.032880023 0.023022544
0.55435556 -0.032062981 0.023017565
0.55517828 -0.031143649 0.02362008
0.55520302 -0.030328209 0.023615111
0.55522782 -0.029512769 0.023610141
0.55525261 -0.028697331 0.023605173
0.55527741 -0.027881891 0.023600204
0.5553022 -0.027066451 0.023595234
0.555327 -0.026251011 0.023590265
0.55535173 -0.025435572 0.023585297
0.55537653 -0.024620133 0.023580328
0.55540133 -0.023804696 0.023575358
0.55542612 -0.022989258 0.023570389
0.55545092 -0.022173818 0.023565421
0.55547571 -0.021358375 0.023560451
0.55550045 -0.02054294 0.023555482
0.55472803 -0.01980751 0.022942882
0.55475289 -0.018990479 0.022937903
0.55477774 -0.018173447 0.022932924
0.55480254 -0.017356418 0.022927945
0.55482739 -0.016539384 0.022922967
0.55485225 -0.015722355 0.022917988
0.55487704 -0.014905319 0.022913011
0.5549019 -0.014088289 0.022908032
0.5541299 -0.013338528 0.022295343
0.55415481 -0.012519904 0.022290355
0.55417967 -0.011701277 0.022285366
0.55420452 -0.010882654 0.022280378
0.55422944 -0.010064032 0.022275388
0.55425429 -0.0092454087 0.0222704
0.55427921 -0.0084267817 0.022265412
0.55430406 -0.0076081553 0.022260424
0.55432898 -0.006789532 0.022255436
0.55435383 -0.0059709093 0.022250447
0.55437875 -0.005152286 0.022245457
0.5544036 -0.0043336595 0.022240469
0.55442852 -0.0035150365 0.022235481
0.55445337 -0.0026964135 0.022230493
0.55447823 -0.0018777868 0.022225505
0.55450314 -0.0010591601 0.022220517
0.554528 -0.00024053708 0.022215527
0.55455291 0.00057808589 0.022210538
0.55457777 0.0013967089 0.02220555
0.55460268 0.0022153337 0.022200562
0.55462754 0.0030339586 0.022195574
0.55465245 0.0038525835 0.022190586
0.55467731 0.0046712062 0.022185596
0.55470222 0.0054898313 0.022180608
0.55393136 0.006279408 0.021567643
0.55395633 0.0070996247 0.021562643
0.55398124 0.0079198414 0.021557646
0.55400616 0.0087400582 0.021552648
0.55403107 0.0095602768 0.021547649
0.55405605 0.010380493 0.021542652
0.55408096 0.011200709 0.021537652
0.55410588 0.012020928 0.021532655
0.55413079 0.012841145 0.021527657
0.55415577 0.013661359 0.021522658
0.55418068 0.014481576 0.02151766
0.5542056 0.015301795 0.021512663
0.55423057 0.016122011 0.021507664
0.55425549 0.016942229 0.021502666
0.5542804 0.017762445 0.021497667
0.55430532 0.018582663 0.021492669
0.55433029 0.01940288 0.021487672
0.5543552 0.020223096 0.021482673
0.55438012 0.021043314 0.021477675
0.55440503 0.021863531 0.021472678
0.55443001 0.022683749 0.021467678
0.55445492 0.023503965 0.021462681
0.55447984 0.024324182 0.021457681
0.55450475 0.025144398 0.021452684
0.55452973 0.025964616 0.021447686
0.55455464 0.026784832 0.021442687
0.55378515 0.027617412 0.020829497
0.55381018 0.028439222 0.020824488
0.55383515 0.029261032 0.02081948
0.55386013 0.03008284 0.020814473
0.5538851 0.030904651 0.020809464
0.55391008 0.031726461 0.020804457
0.55393505 0.032548271 0.020799449
0.55396003 0.033370078 0.02079444
0.553985 0.034191888 0.020789433
0.55400997 0.035013698 0.020784425
0.55403495 0.035835508 0.020779418
0.55405992 0.036657318 0.020774409
0.55329108 0.0375106 0.02016109
0.55331612 0.038334005 0.020156072
0.55334115 0.039157405 0.020151054
0.55257249 0.040017057 0.019537698
0.55259758 0.040842056 0.019532671
0.55103546 0.041745923 0.01831089
0.5502671 0.042615134 0.017697474
0.54870534 0.043530151 0.016475661
0.54714376 0.044451542 0.015253773
0.54558241 0.0453793 0.014031881
0.54481459 0.046266031 0.01341836
0.54325354 0.047204938 0.012196365
0.54169273 0.048150215 0.010974367
0.5409252 0.04904969 0.010360731
0.53936476 0.050006114 0.0091386652
0.53701133 0.051024277 0.0073080692
0.55477393 -0.035350695 0.022405187
0.55479872 -0.034533672 0.022400208
0.55482358 -0.033716638 0.022395231
0.55484837 -0.032899611 0.022390252
0.55487323 -0.032082573 0.022385273
0.55489808 -0.031265546 0.022380294
0.55492288 -0.030448513 0.022375315
0.55494773 -0.029631479 0.022370337
0.55497259 -0.02881445 0.022365358
0.55499738 -0.027997414 0.022360379
0.55502224 -0.027180385 0.0223554
0.55504709 -0.02636335 0.022350421
0.55507189 -0.025546322 0.022345442
0.55509675 -0.024729289 0.022340463
0.5551216 -0.023912258 0.022335485
0.5551464 -0.023095226 0.022330506
0.55517125 -0.022278197 0.022325527
0.55519605 -0.021461161 0.022320548
0.5552209 -0.02064413 0.022315569
0.55524576 -0.019827098 0.02231059
0.55527055 -0.019010069 0.022305612
0.55449933 -0.018269898 0.021691751
0.55452418 -0.017451277 0.021686763
0.5545491 -0.016632654 0.021681773
0.55457395 -0.015814031 0.021676784
0.55459887 -0.0149954 0.021671796
0.55462372 -0.014176777 0.021666808
0.55464858 -0.013358153 0.02166182
0.55467349 -0.012539531 0.021656832
0.55390263 -0.011785032 0.021042844
0.55392754 -0.010964816 0.021037847
0.55395246 -0.010144599 0.021032849
0.55397737 -0.0093243821 0.02102785
0.55400234 -0.0085041625 0.021022853
0.55402726 -0.0076839454 0.021017855
0.55405217 -0.0068637286 0.021012856
0.55407715 -0.0060435124 0.021007858
0.55410206 -0.0052232957 0.021002859
0.55412698 -0.0044030789 0.020997861
0.55415189 -0.0035828622 0.020992864
0.55417687 -0.0027626455 0.020987865
0.55420178 -0.0019424253 0.020982867
0.5542267 -0.0011222085 0.02097787
0.55425161 -0.00030199191 0.02097287
0.55427659 0.00051822286 0.020967873
0.5543015 0.0013384395 0.020962873
0.55432642 0.0021586563 0.020957876
0.55435139 0.0029788746 0.020952879
0.5543763 0.0037990913 0.020947879
0.55440122 0.0046193078 0.020942882
0.55442613 0.0054395245 0.020937884
0.55445111 0.0062597431 0.020932885
0.55447602 0.0070799598 0.020927887
0.55450094 0.0079001766 0.020922888
0.55452585 0.0087203933 0.020917891
0.55455083 0.0095406119 0.020912893
0.55457574 0.010360829 0.020907894
0.55460066 0.011181045 0.020902896
