# .PCD v0.7 - Point Cloud Data file format
VERSION 0.7
FIELDS x y z
SIZE 4 4 4
TYPE F F F
COUNT 1 1 1
WIDTH 1336
HEIGHT 1
VIEWPOINT 0 0 0 1 0 0 0
POINTS 1336
DATA ascii
0.46894145 -0.0030204335 0.071334302
0.468968 -0.0021460659 0.071328975
0.46899459 -0.0012716984 0.071323648
0.46902117 -0.00039733091 0.071318321
0.46904776 0.00047703661 0.071312994
0.46907434 0.0013514041 0.071307659
0.46910089 0.0022257718 0.071302332
0.46912748 0.0031001356 0.071297005
0.46825325 0.0039430591 0.070811957
0.46827987 0.0048190188 0.070806615
0.46830651 0.0056949779 0.07080128
0.46833313 0.0065709371 0.070795946
0.46745914 0.0074218241 0.070310846
0.46748582 0.008299375 0.070305504
0.46661192 0.0091550369 0.069820344
0.46088049 -0.02032475 0.066432603
0.46090749 -0.019436048 0.066427186
0.4618355 -0.01847605 0.066902481
0.46186247 -0.01758894 0.066897072
0.46279034 -0.016633719 0.067372397
0.46371818 -0.015681671 0.067847773
0.46374506 -0.01479775 0.067842387
0.46467268 -0.01385049 0.068317756
0.46469951 -0.012968161 0.068312377
0.46562698 -0.012025678 0.068787783
0.46565375 -0.01114494 0.068782419
0.46658108 -0.010207238 0.069257848
0.46750838 -0.0092727169 0.069733322
0.46753505 -0.0083951578 0.069727972
0.46846217 -0.0074654208 0.070203453
0.46848878 -0.0065894593 0.070198119
0.4685154 -0.0057135019 0.070192784
0.46944231 -0.0047901315 0.070668302
0.46946889 -0.0039157639 0.070662975
0.46949545 -0.0030413964 0.070657648
0.46952203 -0.0021670288 0.070652321
0.46954861 -0.0012926614 0.070646986
0.4695752 -0.00041829384 0.070641659
0.46960178 0.0004560737 0.070636332
0.46962833 0.0013304412 0.070631005
0.46965492 0.0022048089 0.070625678
0.4696815 0.0030791725 0.070620351
0.46970809 0.0039535421 0.070615023
0.46973464 0.0048279096 0.070609689
0.46886152 0.0056739766 0.070123389
0.46888816 0.0065499363 0.070118047
0.46801519 0.0074007846 0.069631718
0.46804187 0.0082783354 0.069626369
0.46806854 0.0091558881 0.069621027
0.46719569 0.010013103 0.06913463
0.46051645 -0.021310871 0.065268345
0.4614436 -0.020346057 0.065744847
0.4614706 -0.019457355 0.06573943
0.4614976 -0.018568655 0.065734014
0.46242458 -0.017610209 0.066210546
0.46335143 -0.01665495 0.066687107
0.46337834 -0.01576943 0.066681713
0.46430513 -0.014818942 0.067158319
0.46523175 -0.013871644 0.067634933
0.46525857 -0.012989315 0.067629553
0.46618503 -0.012046793 0.068106182
0.46711141 -0.01110746 0.06858284
0.46713814 -0.010228315 0.068577476
0.46806443 -0.0092937564 0.069054194
0.4680911 -0.0084161973 0.069048844
0.46901718 -0.0074864216 0.069525562
0.46904382 -0.0066104606 0.06952022
0.46996975 -0.0056854622 0.06999696
0.46999633 -0.0048110946 0.069991633
0.47002292 -0.0039367271 0.069986306
0.4700495 -0.0030623598 0.069980979
0.47007605 -0.0021879922 0.069975644
0.47100171 -0.0012725446 0.070452444
0.47102824 -0.00039977071 0.070447125
0.47105476 0.00047300317 0.070441805
0.47108129 0.0013457771 0.070436493
0.47110784 0.002218551 0.070431173
0.47023553 0.0030582093 0.069943681
0.47026211 0.0039325785 0.069938354
0.47028866 0.004806946 0.06993302
0.47031525 0.0056813136 0.069927692
0.4694432 0.0065289349 0.069440156
0.46946982 0.007404896 0.069434814
0.46859789 0.0082572959 0.068947241
0.46862456 0.0091348486 0.068941891
0.46775275 0.0099920258 0.068454266
0.46108055 -0.021332217 0.064579353
0.46200669 -0.020367365 0.065057084
0.46203372 -0.019478662 0.065051667
0.46295971 -0.018518588 0.065529428
0.46298668 -0.017631477 0.065524027
0.46391252 -0.01667618 0.06600181
0.46483833 -0.015724055 0.066479653
0.46486521 -0.014840134 0.066474266
0.46579081 -0.013892798 0.066952102
0.46671632 -0.012948648 0.067429952
0.46674311 -0.012067909 0.067424588
0.46766847 -0.011128537 0.067902476
0.46769521 -0.010249393 0.067897119
0.46862048 -0.009314796 0.068375058
0.4695456 -0.0083833812 0.068852998
0.46957222 -0.0075074234 0.068847656
0.47049719 -0.0065807891 0.069325626
0.47052377 -0.0057064253 0.069320299
0.47055036 -0.0048320577 0.069314972
0.47057694 -0.0039576902 0.069309644
0.4706035 -0.0030833229 0.06930431
0.47063008 -0.0022089554 0.069298983
0.47155473 -0.0012934695 0.069777012
0.47158125 -0.00042069561 0.0697717
0.47160777 0.00045207827 0.06976638
0.4716343 0.0013248521 0.06976106
0.47166085 0.002197626 0.06975574
0.47168738 0.0030703999 0.069750421
0.47081614 0.0039116158 0.069261685
0.47084269 0.0047859829 0.069256358
0.47086927 0.0056603504 0.069251031
0.47089586 0.0065347161 0.069245704
0.47002485 0.0073838946 0.068756916
0.46915394 0.0082362564 0.068268113
0.46828309 0.0090918038 0.067779258
0.46830979 0.0099709481 0.067773901
0.46743912 0.010831275 0.067285046
0.46251577 -0.02216607 0.064380161
0.4625428 -0.02127737 0.064374745
0.4625698 -0.02038867 0.064369328
0.46349484 -0.01942696 0.064848311
0.46352181 -0.018539855 0.064842902
0.46444669 -0.017582925 0.065321922
0.46537155 -0.016629174 0.06580098
0.4653984 -0.015745249 0.065795593
0.46542528 -0.014861327 0.065790206
0.46634987 -0.013913952 0.066269279
0.4672744 -0.012969764 0.066748366
0.46819878 -0.01202876 0.067227475
0.46822551 -0.011149615 0.067222118
0.46914983 -0.010213386 0.067701288
0.4691765 -0.0093358355 0.067695938
0.47010061 -0.0084043816 0.068175107
0.47012725 -0.0075284243 0.068169765
0.47105122 -0.0066017522 0.068648964
0.4710778 -0.0057273884 0.068643637
0.47110438 -0.0048530209 0.068638302
0.47113097 -0.0039786533 0.068632975
0.47115752 -0.0031042858 0.068627648
0.4711841 -0.0022299183 0.068622321
0.47210774 -0.0013143944 0.069101587
0.47213426 -0.00044162048 0.069096267
0.47216079 0.0004311534 0.069090948
0.47218731 0.0013039273 0.069085628
0.47221386 0.0021767011 0.069080308
0.47224039 0.0030494749 0.069074988
0.47137013 0.0038906524 0.068585023
0.47139671 0.0047650202 0.068579696
0.4714233 0.0056393878 0.068574369
0.47055325 0.0064869323 0.068084359
0.47057986 0.0073628933 0.068079025
0.47060651 0.008238853 0.068073682
0.46973664 0.0090927705 0.067583635
0.46886683 0.0099498713 0.067093544
0.46799719 0.010810159 0.066603459
0.46712762 0.011673631 0.066113353
0.46625817 0.012540288 0.065623231
0.46397606 -0.022109553 0.064178005
0.464003 -0.021222448 0.064172596
0.46402997 -0.020335339 0.064167194
0.46405694 -0.01944823 0.064161785
0.46498087 -0.018489668 0.06464202
0.46500778 -0.017604155 0.064636625
0.46593162 -0.016650366 0.06511692
0.46595848 -0.01576644 0.065111533
0.46688214 -0.014817437 0.065591827
0.46780568 -0.013871619 0.066072136
0.46783245 -0.01299088 0.066066764
0.46875584 -0.012049838 0.066547111
0.46878257 -0.011170693 0.066541754
0.46970588 -0.010234426 0.067022152
0.47062904 -0.0093013486 0.067502543
0.47065565 -0.0084253829 0.067497209
0.47068229 -0.0075494256 0.067491867
0.47160524 -0.0066227154 0.067972295
0.47163182 -0.0057483516 0.067966968
0.47165841 -0.004873984 0.067961641
0.47168496 -0.0039996165 0.067956313
0.47171155 -0.0031252489 0.067950986
0.47173813 -0.0022508814 0.067945659
0.47176471 -0.001376514 0.067940332
0.47179127 -0.00050214637 0.067934997
0.47181785 0.00037222114 0.06792967
0.47184443 0.0012465887 0.067924343
0.47187102 0.0021209563 0.067919016
0.4718976 0.0029953199 0.067913689
0.47192416 0.0038696893 0.067908362
0.47195074 0.0047440571 0.067903034
0.47197732 0.0056184246 0.067897707
0.47110829 0.006465931 0.067406461
0.4711349 0.007341892 0.067401126
0.47026601 0.0081941774 0.066909857
0.47029269 0.009071731 0.066904508
0.46942389 0.0099287927 0.066413179
0.46855524 0.010789043 0.065921858
0.46768668 0.011652477 0.065430529
0.46681824 0.012519096 0.064939171
0.4668451 0.013403022 0.064933784
0.46453813 -0.022130823 0.063491486
0.4645651 -0.021243716 0.063486077
0.46459207 -0.020356607 0.063480675
0.46551502 -0.019396415 0.063962132
0.46643797 -0.018439407 0.064443633
0.46646482 -0.017555481 0.064438246
0.4664917 -0.016671559 0.064432867
0.46741438 -0.015720921 0.064914383
0.46833697 -0.014773468 0.065395914
0.46836373 -0.013892733 0.06539055
0.46928617 -0.01295006 0.065872118
0.46931288 -0.012070915 0.065866753
0.47023523 -0.011133016 0.066348374
0.4702619 -0.010255465 0.066343032
0.47118405 -0.009322349 0.066824652
0.47121069 -0.0084463842 0.066819318
0.4712373 -0.0075704269 0.066813976
0.47215927 -0.0066436785 0.067295641
0.47218585 -0.0057693147 0.067290314
0.4722124 -0.0048949472 0.067284986
0.47223899 -0.0040205796 0.067279659
0.47226557 -0.0031462118 0.067274325
0.47229216 -0.0022718443 0.067268997
0.47231871 -0.0013974769 0.06726367
0.47234529 -0.00052310928 0.067258343
0.47237188 0.00035125823 0.067253016
0.47239846 0.0012256257 0.067247689
0.47242501 0.0020999932 0.067242362
0.4724516 0.002974357 0.067237027
0.47247818 0.0038487264 0.0672317
0.47250476 0.0047230939 0.067226373
0.47163668 0.0055689705 0.066733912
0.4716633 0.0064449296 0.06672857
0.47168994 0.0073208911 0.066723235
0.47082207 0.0081731388 0.066230729
0.46995422 0.0090285707 0.065738186
0.46998093 0.009907716 0.065732822
0.46911329 0.010767927 0.065240271
0.46824574 0.011631323 0.064747706
0.46737832 0.012497904 0.064255111
0.46651092 0.013367672 0.063762479
0.46507326 -0.023039199 0.062810361
0.46599537 -0.022074191 0.063293025
0.46602228 -0.021188676 0.063287631
0.46604919 -0.02030316 0.063282229
0.46697119 -0.01934452 0.06376496
0.46699804 -0.018460598 0.063759573
0.46702492 -0.017576672 0.063754186
0.46794662 -0.01662441 0.064236924
0.46886826 -0.015675323 0.064719684
0.46889502 -0.014794584 0.06471432
0.46892178 -0.013913849 0.064708956
0.46984321 -0.012971138 0.065191746
0.46986994 -0.012091993 0.065186389
0.47079128 -0.011154056 0.065669246
0.47081795 -0.010276505 0.065663897
0.47173908 -0.0093433503 0.066146754
0.47176573 -0.0084673855 0.066141412
0.47179234 -0.0075914282 0.066136077
0.47181898 -0.0067154672 0.066130735
0.4718456 -0.0058395099 0.0661254
0.47276643 -0.0049159103 0.066608317
0.47279301 -0.0040415428 0.066602983
0.4728196 -0.0031671752 0.066597655
0.47284618 -0.0022928077 0.066592328
0.47287273 -0.0014184401 0.066587001
0.47289932 -0.00054407259 0.066581674
0.4729259 0.00033029495 0.066576347
0.47295249 0.0012046625 0.06657102
0.47297907 0.00207903 0.066565692
0.47300562 0.0029533939 0.066560358
0.47303221 0.0038277633 0.066555031
0.47216511 0.0046720095 0.066061348
0.47219172 0.0055479691 0.066056006
0.47221833 0.0064239283 0.066050671
0.47135141 0.0072745476 0.065556951
0.47137809 0.0081520993 0.065551601
0.47140476 0.009029652 0.065546252
0.46964458 0.0098660728 0.064564042
0.46967137 0.010746812 0.064558677
0.46880484 0.011610169 0.064064875
0.46793839 0.012476712 0.063571051
0.46707201 0.013346442 0.063077182
0.46709892 0.014231957 0.063071787
0.46650264 -0.023866458 0.062618531
0.46652955 -0.022980938 0.062613137
0.46745065 -0.022017479 0.063097067
0.4674775 -0.021133557 0.06309168
0.46750438 -0.020249635 0.063086294
0.46753123 -0.019365713 0.063080907
0.46845207 -0.018410221 0.063564852
0.46847889 -0.017527891 0.06355948
0.46939954 -0.01657718 0.064043462
0.4694263 -0.015696438 0.064038098
0.46945307 -0.0148157 0.064032726
0.47037354 -0.01387136 0.064516753
0.47040027 -0.012992215 0.064511396
0.47132063 -0.012052646 0.064995468
0.4713473 -0.011175095 0.064990126
0.47137398 -0.010297544 0.064984776
0.47229412 -0.0093643516 0.065468863
0.47232074 -0.0084883869 0.065463521
0.47234738 -0.0076124296 0.065458186
0.47237399 -0.0067364681 0.065452844
0.47240064 -0.0058605107 0.065447509
0.47242725 -0.0049845497 0.065442167
0.47245386 -0.0041085919 0.065436833
0.47248051 -0.0032326309 0.065431498
0.47250712 -0.0023566736 0.065426156
0.47253373 -0.0014807086 0.065420821
0.47256038 -0.00060475111 0.065415479
0.47258699 0.00027121007 0.065410145
0.47261363 0.0011471712 0.065404803
0.47264025 0.0020231288 0.065399468
0.47266686 0.0028990898 0.065394126
0.4726935 0.0037750492 0.065388791
0.47272012 0.0046510086 0.065383457
0.47274676 0.0055269678 0.065378115
0.47277337 0.006402927 0.06537278
0.47190747 0.0072535085 0.064877823
0.47104159 0.008107271 0.064382821
0.47106832 0.0089864153 0.064377464
0.47020265 0.0098449579 0.063882455
0.46933708 0.010706685 0.063387424
0.4693639 0.011589015 0.063382052
0.46849847 0.01245552 0.062886998
0.46763307 0.013325212 0.062391896
0.46676785 0.014198087 0.061896797
0.46679482 0.015085196 0.061891392
0.46795699 -0.023806522 0.062423777
0.46798387 -0.022922592 0.06241839
0.46890384 -0.021960696 0.062903538
0.46893066 -0.021078367 0.062898159
0.46895748 -0.020196036 0.062892787
0.46987727 -0.019240508 0.063377969
0.46990407 -0.018359769 0.063372597
0.46993083 -0.017479032 0.063367233
0.46995759 -0.016598297 0.063361868
0.47087714 -0.015650727 0.063847102
0.47090387 -0.014771583 0.063841745
0.47093061 -0.013892437 0.063836388
0.47095731 -0.013013293 0.063831031
0.47187668 -0.012073685 0.064316332
0.47190335 -0.011196135 0.06431099
0.47193003 -0.010318584 0.064305641
0.4719567 -0.0094410321 0.064300291
0.47287577 -0.0085093882 0.064785622
0.47290242 -0.0076334309 0.064780287
0.47292903 -0.0067574694 0.064774945
0.47295564 -0.0058815121 0.064769611
0.47298229 -0.005005551 0.064764276
0.4730089 -0.0041295933 0.064758934
0.47303551 -0.0032536322 0.064753599
0.47306216 -0.0023776749 0.064748257
0.47308877 -0.0015017099 0.064742923
0.47311541 -0.00062575244 0.064737581
0.47314203 0.00025020874 0.064732246
0.47316864 0.0011261699 0.064726911
0.47319528 0.0020021275 0.064721569
0.4732219 0.0028780885 0.064716235
0.47324854 0.0037540479 0.064710893
0.47238347 0.0045998096 0.064214729
0.47241017 0.0054773628 0.064209387
0.47243685 0.006354914 0.064204037
0.47157192 0.0072070481 0.063707814
0.47159865 0.0080861934 0.063702457
0.47162536 0.0089653376 0.0636971
0.4707607 0.009823842 0.063200854
0.47078747 0.01070458 0.063195489
0.46903169 0.011550405 0.062208321
0.46905854 0.012434327 0.062202934
0.46819416 0.013303981 0.061706599
0.4682211 0.014189497 0.061701201
0.46735692 0.015063928 0.061204869
0.46940929 -0.023746513 0.062231462
0.46943611 -0.022864182 0.062226083
0.46946293 -0.02198185 0.062220708
0.4703818 -0.021023098 0.062707104
0.47040859 -0.020142363 0.062701739
0.47043535 -0.019261625 0.062696368
0.47046211 -0.018380886 0.062691003
0.47048888 -0.017500147 0.062685639
0.47140747 -0.016550954 0.063172087
0.47143421 -0.015671805 0.06316673
0.47146094 -0.01479266 0.063161373
0.47148764 -0.013913516 0.063156016
0.47151437 -0.013034371 0.063150659
0.47243273 -0.012094725 0.063637204
0.47245941 -0.011217174 0.063631855
0.47248608 -0.010339623 0.063626505
0.47251275 -0.0094620716 0.063621163
0.47253942 -0.0085845133 0.063615814
0.4725661 -0.0077069621 0.063610464
0.47259277 -0.0068294113 0.063605122
0.47351068 -0.0059025134 0.064091712
0.4735373 -0.0050265524 0.064086378
0.47267279 -0.0041967542 0.063589074
0.47269946 -0.0033192029 0.063583732
0.47272614 -0.0024416517 0.063578382
0.47275281 -0.0015640932 0.063573033
0.47277948 -0.00068654207 0.063567683
0.47280616 0.00019100905 0.063562341
0.47283283 0.0010685602 0.063556992
0.4728595 0.0019461113 0.063551642
0.47288617 0.0028236662 0.063546292
0.47291285 0.0037012191 0.06354095
0.47293952 0.0045787701 0.063535601
0.47207552 0.005427679 0.063038155
0.47210225 0.0063068238 0.063032798
0.47212899 0.0071859704 0.063027442
0.47215569 0.0080651157 0.063022085
0.47129199 0.0089219874 0.062524624
0.47131878 0.0098027261 0.06251926
0.4704552 0.010664376 0.06202177
0.46959177 0.011529214 0.061524261
0.46961862 0.012413136 0.061518874
0.46875525 0.013282751 0.061021306
0.46789205 0.01415555 0.060523745
0.46791902 0.015042659 0.060518339
0.46705595 0.015920235 0.060020752
0.47088632 -0.022805691 0.062036246
0.47091308 -0.021924952 0.062030878
0.47093987 -0.021044213 0.062025513
0.47096664 -0.020163478 0.062020145
0.4709934 -0.01928274 0.062014777
0.47102016 -0.018402001 0.062009413
0.47193781 -0.017451176 0.062497094
0.47196454 -0.01657203 0.062491737
0.47199124 -0.015692882 0.06248638
0.47201797 -0.014813738 0.062481023
0.47204468 -0.013934593 0.062475666
0.47207141 -0.013055448 0.062470309
0.47209814 -0.012176303 0.062464952
0.47212484 -0.011297159 0.062459592
0.4730421 -0.010360663 0.062947385
0.47306877 -0.0094831111 0.062942035
0.47309545 -0.0086055528 0.062936686
0.47312212 -0.0077280016 0.062931344
0.47314879 -0.0068504503 0.062925994
0.47317547 -0.0059728995 0.062920645
0.47320214 -0.0050953445 0.062915303
0.47322884 -0.0042177932 0.062909953
0.47325552 -0.0033402422 0.062904604
0.47328219 -0.0024626912 0.062899254
0.47330886 -0.0015851326 0.062893912
0.47333553 -0.00070758141 0.062888563
0.47336221 0.00016996972 0.062883213
0.47338888 0.0010475209 0.062877864
0.47252569 0.0018900207 0.062379234
0.47255242 0.0027691654 0.062373877
0.47257912 0.0036483121 0.06236852
0.47260585 0.0045274571 0.062363163
0.47263259 0.0054066018 0.062357806
0.47265929 0.0062857466 0.062352449
0.47268602 0.0071648932 0.062347092
0.47182328 0.0080201346 0.061848402
0.47185007 0.0089008715 0.061843034
0.47098747 0.0097608911 0.061344322
0.47012496 0.0106241 0.060845591
0.47015184 0.011508022 0.060840204
0.46928942 0.012376003 0.06034141
0.46931633 0.01326152 0.060336016
0.46845412 0.014134281 0.059837226
0.46848109 0.01502139 0.05983182
0.46761903 0.015898928 0.059333
0.47141761 -0.023707544 0.061360016
0.47144437 -0.022826806 0.061354648
0.47147116 -0.021946067 0.061349284
0.47238797 -0.020988833 0.061838154
0.47152469 -0.020184595 0.061338548
0.47155148 -0.019303856 0.061333179
0.47246814 -0.018351398 0.061822083
0.471605 -0.017542379 0.061322447
0.47252157 -0.016593108 0.061811369
0.47254831 -0.01571396 0.061806012
0.47257504 -0.014834816 0.061800655
0.47260174 -0.01395567 0.061795294
0.47262847 -0.013076526 0.061789937
0.47265518 -0.012197381 0.06178458
0.47268191 -0.011318237 0.061779223
0.47270864 -0.010439091 0.061773866
0.47273535 -0.0095599471 0.061768509
0.47276208 -0.0086807981 0.061763152
0.47278881 -0.0078016534 0.061757796
0.47281551 -0.0069225086 0.061752439
0.47284225 -0.0060433638 0.061747082
0.47286898 -0.0051642191 0.061741725
0.47289568 -0.0042850743 0.061736368
0.47292241 -0.0034059295 0.061731007
0.47294912 -0.0025267848 0.06172565
0.47297585 -0.0016476364 0.061720293
0.47300258 -0.00076849159 0.061714936
0.47302929 0.0001106532 0.061709579
0.47305602 0.00098979799 0.061704222
0.47308275 0.0018689428 0.061698865
0.47310945 0.0027480875 0.061693508
0.47313619 0.0036272341 0.061688151
0.47316292 0.0045063789 0.061682794
0.47230104 0.0053568035 0.061182905
0.4723278 0.0062375423 0.061177541
0.47235456 0.0071182805 0.061172172
0.47238135 0.0079990188 0.061166804
0.47151971 0.0088574085 0.06066687
0.47154653 0.0097397361 0.060661491
0.47068503 0.010602906 0.060161527
0.47071192 0.011486829 0.06015614
0.46985051 0.012354773 0.059656121
0.46898925 0.013225905 0.059156109
0.46901622 0.014113013 0.0591507
0.4690432 0.015000122 0.059145294
0.46818215 0.015877621 0.058645245
0.47197565 -0.023728659 0.06067843
0.47200245 -0.022847923 0.060673065
0.4729183 -0.021889055 0.061163161
0.472945 -0.021009911 0.0611578
0.47208273 -0.02020571 0.060656961
0.47210953 -0.019324971 0.060651597
0.47213629 -0.018444233 0.060646228
0.47216305 -0.017563494 0.06064086
0.47218981 -0.016682761 0.060635496
0.47221661 -0.015802018 0.060630128
0.47224337 -0.01492128 0.06062476
0.47315878 -0.013976748 0.061114945
0.47318551 -0.013097604 0.061109588
0.47321224 -0.012218459 0.061104231
0.47323895 -0.011339313 0.061098874
0.47326568 -0.010460169 0.061093517
0.47329241 -0.0095810238 0.061088156
0.47331911 -0.0087018758 0.061082799
0.47334585 -0.0078227306 0.061077442
0.47337258 -0.0069435863 0.061072085
0.47339928 -0.0060644415 0.061066728
0.47342601 -0.0051852968 0.061061371
0.47345272 -0.004306152 0.061056014
0.47347945 -0.003427007 0.061050657
0.47350618 -0.0025478622 0.0610453
0.47353289 -0.0016687138 0.061039943
0.47355962 -0.00078956893 0.061034586
0.47269845 5.1262996e-05 0.060533524
0.47272524 0.00093200145 0.060528155
0.472752 0.0018127362 0.060522787
0.47277877 0.0026934745 0.060517423
0.47280553 0.0035742149 0.060512055
0.47283232 0.0044549513 0.060506687
0.47285908 0.0053356881 0.060501322
0.47288585 0.0062164264 0.060495954
0.47291264 0.0070971651 0.060490586
0.47205195 0.0079539241 0.059989426
0.47207877 0.0088362545 0.059984051
0.47121826 0.0096977893 0.059482861
0.47124511 0.010581715 0.059477475
0.47038469 0.011448028 0.058976226
0.4704116 0.012333542 0.058970831
0.46955135 0.013204637 0.05846959
0.46957833 0.014091744 0.058464184
0.4696053 0.014978854 0.058458775
0.46874523 0.015856316 0.057957493
0.47250694 -0.024630515 0.0600022
0.47253373 -0.023749776 0.059996832
0.4725605 -0.022869037 0.059991468
0.47258726 -0.021988299 0.0599861
0.47261402 -0.02110756 0.059980731
0.47264081 -0.020226825 0.059975367
0.47266757 -0.019346088 0.059969999
0.47269434 -0.018465349 0.059964631
0.47272113 -0.017584611 0.059959266
0.47274789 -0.016703876 0.059953898
0.47277465 -0.015823133 0.05994853
0.47280142 -0.014942396 0.059943166
0.47282821 -0.014061661 0.059937797
0.47285497 -0.013180922 0.059932429
0.47288173 -0.012300184 0.059927065
0.4729085 -0.011419445 0.059921697
0.47293529 -0.01053871 0.059916329
0.47296205 -0.0096579725 0.05991096
0.47298881 -0.00877723 0.059905596
0.47301558 -0.0078964951 0.059900228
0.47304237 -0.0070157568 0.05989486
0.47306913 -0.0061350181 0.059889495
0.47309589 -0.0052542798 0.059884127
0.47312269 -0.0043735453 0.059878759
0.47314945 -0.0034928068 0.059873395
0.47317621 -0.0026120683 0.059868027
0.47320297 -0.0017313261 0.059862658
0.47322977 -0.0008505914 0.059857294
0.47325653 3.0147068e-05 0.059851926
0.47328329 0.00091088552 0.059846558
0.47331005 0.0017916203 0.059841193
0.47333685 0.0026723586 0.059835825
0.47336361 0.003553099 0.059830457
0.47250375 0.0044034473 0.059328105
0.47253057 0.0052857776 0.059322726
0.4725574 0.0061681075 0.05931735
0.47258422 0.0070504397 0.059311975
0.47261101 0.0079327701 0.059306595
0.47175145 0.0087926742 0.058804184
0.47177833 0.0096765971 0.058798797
0.47180519 0.010560523 0.058793411
0.47094578 0.011426798 0.058290936
0.47008649 0.012296258 0.057788465
0.47011346 0.013183368 0.05778306
0.47014043 0.014070475 0.057777651
0.46928135 0.014946307 0.057275143
0.46930835 0.015835008 0.057269726
0.47215098 -0.025616944 0.058828086
0.47129059 -0.024817597 0.058324814
0.47220463 -0.023852283 0.058817334
0.47134432 -0.023049746 0.058314044
0.47225824 -0.022087619 0.05880658
0.47228506 -0.021205291 0.058801204
0.47231188 -0.02032296 0.058795825
0.47233871 -0.01944063 0.058790449
0.47236553 -0.018558299 0.058785073
0.47239235 -0.01767597 0.058779698
0.47241917 -0.016793642 0.058774319
0.47244599 -0.015911305 0.058768943
0.4733595 -0.014963511 0.059261572
0.47338626 -0.014082776 0.059256207
0.47341302 -0.013202038 0.059250839
0.47343978 -0.0123213 0.059245471
0.47346658 -0.011440561 0.059240106
0.47349334 -0.010559826 0.059234738
0.4735201 -0.0096790874 0.05922937
0.47354686 -0.0087983459 0.059224006
0.47357365 -0.0079176109 0.059218638
0.47360042 -0.0070368727 0.05921327
0.47362718 -0.006156134 0.059207901
0.4727678 -0.005323343 0.058704421
0.47279462 -0.0044410108 0.058699045
0.47282144 -0.0035586825 0.05869367
0.47284827 -0.0026763505 0.058688294
0.47287509 -0.0017940184 0.058682915
0.47290191 -0.00091169006 0.058677539
0.47292873 -2.9357941e-05 0.058672164
0.47295555 0.00085297046 0.058666784
0.47298235 0.0017353025 0.058661409
0.47300917 0.0026176309 0.058656033
0.47303599 0.0034999631 0.058650658
0.47306281 0.0043822932 0.058645278
0.47308964 0.0052646236 0.058639903
0.47223094 0.0061197127 0.058136292
0.47225779 0.0070036366 0.058130905
0.47228467 0.0078875609 0.058125518
0.47231153 0.0087714829 0.058120131
0.47233841 0.0096554048 0.058114745
0.47147992 0.010520052 0.057611044
0.47150683 0.011405568 0.05760565
0.47064859 0.01227499 0.057101946
0.47067556 0.0131621 0.057096541
0.4707025 0.014049207 0.057091136
0.47072947 0.014936317 0.057085726
0.46987146 0.015813703 0.056581974
0.47093749 -0.025807332 0.057146989
0.4709644 -0.024921816 0.057141591
0.47099131 -0.024036299 0.057136197
0.47101822 -0.023150781 0.057130799
0.47193125 -0.022187017 0.057624593
0.47195813 -0.021303095 0.057619207
0.47198498 -0.020419173 0.05761382
0.47201186 -0.019535251 0.057608433
0.47203872 -0.018651329 0.057603046
0.4720656 -0.017767403 0.05759766
0.47209245 -0.016883481 0.057592273
0.47300506 -0.015932459 0.05808612
0.47303188 -0.015050132 0.05808074
0.4730587 -0.0141678 0.058075365
0.47308549 -0.013285471 0.058069989
0.47311231 -0.012403139 0.05806461
0.47313914 -0.01152081 0.058059234
0.47316596 -0.010638478 0.058053859
0.47319278 -0.0097561497 0.058048483
0.4732196 -0.0088738147 0.058043104
0.47324643 -0.0079914862 0.058037728
0.47327325 -0.0071091577 0.058032352
0.47330007 -0.0062268255 0.058026973
0.47332686 -0.005344497 0.058021598
0.47246861 -0.0045085568 0.057516865
0.47249547 -0.0036246351 0.057511479
0.47252235 -0.0027407128 0.057506092
0.4725492 -0.0018567834 0.057500705
0.47257608 -0.00097286142 0.057495318
0.47260293 -8.8939363e-05 0.057489932
0.47262982 0.00079498265 0.057484545
0.47265667 0.0016789048 0.057479162
0.47268355 0.0025628267 0.057473775
0.4727104 0.0034467524 0.057468388
0.47273728 0.0043306747 0.057463001
0.47276413 0.0052145985 0.057457615
0.47279102 0.0060985205 0.057452228
0.47281787 0.0069824443 0.057446841
0.47284475 0.0078663686 0.057441454
0.47198719 0.008727788 0.05693654
0.4720141 0.0096133035 0.056931145
0.47204101 0.010498821 0.056925748
0.47118372 0.011366612 0.056420825
0.47121069 0.012253721 0.05641542
0.47123763 0.013140831 0.056410015
0.4712646 0.014027938 0.056404609
0.47040755 0.014903693 0.055899635
0.47043455 0.015792396 0.055894218
0.46970105 -0.026886566 0.05546641
0.46972808 -0.025997866 0.055460993
0.46975508 -0.025109163 0.05545558
0.47066724 -0.024138998 0.055950534
0.47069421 -0.023251886 0.055945128
0.47072119 -0.022364777 0.055939723
0.47074816 -0.021477671 0.055934317
0.47166005 -0.020515464 0.056429327
0.47168696 -0.019629948 0.056423929
0.4717139 -0.018744433 0.056418534
0.47174081 -0.017858921 0.056413136
0.47265252 -0.016904673 0.056908224
0.47267941 -0.016020747 0.056902837
0.47270626 -0.015136825 0.05689745
0.47273314 -0.014252903 0.056892063
0.47275999 -0.013368981 0.056886677
0.47367138 -0.012424293 0.057381786
0.47281373 -0.011601132 0.056875903
0.47284061 -0.01071721 0.056870516
0.47286746 -0.0098332884 0.05686513
0.47289434 -0.0089493627 0.056859747
0.47292119 -0.0080654407 0.05685436
0.47294807 -0.007181515 0.056848973
0.47297493 -0.006297593 0.056843586
0.47300181 -0.005413671 0.056838199
0.47302866 -0.004529749 0.056832813
0.47305554 -0.0036458268 0.056827426
0.47308242 -0.0027619048 0.056822039
0.47310928 -0.0018779754 0.056816652
0.47313616 -0.00099405344 0.056811266
0.47316301 -0.00011013135 0.056805883
0.47318989 0.0007737907 0.056800496
0.47321674 0.0016577127 0.056795109
0.47324362 0.0025416347 0.056789722
0.47327048 0.0034255604 0.056784336
0.47241369 0.0042789793 0.056278236
0.4724406 0.0051644947 0.056272838
0.47246751 0.0060500107 0.056267444
0.47249445 0.0069355262 0.056262046
0.47252136 0.0078210421 0.056256652
0.47254828 0.0087065576 0.056251254
0.47169188 0.0095711267 0.055745114
0.47171885 0.010458237 0.055739708
0.47174582 0.011345344 0.055734303
0.47177276 0.012232453 0.055728897
0.47091663 0.013104986 0.055222712
0.47094363 0.013993686 0.055217296
0.47097063 0.014882388 0.055211883
0.47011468 0.01576129 0.054705657
0.47014174 0.016651586 0.054700233
0.46846849 -0.027972326 0.053780932
0.46849561 -0.027080439 0.053775497
0.46940693 -0.026103862 0.054271653
0.46943399 -0.025213569 0.054266226
0.46946105 -0.024323277 0.054260802
0.47037223 -0.023353066 0.054756992
0.47039923 -0.022464365 0.054751575
0.47042623 -0.021575665 0.054746158
0.4713372 -0.02061183 0.055242386
0.47136417 -0.019724721 0.05523698
0.47139114 -0.018837616 0.055231575
0.47141808 -0.017950505 0.05522617
0.47232881 -0.016994635 0.055722445
0.47235572 -0.016109116 0.055717047
0.47326636 -0.015158017 0.056213386
0.47329322 -0.014274095 0.056208
0.4733201 -0.013390173 0.056202613
0.47334695 -0.012506247 0.056197226
0.47337383 -0.011622326 0.056191839
0.47340068 -0.010738403 0.056186453
0.47342756 -0.0098544806 0.056181069
0.47345442 -0.0089705549 0.056175683
0.4734813 -0.0080866329 0.056170296
0.47350815 -0.0072027072 0.056164909
0.47265181 -0.0063684434 0.055657692
0.47267872 -0.0054829279 0.055652294
0.47270563 -0.004597412 0.0556469
0.47273254 -0.0037118963 0.055641502
0.47275946 -0.0028263805 0.055636108
0.47278637 -0.0019408611 0.05563071
0.47281328 -0.0010553455 0.055625316
0.47284022 -0.00016982977 0.055619918
0.47286713 0.00071568589 0.055614524
0.47289404 0.0016012016 0.055609126
0.47292095 0.0024867174 0.055603731
0.47294787 0.0033722329 0.055598333
0.47297478 0.0042577488 0.055592939
0.47300169 0.0051432643 0.055587541
0.47302863 0.0060287802 0.055582147
0.47217309 0.0068885339 0.055074807
0.47220004 0.0077756415 0.055069402
0.47222701 0.0086627509 0.055063996
0.47225398 0.009549858 0.055058591
0.47228095 0.010436968 0.055053186
0.47230789 0.011324075 0.055047777
0.47145271 0.012194977 0.05454037
0.47147971 0.01308368 0.054534953
0.47062469 0.013959359 0.054027516
0.47065175 0.014849653 0.054022092
0.47067881 0.015739946 0.054016668
0.47070587 0.01663024 0.054011241
0.46723971 -0.029064609 0.052090537
0.46815023 -0.028081624 0.052587882
0.46817741 -0.027188146 0.052582439
0.46820456 -0.026294669 0.052576993
0.46911496 -0.025318049 0.053074405
0.46914205 -0.024426162 0.053068969
0.47005224 -0.023454325 0.053566385
0.4700793 -0.022564027 0.053560961
0.47010636 -0.021673735 0.053555537
0.47013342 -0.020783443 0.053550109
0.47104338 -0.019819569 0.05404757
0.47107038 -0.018930869 0.054042157
0.47198018 -0.017971775 0.054539643
0.47200716 -0.017084666 0.054534238
0.47203413 -0.016197555 0.054528832
0.47294372 -0.01524483 0.055026364
0.47297063 -0.014359315 0.055020966
0.47299755 -0.013473799 0.055015571
0.47302449 -0.012588284 0.055010173
0.4730514 -0.011702768 0.055004779
0.47307831 -0.010817252 0.054999381
0.47310522 -0.0099317366 0.054993987
0.47313213 -0.0090462174 0.054988589
0.47315904 -0.008160701 0.054983195
0.47318596 -0.0072751855 0.054977797
0.4732129 -0.0063896738 0.054972403
0.47235769 -0.0055522546 0.054463964
0.47238466 -0.0046651452 0.054458559
0.4724116 -0.0037780395 0.054453153
0.47243857 -0.00289093 0.054447748
0.47246554 -0.0020038171 0.054442342
0.47249252 -0.0011167114 0.054436933
0.47251946 -0.00022960207 0.054431528
0.47254643 0.00065750355 0.054426122
0.4725734 0.0015446129 0.054420717
0.47260037 0.0024317224 0.054415312
0.47262731 0.0033188316 0.054409906
0.47265428 0.0042059389 0.054404501
0.47268125 0.0050930465 0.054399095
0.47270823 0.0059801559 0.05439369
0.47273517 0.0068672653 0.054388281
0.47276214 0.0077543729 0.054382876
0.47278911 0.0086414823 0.05437747
0.47281608 0.0095285894 0.054372065
0.4719618 0.010396268 0.053863443
0.4719888 0.011284969 0.053858027
0.47201583 0.01217367 0.053852614
0.47204283 0.013062374 0.053847197
0.47118878 0.013938014 0.053338528
0.47121584 0.014828308 0.053333104
0.4712429 0.0157186 0.053327676
0.47126997 0.016608896 0.053322252
0.46689722 -0.030072279 0.050899297
0.46692449 -0.029175615 0.050893832
0.46783406 -0.028190998 0.051392399
0.46786126 -0.027295928 0.051386945
0.46788847 -0.026400859 0.051381491
0.46791568 -0.025505783 0.051376037
0.46794286 -0.024610713 0.051370583
0.46885216 -0.02363565 0.051869206
0.4697614 -0.022663772 0.052367885
0.46978849 -0.021771885 0.052362449
0.46981561 -0.020879999 0.052357014
0.47072458 -0.019914495 0.0528557
0.47075164 -0.019024201 0.052850276
0.47166049 -0.018063478 0.053348981
0.47168753 -0.017174775 0.053343568
0.4725962 -0.016218824 0.05384231
0.47262317 -0.015331714 0.053836904
0.47265014 -0.014444605 0.053831499
0.47355863 -0.01349503 0.054330278
0.47358555 -0.012609514 0.054324884
0.47361249 -0.011723998 0.054319486
0.4736394 -0.010838483 0.054314092
0.47366631 -0.0099529671 0.054308694
0.47281194 -0.0091219563 0.053799063
0.47283888 -0.0082348473 0.053793658
0.47286585 -0.0073477379 0.053788252
0.47289282 -0.0064606322 0.053782847
0.47291979 -0.0055735232 0.053777438
0.47294673 -0.0046864138 0.053772032
0.4729737 -0.0037993081 0.053766627
0.47300068 -0.0029121987 0.053761221
0.47302765 -0.0020250857 0.053755816
0.47305459 -0.00113798 0.053750411
0.47308156 -0.00025087065 0.053745005
0.47310853 0.000636235 0.0537396
0.4731355 0.0015233443 0.053734194
0.47316244 0.0024104537 0.053728785
0.47318941 0.0032975629 0.05372338
0.47321638 0.0041846707 0.053717975
0.47324336 0.0050717779 0.053712569
0.4732703 0.0059588873 0.053707164
0.47241685 0.0068201586 0.053197347
0.47244385 0.0077088578 0.053191934
0.47247088 0.0085975593 0.053186517
0.47249788 0.0094862599 0.053181101
0.47252491 0.010374961 0.053175688
0.47167173 0.011245787 0.052665818
0.47169879 0.01213608 0.052660391
0.47172585 0.013026374 0.052654967
0.47087288 0.013903571 0.052145053
0.47089997 0.014795456 0.052139618
0.47092709 0.015687343 0.052134182
0.47095418 0.016579231 0.052128751
0.4709813 0.017471116 0.052123316
0.46658397 -0.030184949 0.04970013
0.46749264 -0.029197114 0.050199911
0.46751988 -0.028300449 0.05019445
0.46754715 -0.027403785 0.050188985
0.46757439 -0.026507122 0.05018352
0.46760166 -0.025610458 0.050178058
0.4676289 -0.024713794 0.050172593
0.46853724 -0.023737099 0.050672438
0.46856442 -0.022842025 0.05066698
0.46947262 -0.021870116 0.051166862
0.46949977 -0.020976635 0.051161416
0.47040784 -0.020009495 0.051661357
0.47043496 -0.019117609 0.051655922
0.47134283 -0.018155253 0.052155852
0.47225061 -0.017196082 0.052655809
0.47227764 -0.016307378 0.052650392
0.47318527 -0.015352983 0.053150378
0.47321224 -0.014465874 0.053144973
0.47323921 -0.013578769 0.053139567
0.47326615 -0.012691659 0.053134162
0.47329313 -0.011804554 0.053128757
0.4733201 -0.010917444 0.053123351
0.47334707 -0.010030335 0.053117946
0.47337401 -0.0091432249 0.053112537
0.47340098 -0.008256116 0.053107131
0.47342795 -0.0073690065 0.053101726
0.47257477 -0.0065316674 0.052590821
0.47260177 -0.0056429645 0.052585408
0.4726288 -0.0047542653 0.052579992
0.4726558 -0.0038655659 0.052574575
0.4726828 -0.0029768629 0.052569162
0.47270983 -0.0020881598 0.052563746
0.47273684 -0.0011994606 0.052558329
0.47276387 -0.00031075755 0.052552916
0.47279087 0.00057794171 0.0525475
0.47281787 0.0014666447 0.052542083
0.4728449 0.0023553441 0.052536666
0.4728719 0.0032440471 0.052531254
0.47289893 0.0041327463 0.052525837
0.47292593 0.0050214473 0.05252042
0.47295293 0.0059101488 0.052515008
0.47297996 0.0067988518 0.052509591
0.47300696 0.007687551 0.052504174
0.47215465 0.008553559 0.051993094
0.47218171 0.009443854 0.05198767
0.47220877 0.010334149 0.051982246
0.47223583 0.011224442 0.051976822
0.47226289 0.012114734 0.051971395
0.47141087 0.012990301 0.051460266
0.47143799 0.013882188 0.051454831
0.47146511 0.014774073 0.051449396
0.4714922 0.01566596 0.051443961
0.47064039 0.016549489 0.050932743
0.47066754 0.017442966 0.050927296
0.46712583 -0.031104742 0.049010459
0.46715313 -0.030206485 0.049004987
0.46718043 -0.029308228 0.048999511
0.46720773 -0.028409977 0.048994038
0.46723503 -0.02751172 0.048988562
0.46726236 -0.026613463 0.04898309
0.46728966 -0.025715204 0.048977617
0.46819705 -0.024735292 0.049478672
0.46822432 -0.023838624 0.049473211
0.46913156 -0.022863485 0.049974304
0.46915877 -0.021968415 0.04996885
0.46918598 -0.021073345 0.049963392
0.47009304 -0.02010458 0.050464518
0.47100008 -0.019138992 0.050965704
0.47190696 -0.018176598 0.051466867
0.47193402 -0.017286306 0.051461443
0.47284073 -0.016328685 0.05196264
0.47286776 -0.015439982 0.051957227
0.47289476 -0.014551283 0.051951811
0.47292176 -0.013662583 0.051946394
0.47382826 -0.012712928 0.052447643
0.47385523 -0.011825821 0.052442238
0.47388217 -0.010938712 0.052436832
0.47302982 -0.010107779 0.051924732
0.47305682 -0.0092190756 0.051919319
0.47308385 -0.0083303731 0.051913902
0.47311085 -0.0074416734 0.051908486
0.47313786 -0.0065529742 0.051903069
0.47316489 -0.0056642713 0.051897656
0.47319189 -0.0047755716 0.05189224
0.47321892 -0.0038868724 0.051886823
0.47324592 -0.0029981695 0.05188141
0.47239405 -0.0021513067 0.051369213
0.47242111 -0.0012610137 0.051363789
0.47244817 -0.00037072072 0.051358365
0.47247523 0.00051957223 0.051352937
0.47250229 0.0014098652 0.051347513
0.47252935 0.0023001581 0.051342089
0.47255641 0.0031904529 0.051336661
0.47258347 0.0040807477 0.051331237
0.47261053 0.0049710409 0.051325813
0.47263759 0.0058613336 0.051320385
0.47266465 0.0067516286 0.051314961
0.47269171 0.0076419213 0.051309537
0.47271878 0.008532214 0.051304109
0.47274584 0.009422509 0.051298685
0.4727729 0.010312804 0.051293261
0.47192177 0.011185145 0.050780915
0.47194889 0.01207703 0.05077548
0.47197601 0.012968918 0.050770044
0.4720031 0.013860805 0.050764609
0.47203022 0.01475269 0.050759178
0.47117937 0.015634587 0.050246734
0.47120652 0.016528066 0.050241292
0.47035584 0.017414741 0.049728859
0.47038305 0.018309813 0.049723405
0.46681556 -0.031219127 0.047807604
0.46684292 -0.030319275 0.04780212
0.4677496 -0.029329764 0.048304353
0.46777689 -0.028431512 0.04829888
0.46780419 -0.027533256 0.048293408
0.46783149 -0.026634999 0.048287932
0.46785882 -0.02573674 0.048282459
0.46788612 -0.024838483 0.048276987
0.46879247 -0.023860121 0.04877929
0.46969873 -0.022884944 0.049281612
0.46972591 -0.021989875 0.049276158
0.46975312 -0.021094805 0.049270704
0.47065917 -0.020126 0.049773067
0.47156519 -0.019160375 0.050275479
0.47159231 -0.018268492 0.050270043
0.47249812 -0.01730765 0.050772451
0.47252518 -0.016417354 0.050767027
0.47255224 -0.01552706 0.050761599
0.47345787 -0.01457259 0.051264051
0.47348487 -0.01368389 0.051258639
0.47351187 -0.012795187 0.051253222
0.47353891 -0.011906488 0.051247805
0.47356591 -0.011017788 0.051242393
0.47359294 -0.010129086 0.051236976
0.47274166 -0.0092950026 0.050723623
0.47276872 -0.0084047094 0.050718199
0.47279578 -0.0075144167 0.050712775
0.47282284 -0.006624124 0.050707348
0.47284991 -0.0057338309 0.050701924
0.47287697 -0.0048435377 0.0506965
0.47290403 -0.003953245 0.050691072
0.47293109 -0.0030629521 0.050685648
0.47295815 -0.0021726517 0.050680224
0.47298521 -0.0012823587 0.050674796
0.47301227 -0.0003920657 0.050669372
0.47303933 0.00049822725 0.050663948
0.47306639 0.0013885202 0.05065852
0.47309345 0.0022788132 0.050653096
0.47312051 0.0031691079 0.050647672
0.47314757 0.0040594027 0.050642245
0.47317463 0.0049496959 0.05063682
0.47320169 0.0058399886 0.050631396
0.47322875 0.0067302836 0.050625969
0.47237846 0.0075962152 0.05011243
0.47240558 0.0084881019 0.050106995
0.4724327 0.0093799867 0.05010156
0.47245979 0.010271875 0.050096124
0.47248691 0.011163762 0.050090693
0.472514 0.012055647 0.050085258
0.47254112 0.012947535 0.050079823
0.47169116 0.013826208 0.049566172
0.47171834 0.014719686 0.049560729
0.47174549 0.015613165 0.049555283
0.47089577 0.016498212 0.049041621
0.47092298 0.017393282 0.049036168
0.47007343 0.018283105 0.048522484
0.46922395 0.019176112 0.048008773
0.46738574 -0.031240702 0.047111221
0.46741307 -0.03034085 0.047105737
0.46831876 -0.0293513 0.047609206
0.46834606 -0.028453048 0.047603734
0.46837336 -0.027554791 0.047598261
0.46840066 -0.026656535 0.047592785
0.46842796 -0.025758276 0.047587313
0.46845526 -0.024860019 0.04758184
0.46936062 -0.02388162 0.048085373
0.46938786 -0.022984955 0.048079908
0.47029305 -0.022011334 0.048583478
0.47032025 -0.021116262 0.048578024
0.47122532 -0.020147422 0.049081616
0.47125247 -0.019253941 0.04907617
0.47215742 -0.018289875 0.049579825
0.47218454 -0.017397989 0.04957439
0.47308931 -0.016438698 0.050078042
0.47311637 -0.015548405 0.050072614
0.47314343 -0.014658113 0.05006719
0.47317049 -0.01376782 0.050061766
0.47319755 -0.012877523 0.050056338
0.47322461 -0.01198723 0.050050914
0.47325167 -0.011096937 0.05004549
0.47327873 -0.010206644 0.050040063
0.47330579 -0.0093163475 0.050034638
0.47333285 -0.0084260544 0.050029214
0.47335991 -0.0075357617 0.050023787
0.47338697 -0.0066454685 0.050018363
0.47341403 -0.0057551758 0.050012939
0.47344109 -0.0048648827 0.050007515
0.47346815 -0.00397459 0.050002087
0.47349522 -0.0030842968 0.049996663
0.47352228 -0.0021939964 0.049991239
0.47267249 -0.0013440299 0.04947656
0.47269961 -0.00045214331 0.049471125
0.4727267 0.00043974331 0.049465694
0.47275382 0.0013316262 0.049460258
0.47278094 0.0022235129 0.049454823
0.47280803 0.0031154032 0.049449388
0.47283515 0.0040072878 0.049443953
0.47286227 0.0048991726 0.049438518
0.47288936 0.0057910592 0.049433082
0.47291648 0.0066829477 0.049427647
0.4729436 0.0075748325 0.049422212
0.47297069 0.0084667187 0.049416777
0.47299781 0.0093586035 0.049411342
0.4730249 0.010250492 0.049405906
0.47217584 0.011124348 0.048891056
0.47220299 0.012017827 0.04888561
0.47223014 0.012911309 0.048880164
0.47225729 0.013804787 0.048874721
0.47228447 0.014698265 0.048869275
0.4714357 0.015581679 0.048354395
0.47058704 0.016468279 0.047839493
0.47061431 0.017364942 0.047834028
0.46976581 0.01825632 0.047319099
0.46979311 0.019154577 0.047313627
0.46894476 0.020050731 0.046798665
0.46798325 -0.030362424 0.04640935
0.46888793 -0.029372836 0.046914048
0.46891522 -0.028474584 0.046908576
0.46894252 -0.027576327 0.046903104
0.46896982 -0.02667807 0.046897627
0.46899712 -0.025779812 0.046892155
0.46902442 -0.024881555 0.046886683
0.46992877 -0.023903117 0.047391456
0.46995601 -0.023006454 0.047385991
0.47086018 -0.022032794 0.047890786
0.47088739 -0.021137722 0.047885332
0.47179145 -0.020168843 0.048390158
0.4718186 -0.019275364 0.048384715
0.47272256 -0.018311258 0.0488896
0.47274965 -0.017419372 0.048884165
0.47277677 -0.016527481 0.048878729
0.47280389 -0.015635595 0.048873294
0.47370753 -0.014679458 0.049378198
0.47373459 -0.013789165 0.049372774
0.47376165 -0.012898868 0.04936735
0.47378871 -0.012008575 0.049361922
0.47381577 -0.011118282 0.049356498
0.47384283 -0.010227989 0.049351074
0.47386989 -0.0093376925 0.049345646
0.47389695 -0.0084473994 0.049340222
0.47304785 -0.0076086195 0.048824381
0.47307497 -0.0067167329 0.048818946
0.47310206 -0.0058248462 0.048813511
0.47312918 -0.0049329596 0.048808075
0.4731563 -0.0040410766 0.04880264
0.47318339 -0.00314919 0.048797209
0.47321051 -0.0022572996 0.048791774
0.47323763 -0.0013654131 0.048786338
0.47326472 -0.00047352651 0.048780903
0.47329184 0.00041836008 0.048775468
0.47331896 0.0013102429 0.048770033
0.47334605 0.0022021297 0.048764598
0.47337317 0.0030940198 0.048759162
0.4725247 0.0039550941 0.048243154
0.47255185 0.0048485724 0.048237707
0.472579 0.0057420507 0.048232265
0.47260618 0.0066355327 0.048226818
0.47263333 0.0075290115 0.048221376
0.47266048 0.0084224902 0.048215929
0.47268763 0.0093159685 0.048210487
0.47271481 0.010209449 0.04820504
0.47274196 0.011102927 0.048199598
0.47189403 0.011979932 0.047683522
0.47192124 0.012875005 0.047678068
0.47194844 0.013770076 0.047672614
0.47197565 0.014665146 0.047667161
0.47112796 0.015550115 0.047151037
0.4711552 0.01644678 0.047145572
0.47030768 0.017336527 0.046629418
0.47033498 0.018234784 0.046623942
0.46948758 0.019129308 0.046107762
0.46951491 0.020029157 0.046102278
0.4686676 0.020928457 0.045586035
0.46942976 -0.030292628 0.046224371
0.46945709 -0.029394371 0.046218898
0.46948439 -0.02849612 0.046213426
0.46951169 -0.027597863 0.04620795
0.46953899 -0.026699606 0.046202477
0.46956629 -0.025801348 0.046197005
0.47046965 -0.024821283 0.046702996
0.47049692 -0.023924615 0.046697531
0.47140014 -0.022949323 0.047203552
0.47142735 -0.022054253 0.047198094
0.47145456 -0.021159183 0.047192641
0.47148174 -0.020264111 0.047187187
0.47238475 -0.019296784 0.047693256
0.4724119 -0.018403308 0.04768781
0.47331479 -0.017440755 0.048193943
0.47334188 -0.016548865 0.048188508
0.473369 -0.015656978 0.048183072
0.47339612 -0.014765091 0.048177637
0.47342321 -0.013873206 0.048172202
0.47345033 -0.012981323 0.048166767
0.47347742 -0.012089436 0.048161332
0.47350454 -0.011197549 0.048155896
0.47353166 -0.010305663 0.048150461
0.47355875 -0.0094137723 0.048145026
0.47358587 -0.0085218893 0.048139591
0.47361299 -0.0076300027 0.048134156
0.47364008 -0.006738116 0.048128724
0.4736672 -0.0058462294 0.048123289
0.47369432 -0.0049543427 0.048117854
0.47372141 -0.0040624598 0.048112419
0.47374853 -0.0031705732 0.048106983
0.47377563 -0.002278683 0.048101548
0.4729279 -0.0014272016 0.047584362
0.47295505 -0.00053372129 0.04757892
0.4729822 0.00035975527 0.047573473
0.47300935 0.0012532355 0.047568031
0.47303653 0.002146712 0.047562584
0.47306368 0.0030401961 0.047557142
0.47309083 0.0039336728 0.047551695
0.47311798 0.0048271511 0.047546253
0.47314516 0.0057206294 0.047540806
0.47317231 0.0066141114 0.047535364
0.47232515 0.0074831145 0.047018103
0.47235236 0.0083781844 0.047012649
0.47237957 0.0092732562 0.047007196
0.47240674 0.010168331 0.047001742
0.47243395 0.011063401 0.046996288
0.47246116 0.011958472 0.04699083
0.47248837 0.012853545 0.046985377
0.47251558 0.013748617 0.046979923
0.47166884 0.014631953 0.046462577
0.47169611 0.015528617 0.046457112
0.47084951 0.016416734 0.045939736
0.47087681 0.017314991 0.045934264
0.4700304 0.018207883 0.045416858
0.47005773 0.019107733 0.045411378
0.4692114 0.020005403 0.044893909
0.46923879 0.020906845 0.044888418
0.46839264 0.021809295 0.044370957
0.46999893 -0.030314164 0.045529228
0.47002622 -0.029415907 0.045523752
0.47005352 -0.028517656 0.045518279
0.47095603 -0.027532771 0.046025474
0.47010815 -0.026721142 0.04550733
0.47101054 -0.025739444 0.046014547
0.47103781 -0.02484278 0.046009082
0.47106504 -0.023946112 0.046003617
0.47196728 -0.022970783 0.046510871
0.47199449 -0.022075713 0.046505418
0.47202167 -0.021180641 0.046499964
0.47204888 -0.020285571 0.046494506
0.47207609 -0.019390497 0.046489052
0.47297803 -0.018424729 0.046996366
0.47300518 -0.01753125 0.04699092
0.47303233 -0.016637765 0.046985477
0.47393411 -0.015678361 0.047492854
0.47396123 -0.014786474 0.047487419
0.47398832 -0.013894588 0.047481984
0.47401544 -0.013002705 0.047476549
0.47404256 -0.012110818 0.047471114
0.47406965 -0.011218932 0.047465678
0.47409678 -0.010327046 0.047460243
0.4741239 -0.0094351554 0.047454808
0.47415099 -0.0085432725 0.047449373
0.47417811 -0.0076513854 0.047443938
0.47420523 -0.0067594992 0.047438502
0.47335821 -0.0059160204 0.046920139
0.47338539 -0.0050225398 0.046914697
0.47341254 -0.0041290633 0.04690925
0.47343969 -0.0032355832 0.046903808
0.47346684 -0.0023420991 0.046898361
0.47349402 -0.0014486226 0.046892919
0.47352117 -0.00055514235 0.046887472
0.47267464 0.00030108046 0.046369057
0.47270185 0.0011961507 0.046363603
0.47272903 0.0020912245 0.046358149
0.47275624 0.0029862947 0.046352696
0.47278345 0.0038813669 0.046347242
0.47281066 0.0047764387 0.046341788
0.47283787 0.0056715109 0.046336334
0.47286507 0.0065665832 0.046330877
0.47289228 0.007461655 0.046325423
0.47291949 0.0083567249 0.046319969
0.47294667 0.0092517976 0.046314515
0.47297388 0.010146871 0.046309061
0.47300109 0.011041941 0.046303608
0.4730283 0.011937014 0.046298154
0.47218248 0.012817129 0.045779593
0.47220975 0.013713792 0.045774128
0.47223699 0.014610456 0.045768663
0.47139138 0.015496939 0.045250066
0.47141868 0.016395198 0.045244593
0.47057319 0.017286461 0.044725966
0.47060055 0.018186308 0.044720482
0.46975517 0.019082349 0.044201791
0.46978256 0.019983791 0.044196296
0.46893737 0.020884611 0.043677613
0.46896482 0.021787645 0.043672111
0.46811977 0.022693241 0.043153394
0.46814728 0.023597868 0.043147881
0.47144243 -0.030244261 0.04534794
0.47146967 -0.029347597 0.045342479
0.47149694 -0.028450932 0.045337014
0.47152418 -0.02755427 0.045331549
0.47155145 -0.026657606 0.045326084
0.47157869 -0.025760941 0.045320623
0.47160596 -0.024864277 0.045315158
0.4716332 -0.023967611 0.045309693
0.47253442 -0.022992242 0.04581818
0.47256163 -0.022097172 0.045812726
0.47258884 -0.0212021 0.045807272
0.47261605 -0.020307031 0.045801818
0.47264323 -0.019411957 0.045796365
0.47267044 -0.018516887 0.045790907
0.4735713 -0.01755267 0.046299465
0.47359848 -0.016659185 0.046294019
0.47362563 -0.01576571 0.046288572
0.47365278 -0.01487223 0.04628313
0.47367993 -0.013978753 0.046277683
0.47370711 -0.013085272 0.046272241
0.47373426 -0.012191796 0.046266794
0.47376141 -0.011298316 0.046261352
