# .PCD v0.7 - Point Cloud Data file format
VERSION 0.7
FIELDS x y z
SIZE 4 4 4
TYPE F F F
COUNT 1 1 1
WIDTH 1384
HEIGHT 1
VIEWPOINT 0 0 0 1 0 0 0
POINTS 1384
DATA ascii
0.41058812 0.085839845 0.049037706
0.41061765 0.086811364 0.049031787
0.41064718 0.08778289 0.049025863
0.40977013 0.088865079 0.048551686
0.4097997 0.089838192 0.048545755
0.40892273 0.090925179 0.048071522
0.40895236 0.091899879 0.04806558
0.4080756 0.092991635 0.047591344
0.40719891 0.09408658 0.047117088
0.40632236 0.095184699 0.046642814
0.40635213 0.096164189 0.046636842
0.40547565 0.097267099 0.046162501
0.40357918 0.044302899 0.045257051
0.40270129 0.045324542 0.044782005
0.40273121 0.046308801 0.044776008
0.40276113 0.047293063 0.04477001
0.40279105 0.048277322 0.044764012
0.40282097 0.049261585 0.044758014
0.4028509 0.050245844 0.044752017
0.40288079 0.051230103 0.044746019
0.40291071 0.052214365 0.044740021
0.40384799 0.05314691 0.045203157
0.40478519 0.054076269 0.045666311
0.40572235 0.055002443 0.046129514
0.40665933 0.055925433 0.046592705
0.40668905 0.056903321 0.046586748
0.40762591 0.057821535 0.047049969
0.40765557 0.058797833 0.04704402
0.40859228 0.059711266 0.047507271
0.40862191 0.06068597 0.047501333
0.40865153 0.061660673 0.047495391
0.40868115 0.062635377 0.047489453
0.40961769 0.063540846 0.047952779
0.40964726 0.064513959 0.047946848
0.40967682 0.065487072 0.047940921
0.40970641 0.066460177 0.04793499
0.40973598 0.06743329 0.04792906
0.40976557 0.068406403 0.047923129
0.40979514 0.069379516 0.047917198
0.40982473 0.070352629 0.047911271
0.40985429 0.071325742 0.047905341
0.40988389 0.072298855 0.04789941
0.40991345 0.07327196 0.047893479
0.40994304 0.074245073 0.047887553
0.40997261 0.075218186 0.047881622
0.4100022 0.076191299 0.047875691
0.41003177 0.077164404 0.047869761
0.41096747 0.0780444 0.048333216
0.410997 0.079015918 0.048327297
0.41102651 0.079987437 0.048321377
0.41105604 0.080958955 0.048315458
0.41108558 0.081930481 0.048309535
0.41111511 0.082901992 0.048303615
0.41023883 0.083976194 0.047828253
0.4102684 0.084949307 0.047822323
0.41029796 0.085922413 0.047816392
0.41032755 0.086895525 0.047810461
0.41035712 0.087868638 0.047804531
0.41038671 0.088841751 0.047798604
0.4095107 0.089927107 0.047323145
0.40954033 0.090901814 0.047317207
0.40866452 0.091991931 0.046841744
0.40869421 0.092968225 0.046835795
0.40781853 0.094063133 0.046360306
0.40694296 0.095161222 0.045884795
0.40606746 0.0962625 0.04540924
0.40519208 0.097366959 0.044933692
0.40522197 0.098349623 0.044927705
0.40329504 0.044316683 0.0440263
0.40332496 0.045300946 0.044020303
0.40335485 0.046285205 0.044014305
0.40338477 0.047269464 0.044008307
0.4034147 0.048253726 0.044002309
0.40344462 0.049237985 0.043996312
0.40347454 0.050222244 0.043990314
0.40350446 0.051206507 0.043984316
0.40444076 0.052140683 0.044448674
0.40447065 0.053123351 0.044442687
0.40540683 0.054052748 0.044907074
0.40634295 0.054978959 0.045371506
0.40727895 0.055901989 0.045835935
0.40730867 0.056879878 0.045829974
0.40824452 0.057798125 0.046294421
0.40827417 0.058774423 0.046288472
0.40830386 0.059750721 0.046282522
0.4092395 0.060662601 0.046747014
0.40926912 0.061637305 0.046741076
0.40929875 0.062612012 0.046735138
0.4093284 0.063586712 0.046729196
0.40935802 0.064561419 0.046723258
0.40938765 0.065536126 0.04671732
0.40941727 0.066510826 0.046711378
0.4094469 0.067485534 0.04670544
0.40947652 0.068460234 0.046699498
0.40950614 0.069434941 0.04669356
0.40953577 0.070409648 0.046687622
0.4104709 0.071302414 0.047152258
0.41050047 0.072275519 0.047146328
0.41053006 0.073248632 0.047140397
0.41055962 0.074221745 0.047134466
0.41058922 0.075194858 0.04712854
0.41061878 0.076167963 0.047122609
0.41064838 0.077141076 0.047116678
0.41067794 0.078114189 0.047110748
0.41070753 0.079087302 0.047104817
0.4107371 0.080060415 0.04709889
0.41076666 0.081033528 0.047092959
0.41079625 0.082006641 0.047087029
0.41082582 0.082979754 0.047081098
0.41085541 0.083952859 0.047075167
0.41088498 0.084925972 0.04706924
0.41091457 0.085899085 0.04706331
0.41094413 0.086872198 0.047057379
0.41097373 0.087845311 0.047051448
0.41009867 0.088929035 0.046574768
0.4101283 0.089903735 0.04656883
0.40925345 0.090992227 0.046092145
0.40928313 0.091968529 0.046086196
0.40840843 0.093061797 0.045609493
0.40753382 0.094158255 0.04513276
0.40665928 0.095257901 0.044655982
0.40578485 0.096360736 0.044179209
0.40581474 0.0973434 0.044173222
0.40494046 0.098451003 0.043696418
0.40391868 0.044293087 0.043264583
0.40394861 0.045277346 0.043258585
0.40397853 0.046261605 0.043252587
0.40400845 0.047245868 0.04324659
0.40403837 0.048230127 0.043240592
0.40406826 0.049214389 0.043234594
0.40409818 0.050198648 0.043228596
0.4041281 0.051182907 0.043222599
0.40506342 0.052117124 0.043688189
0.40509328 0.053099792 0.043682203
0.40602845 0.054029226 0.044147823
0.40696359 0.054955475 0.044613492
0.40789858 0.055878542 0.045079153
0.40792829 0.056856431 0.045073193
0.407958 0.057834323 0.045067232
0.40889281 0.058751017 0.045532919
0.40892246 0.059727315 0.04552697
0.40895215 0.060703613 0.045521021
0.40898183 0.061679907 0.045515072
0.40901151 0.062656201 0.045509122
0.40904117 0.063632503 0.045503173
0.40907085 0.064608797 0.045497224
0.40910053 0.065585099 0.045491274
0.41003487 0.066487461 0.045957062
0.41006449 0.067462161 0.045951121
0.41009411 0.068436868 0.045945182
0.41012374 0.069411576 0.045939244
0.41015339 0.070386276 0.045933302
0.41018301 0.071360983 0.045927364
0.41021264 0.07233569 0.045921423
0.41024226 0.07331039 0.045915484
0.41027188 0.07428509 0.045909546
0.41030151 0.075259805 0.045903604
0.41033113 0.076234505 0.045897666
0.41126496 0.077117749 0.046363596
0.41129452 0.078090861 0.046357665
0.41132411 0.079063974 0.046351735
0.41135368 0.080037087 0.046345804
0.41138327 0.0810102 0.046339877
0.41141284 0.081983313 0.046333946
0.41144243 0.082956418 0.046328016
0.41147199 0.083929531 0.046322085
0.41059777 0.085006848 0.045844208
0.41062739 0.085981548 0.04583827
0.41065702 0.086956248 0.045832332
0.41068664 0.087930962 0.04582639
0.41071627 0.088905662 0.045820452
0.4098424 0.089992523 0.045342542
0.40987208 0.090968817 0.045336593
0.40899831 0.092060462 0.044858668
0.40812469 0.093155287 0.044380713
0.40815446 0.09413477 0.044374742
0.40728089 0.095234379 0.043896731
0.40640751 0.096337177 0.043418728
0.40553421 0.097443148 0.042940702
0.40556413 0.098427407 0.042934705
0.40469098 0.099538162 0.042456649
0.40454233 0.044269487 0.04250288
0.40457225 0.04525375 0.042496882
0.40460217 0.046238009 0.042490885
0.40372747 0.047264315 0.04201211
0.40466201 0.048206531 0.042478889
0.40469193 0.049190789 0.042472892
0.40472186 0.050175048 0.04246689
0.40475175 0.051159311 0.042460892
0.40568608 0.052093562 0.042927708
0.40571594 0.053076234 0.042921718
0.4066501 0.054005705 0.043388575
0.40758422 0.054931995 0.043855473
0.40761399 0.055911474 0.043849505
0.40854791 0.056832988 0.044316411
0.40857762 0.057810877 0.044310451
0.40860736 0.058788765 0.04430449
0.40863708 0.059766658 0.044298533
0.40957075 0.060680207 0.044765484
0.40960044 0.061656501 0.044759534
0.40963009 0.062632799 0.044753585
0.40965977 0.063609093 0.044747636
0.40968946 0.064585395 0.044741686
0.40971911 0.065561689 0.044735737
0.40974879 0.066537984 0.044729788
0.40977848 0.067514285 0.044723839
0.40980816 0.06849058 0.044717889
0.40983781 0.069466881 0.04471194
0.4098675 0.070443176 0.044705991
0.40989718 0.07141947 0.044700041
0.40992686 0.072395772 0.044694092
0.41085985 0.073287018 0.045161169
0.41088948 0.074261725 0.045155227
0.4109191 0.075236432 0.045149289
0.41094872 0.076211132 0.045143351
0.41097835 0.077185839 0.045137409
0.411008 0.078160547 0.045131471
0.41103762 0.079135247 0.045125529
0.41106725 0.080109954 0.045119591
0.41109687 0.081084661 0.045113653
0.41112649 0.082059361 0.045107711
0.41115612 0.083034068 0.045101773
0.41118574 0.084008768 0.045095831
0.41121536 0.084983476 0.045089893
0.41124499 0.085958175 0.045083955
0.41037196 0.087040223 0.044604853
0.41040164 0.088016525 0.044598904
0.41043133 0.088992819 0.044592954
0.41046101 0.089969121 0.044587005
0.40958822 0.091059126 0.044107843
0.40871555 0.09215232 0.043628663
0.40874532 0.093131803 0.043622695
0.40787274 0.09422978 0.043143459
0.40700027 0.095330946 0.04266423
0.40703017 0.096313618 0.042658243
0.40615785 0.097419553 0.042178996
0.40618777 0.098403811 0.042172998
0.40531564 0.099514522 0.041693714
0.405166 0.044245891 0.041741174
0.4042922 0.045268971 0.041261189
0.40432215 0.046254825 0.04125518
0.40435213 0.047240678 0.041249171
0.40528566 0.048182931 0.041717183
0.40531558 0.049167193 0.041711185
0.4053455 0.050151452 0.041705187
0.40537542 0.051135711 0.04169919
0.40630871 0.052070003 0.042167235
0.40724191 0.05300111 0.042635314
0.40727174 0.053982183 0.042629335
0.40820482 0.05490851 0.04309747
0.4082346 0.055887993 0.043091502
0.40916753 0.056809541 0.043559637
0.40919724 0.057787433 0.04355368
0.40922695 0.058765318 0.04354772
0.4092567 0.059743211 0.043541759
0.40928641 0.060721099 0.043535803
0.40931612 0.061698992 0.043529842
0.40934587 0.062676877 0.043523885
0.40937558 0.063654773 0.043517925
0.40940529 0.064632662 0.043511964
0.40943503 0.06561055 0.043506008
0.40946475 0.066588439 0.043500047
0.40949446 0.067566328 0.04349409
0.4095242 0.068544216 0.04348813
0.40955392 0.069522113 0.04348217
0.4104861 0.070419766 0.043950442
0.41051579 0.071396068 0.043944493
0.41054547 0.072372362 0.043938544
0.41057512 0.073348656 0.043932594
0.4106048 0.074324958 0.043926645
0.41063449 0.075301252 0.043920696
0.41066417 0.076277547 0.043914746
0.41069382 0.077253848 0.043908797
0.41072351 0.078230143 0.043902848
0.41075319 0.079206444 0.043896899
0.41078284 0.080182746 0.043890949
0.41081253 0.08115904 0.043885
0.41084221 0.082135335 0.043879051
0.41087189 0.083111629 0.043873101
0.41090155 0.084087931 0.043867152
0.41093123 0.085064225 0.043861203
0.41096091 0.086040527 0.043855254
0.4109906 0.087016821 0.043849304
0.41102025 0.087993123 0.043843355
0.41014838 0.089079909 0.04336299
0.4101781 0.090057798 0.043357033
0.41020784 0.091035686 0.043351073
0.40933615 0.092128843 0.042870659
0.40846452 0.093225189 0.042390201
0.40849435 0.094206259 0.042384222
0.40762293 0.09530738 0.04190376
0.4076528 0.096290059 0.04189777
0.40678149 0.097395949 0.041417293
0.40591031 0.098505035 0.040936783
0.40594029 0.099490888 0.040930774
0.40597025 0.10047673 0.040924765
0.4048869 0.044259481 0.040504247
0.40491685 0.045245335 0.040498238
0.40494683 0.046231188 0.040492229
0.40497679 0.047217041 0.040486224
0.40590933 0.048159335 0.040955465
0.40593922 0.049143594 0.040949468
0.40596914 0.050127853 0.04094347
0.40599906 0.051112115 0.040937472
0.40693134 0.052046444 0.041406766
0.40696123 0.053029113 0.041400775
0.40789336 0.053958662 0.041870087
0.40882546 0.054885026 0.042339455
0.40885523 0.055864509 0.042333484
0.408885 0.056843992 0.042327516
0.40981686 0.057763986 0.042796895
0.40984657 0.058741875 0.042790938
0.40987632 0.059719767 0.042784978
0.40990603 0.060697656 0.042779017
0.40993574 0.061675545 0.042773061
0.40996549 0.062653437 0.0427671
0.4099952 0.063631326 0.042761143
0.41002491 0.064609215 0.042755183
0.41005465 0.065587103 0.042749222
0.41008437 0.066564992 0.042743266
0.41011408 0.067542888 0.042737305
0.41014382 0.068520769 0.042731348
0.41017354 0.069498666 0.042725388
0.41020325 0.070476554 0.042719427
0.41023299 0.071454443 0.042713471
0.4102627 0.072432332 0.04270751
0.41029242 0.07341022 0.042701554
0.41032216 0.074388109 0.042695593
0.41035187 0.075366005 0.042689633
0.41038162 0.076343894 0.042683676
0.41041133 0.077321783 0.042677715
0.41134211 0.078206733 0.043147296
0.4113718 0.079183035 0.043141346
0.41140148 0.080159336 0.043135397
0.41143113 0.081135631 0.043129448
0.41146082 0.082111932 0.043123499
0.41058967 0.083189122 0.04264196
0.41061938 0.084167011 0.042636003
0.41064912 0.0851449 0.042630043
0.41067883 0.086122788 0.042624086
0.41070855 0.087100677 0.042618126
0.41073829 0.088078573 0.042612165
0.410768 0.089056462 0.042606208
0.40989724 0.090146393 0.042124581
0.40992701 0.091125876 0.042118613
0.40995678 0.092105359 0.042112645
0.40908617 0.093201667 0.04163095
0.4082157 0.094301157 0.041149277
0.40824556 0.095283821 0.041143287
0.40737525 0.096388094 0.040661573
0.40740517 0.097372353 0.040655576
0.406535 0.098481402 0.040173832
0.40656495 0.099467248 0.040167823
0.40659493 0.1004531 0.040161818
0.40662488 0.10143895 0.040155809
0.40551156 0.044235848 0.039741319
0.40554151 0.045221701 0.03973531
0.40557149 0.046207551 0.039729305
0.40560144 0.047193404 0.039723296
0.40653297 0.048135735 0.040193763
0.40656289 0.049119998 0.040187765
0.40659279 0.050104257 0.040181767
0.40662271 0.051088516 0.040175769
0.407554 0.052022886 0.040646292
0.40758386 0.053005554 0.040640306
0.40851501 0.05393514 0.041110847
0.40854481 0.054916218 0.041104872
0.40947586 0.055841025 0.04157548
0.40950564 0.056820508 0.041569512
0.40953541 0.057799991 0.041563544
0.40956518 0.058779471 0.041557573
0.40959495 0.059758954 0.041551605
0.40962473 0.060738437 0.041545637
0.4096545 0.06171792 0.041539669
0.40968427 0.062697403 0.041533701
0.40971404 0.063676886 0.041527729
0.40974382 0.064656369 0.041521762
0.40977359 0.065635853 0.041515794
0.40980336 0.066615328 0.041509826
0.40983313 0.067594819 0.041503854
0.40986291 0.068574294 0.041497886
0.40989265 0.069553778 0.041491918
0.40992242 0.070533261 0.04148595
0.40995219 0.071512744 0.041479982
0.40998197 0.072492227 0.041474011
0.41001174 0.07347171 0.041468043
0.41094178 0.074364662 0.041938815
0.41097149 0.075342558 0.041932855
0.41100121 0.076320447 0.041926898
0.41103095 0.077298336 0.041920938
0.41106066 0.078276224 0.041914981
0.41109037 0.079254113 0.04190902
0.41112012 0.080232009 0.04190306
0.41114983 0.081209898 0.041897103
0.41117954 0.082187787 0.041891143
0.41120929 0.083165675 0.041885186
0.411239 0.084143564 0.041879226
0.41126874 0.085121453 0.041873265
0.41039878 0.086204976 0.041390449
0.41042855 0.087184459 0.041384481
0.41045833 0.088163942 0.041378513
0.4104881 0.089143425 0.041372545
0.41051787 0.090122908 0.041366577
0.41054764 0.091102391 0.041360606
0.40967798 0.092197068 0.040877692
0.40880847 0.093294926 0.040394794
0.40883833 0.094277598 0.040388804
0.40796897 0.095380232 0.039905868
0.40799889 0.096364498 0.039899871
0.40712968 0.097471908 0.039416913
0.40715963 0.098457761 0.039410904
0.40718961 0.099443614 0.039404899
0.40721956 0.10042947 0.03939889
0.40724954 0.10141532 0.039392881
0.40613621 0.044212211 0.038978368
0.40616617 0.045198064 0.038972363
0.40619615 0.046183914 0.038966354
0.4062261 0.047169771 0.038960345
0.40625608 0.048155621 0.03895434
0.40718654 0.049096398 0.039426055
0.40721646 0.050080657 0.039420057
0.40724638 0.05106492 0.039414059
0.40817663 0.051999323 0.039885812
0.40820652 0.052981995 0.039879821
0.40823638 0.05396466 0.039873835
0.40916646 0.054892696 0.040345628
0.40919629 0.05587377 0.040339649
0.41012627 0.056797024 0.040811494
0.41015604 0.057776507 0.040805526
0.41018581 0.058755986 0.040799558
0.41021559 0.059735473 0.04079359
0.41024536 0.060714953 0.040787619
0.41027513 0.061694436 0.040781651
0.4103049 0.062673919 0.040775683
0.41033468 0.063653402 0.040769715
0.40946466 0.06470345 0.040285841
0.40949449 0.06568452 0.040279865
0.40952429 0.066665597 0.040273886
0.40955412 0.067646675 0.040267907
0.40958393 0.068627745 0.040261928
0.40961376 0.069608822 0.040255949
0.40964359 0.0705899 0.040249974
0.41057283 0.07148926 0.040721964
0.4106026 0.072468743 0.040715996
0.41063237 0.073448226 0.040710028
0.41066214 0.074427709 0.04070406
0.41069192 0.075407192 0.040698089
0.41072169 0.076386668 0.040692121
0.41075146 0.077366151 0.040686153
0.41078123 0.078345634 0.040680185
0.41081101 0.079325117 0.040674213
0.41084078 0.0803046 0.040668245
0.41087055 0.081284083 0.040662277
0.41090032 0.082263567 0.04065631
0.4109301 0.08324305 0.040650342
0.41095987 0.084222533 0.04064437
0.41098964 0.085202016 0.040638402
0.41101941 0.086181492 0.040632434
0.41104919 0.087160975 0.040626466
0.41107896 0.088140465 0.040620498
0.41021016 0.089230329 0.040136382
0.41023996 0.090211399 0.040130403
0.4102698 0.091192476 0.040124424
0.40940124 0.092288703 0.0396403
0.40943113 0.093271367 0.03963431
0.40946099 0.094254032 0.039628323
0.40859264 0.095356636 0.039144155
0.40862256 0.096340902 0.039138157
0.40775433 0.097448274 0.038653962
0.40778431 0.098434128 0.038647957
0.40781426 0.099419981 0.038641948
0.40784425 0.10040583 0.038635939
0.4078742 0.10139169 0.038629934
0.40700629 0.10250862 0.038145687
0.40676087 0.044188574 0.038215432
0.40679085 0.045174427 0.038209423
0.4068208 0.046160281 0.038203415
0.40685076 0.047146134 0.038197409
0.40688074 0.048131987 0.0381914
0.40691069 0.049117841 0.038185395
0.40694067 0.050103694 0.038179386
0.40787002 0.05104132 0.038652353
0.40789995 0.052025583 0.038646355
0.40882915 0.052958433 0.039119352
0.40885901 0.053941101 0.039113361
0.40888888 0.054923769 0.039107375
0.4098179 0.055850249 0.039580408
0.40984774 0.056831323 0.039574433
0.40987754 0.0578124 0.039568454
0.40990737 0.058793474 0.039562475
0.40993717 0.059774552 0.039556496
0.40996701 0.060755625 0.039550517
0.40999684 0.061736699 0.039544538
0.41002664 0.062717773 0.039538562
0.41005647 0.063698851 0.039532583
0.40918759 0.064750448 0.039047495
0.40921745 0.065733112 0.039041504
0.40924731 0.066715777 0.039035518
0.40927717 0.067698449 0.039029531
0.40930703 0.068681121 0.039023541
0.40933692 0.069663785 0.039017554
0.40936679 0.07064645 0.039011564
0.41029504 0.071547449 0.039484754
0.41032484 0.072528526 0.039478779
0.41035467 0.073509604 0.0394728
0.41038448 0.074490674 0.039466821
0.41041431 0.075471751 0.039460842
0.41044414 0.076452829 0.039454862
0.41047394 0.077433899 0.039448883
0.41050377 0.078414977 0.039442908
0.41053358 0.079396047 0.039436929
0.41056341 0.080377132 0.03943095
0.41059324 0.081358202 0.039424971
0.41062304 0.082339279 0.039418992
0.41065288 0.083320349 0.039413016
0.41068268 0.084301427 0.039407037
0.41071251 0.085282505 0.039401058
0.41074234 0.086263582 0.039395079
0.41077214 0.087244652 0.0393891
0.40990442 0.088334478 0.03890378
0.40993428 0.089317143 0.03889779
0.40996414 0.090299807 0.038891803
0.40999404 0.091282472 0.038885813
0.4100239 0.092265144 0.038879827
0.40915644 0.093364514 0.038394447
0.40918636 0.094348773 0.03838845
0.40921628 0.09533304 0.038382452
0.40924621 0.096317299 0.038376454
0.40837899 0.097424641 0.037891027
0.40840897 0.098410487 0.037885018
0.40843892 0.099396341 0.037879009
0.40757194 0.10051005 0.037393544
0.40760195 0.10149749 0.037387528
0.40763196 0.10248494 0.037381507
0.40558803 0.044239014 0.03649218
0.40651682 0.045189422 0.036966331
0.40654683 0.046176866 0.036960315
0.40657687 0.047164313 0.036954295
0.40660688 0.048151758 0.036948279
0.40753537 0.049094204 0.037422448
0.40756533 0.050080057 0.037416443
0.40759531 0.051065911 0.037410434
0.40852359 0.052001983 0.037884645
0.40855351 0.052986246 0.037878647
0.40858343 0.053970505 0.03787265
0.40951154 0.05490021 0.03834689
0.4095414 0.055882875 0.038340904
0.40957126 0.056865543 0.038334917
0.40960115 0.057848211 0.038328927
0.40963101 0.05883088 0.03832294
0.40966088 0.059813548 0.03831695
0.40969074 0.060796216 0.038310964
0.40972063 0.061778884 0.038304977
0.40975049 0.062761553 0.038298987
0.40978035 0.063744217 0.038293
0.40981022 0.064726889 0.03828701
0.40984008 0.065709554 0.038281024
0.40986997 0.066692218 0.038275033
0.40989983 0.06767489 0.038269047
0.40992969 0.068657562 0.03826306
0.40995955 0.069640227 0.03825707
0.40998945 0.070622891 0.038251083
0.41001931 0.071605563 0.038245093
0.41004917 0.072588228 0.038239107
0.41007903 0.073570892 0.038233116
0.41010889 0.074553564 0.03822713
0.41013879 0.075536236 0.038221143
0.41016865 0.076518901 0.038215153
0.41019851 0.077501565 0.038209166
0.41022837 0.07848423 0.038203176
0.41025826 0.079466902 0.03819719
0.41028813 0.080449574 0.038191203
0.41031799 0.081432238 0.038185213
0.41034785 0.08241491 0.038179226
0.41037771 0.083397575 0.038173236
0.4104076 0.084380239 0.038167249
0.41043746 0.085362904 0.038161259
0.41046733 0.086345576 0.038155273
0.41049719 0.08732824 0.038149286
0.41052708 0.088310912 0.038143296
0.41055694 0.089293584 0.038137309
0.40969035 0.090388142 0.03765073
0.40972027 0.091372401 0.037644733
0.40975019 0.092356659 0.037638735
0.40978011 0.093340918 0.037632737
0.40981004 0.094325177 0.03762674
0.40894374 0.095429294 0.037140097
0.40897369 0.096415147 0.037134089
0.40900367 0.097401001 0.03712808
0.40903363 0.098386854 0.037122075
0.40906361 0.099372707 0.037116066
0.40819761 0.10048638 0.036629368
0.40822762 0.10147382 0.036623348
0.40825763 0.10246127 0.036617331
0.40828764 0.10344871 0.036611315
0.40621471 0.044215303 0.035726782
0.40624478 0.045204341 0.035720754
0.40627486 0.04619338 0.035714731
0.4063049 0.047182418 0.035708703
0.40723252 0.048128083 0.036184113
0.40726256 0.049115531 0.036178097
0.40729257 0.050102975 0.036172077
0.40821996 0.051042274 0.036647499
0.40824991 0.052028127 0.03664149
0.40917715 0.052962646 0.037116941
0.40920708 0.053946909 0.037110943
0.409237 0.054931168 0.037104946
0.40926692 0.05591543 0.037098948
0.41019392 0.056841984 0.037574444
0.41022378 0.057824653 0.037568457
0.41025364 0.058807321 0.037562467
0.41028351 0.059789989 0.037556481
0.4103134 0.060772657 0.03755049
0.41034326 0.061755322 0.037544504
0.41037312 0.062737994 0.037538517
0.40950626 0.063789509 0.037050966
0.40953615 0.064773768 0.037044968
0.40956607 0.065758027 0.037038971
0.409596 0.066742294 0.037032973
0.40962592 0.067726552 0.037026975
0.40965584 0.068710811 0.037020978
0.40968576 0.06969507 0.03701498
0.40971565 0.070679329 0.037008982
0.40974557 0.071663596 0.037002984
0.4097755 0.072647855 0.036996987
0.40980542 0.073632114 0.036990989
0.40983534 0.074616373 0.036984991
0.40986526 0.075600639 0.036978994
0.40989515 0.076584898 0.036972996
0.40992507 0.077569157 0.036966998
0.40995499 0.078553416 0.036961
0.40998492 0.079537675 0.036955003
0.41001484 0.080521941 0.036949005
0.41004476 0.0815062 0.036943007
0.41007468 0.082490459 0.03693701
0.41010457 0.083474718 0.036931008
0.41013449 0.084458977 0.03692501
0.41016442 0.085443236 0.036919013
0.41019434 0.086427502 0.036913015
0.41022426 0.087411761 0.036907017
0.41025418 0.088396028 0.03690102
0.4102841 0.089380287 0.036895022
0.41031399 0.090364546 0.036889024
0.41034392 0.091348805 0.036883026
0.41037384 0.092333063 0.036877029
0.40950847 0.093433954 0.036389172
0.40953842 0.0944198 0.036383167
0.4095684 0.095405653 0.036377158
0.40959835 0.096391514 0.036371149
0.40962833 0.097377367 0.036365144
0.40876323 0.098487809 0.035877235
0.40879324 0.099475257 0.035871219
0.40882328 0.1004627 0.035865199
0.40885329 0.10145015 0.035859182
0.4088833 0.10243759 0.035853166
0.40801844 0.1035576 0.035365168
0.40501782 0.043273289 0.034002211
0.40504798 0.044265512 0.033996165
0.40507814 0.045257736 0.033990119
0.40600491 0.046209812 0.034466699
0.40603504 0.047200445 0.03446066
0.40696165 0.048147742 0.034937266
0.40699172 0.049136784 0.034931239
0.40791824 0.050079301 0.035407901
0.40794826 0.051066749 0.035401884
0.40887457 0.05200449 0.035878547
0.40890455 0.052990343 0.035872538
0.4089345 0.053976197 0.035866529
0.40986064 0.054907572 0.036343236
0.40989056 0.05589183 0.036337238
0.40992048 0.056876089 0.03633124
0.40995041 0.057860348 0.036325242
0.40998033 0.058844611 0.036319245
0.41001022 0.05982887 0.036313247
0.41004014 0.060813133 0.036307249
0.41007006 0.061797392 0.036301252
0.41009998 0.062781654 0.036295254
0.4101299 0.063765913 0.036289256
0.41015983 0.064750172 0.036283258
0.41018975 0.065734431 0.036277261
0.41021964 0.066718698 0.036271263
0.40935403 0.06777814 0.035782427
0.40938398 0.068763994 0.035776418
0.40941396 0.069749847 0.035770409
0.40944391 0.0707357 0.035764404
0.4094739 0.071721554 0.035758395
0.40950385 0.072707407 0.035752386
0.40953383 0.073693253 0.035746381
0.40956378 0.074679106 0.035740372
0.40959376 0.07566496 0.035734367
0.40962371 0.076650813 0.035728358
0.40965369 0.077636667 0.035722349
0.40968364 0.07862252 0.035716344
0.40971363 0.079608373 0.035710335
0.40974358 0.080594234 0.035704326
0.40977356 0.08158008 0.035698321
0.40980351 0.082565933 0.035692312
0.40983346 0.083551787 0.035686307
0.40986344 0.08453764 0.035680298
0.40989339 0.085523494 0.035674289
0.40992337 0.086509347 0.035668284
0.40995333 0.0874952 0.035662275
0.40998331 0.088481054 0.035656266
0.41001326 0.089466907 0.035650261
0.41004324 0.09045276 0.035644252
0.41007319 0.091438614 0.035638243
0.41010317 0.092424467 0.035632238
0.41013312 0.093410321 0.035626229
0.4101631 0.094396167 0.035620224
0.41019306 0.09538202 0.035614215
0.41022304 0.096367873 0.035608206
0.40935889 0.097476698 0.035119075
0.4093889 0.098464139 0.035113059
0.40941894 0.099451587 0.035107039
0.40944895 0.10043903 0.035101023
0.40947896 0.10142647 0.035095006
0.40861508 0.10254485 0.034605782
0.40864512 0.10353389 0.034599755
0.40778145 0.10465705 0.034110539
0.40385506 0.04332016 0.032266688
0.40478098 0.044278648 0.03274446
0.4048112 0.045272462 0.032738402
0.40573701 0.04622617 0.033216201
0.40576717 0.047218394 0.033210155
0.40669283 0.048167326 0.033687983
0.4076184 0.049113069 0.034165826
0.40764844 0.050102107 0.034159802
0.40857393 0.051043075 0.034637708
0.40860394 0.052030519 0.034631688
0.40952921 0.052966706 0.035109594
0.40955919 0.05395256 0.035103586
0.40958914 0.054938413 0.03509758
0.40961912 0.055924267 0.035091572
0.40964907 0.05691012 0.035085563
0.40967906 0.057895973 0.035079557
0.40970901 0.058881827 0.035073549
0.41063389 0.059805274 0.035551529
0.40976894 0.06085353 0.035061534
0.40979889 0.061839383 0.035055526
0.40982887 0.06282524 0.03504952
0.40985882 0.063811094 0.035043512
0.4098888 0.064796947 0.035037503
0.40991876 0.065782793 0.035031497
0.40994874 0.066768646 0.035025489
0.40997869 0.0677545 0.03501948
0.41000867 0.068740353 0.035013475
0.41003862 0.069726206 0.035007466
0.4100686 0.07071206 0.03500146
0.41009855 0.071697913 0.034995452
0.41012853 0.072683766 0.034989443
0.41015849 0.07366962 0.034983438
0.41018847 0.074655473 0.034977429
0.41021842 0.075641327 0.03497142
0.41024837 0.07662718 0.034965415
0.41027835 0.077613033 0.034959406
0.4103083 0.078598887 0.034953397
0.41033828 0.07958474 0.034947392
0.41036823 0.080570593 0.034941383
0.41039822 0.081556447 0.034935378
0.41042817 0.0825423 0.034929369
0.41045815 0.083528154 0.03492336
0.4104881 0.084514 0.034917355
0.41051808 0.085499853 0.034911346
0.41054803 0.086485706 0.034905337
0.41057801 0.08747156 0.034899332
0.41060796 0.08845742 0.034893323
0.41063794 0.089443274 0.034887318
0.4106679 0.09042912 0.034881309
0.40980449 0.091528349 0.034391001
0.4098345 0.092515789 0.034384985
0.40986452 0.093503237 0.034378968
0.40989453 0.094490677 0.034372948
0.40992454 0.095478125 0.034366932
0.40995455 0.096465573 0.034360915
0.40998456 0.097453021 0.034354899
0.4100146 0.098440461 0.034348879
0.40915155 0.099554025 0.033858452
0.40918162 0.10054307 0.033852428
0.4092117 0.1015321 0.033846401
0.40924177 0.10252114 0.033840373
0.40837902 0.10364266 0.033349931
0.40751639 0.10476737 0.032859467
0.40266588 0.042368285 0.030532297
0.40269625 0.043366883 0.030526211
0.40362129 0.044328589 0.031005194
0.40454629 0.045287114 0.031484224
0.40547112 0.046242453 0.031963244
0.40639588 0.047194608 0.032442283
0.40642604 0.048186827 0.032436237
0.40735063 0.049134206 0.032915313
0.40738073 0.050124835 0.032909274
0.4083052 0.051067434 0.033388376
0.40833527 0.052056473 0.033382349
0.40925962 0.052994289 0.033861503
0.40928963 0.053981736 0.033855483
0.40931964 0.05496918 0.033849467
0.41024378 0.05590063 0.034328632
0.41027373 0.056886483 0.034322627
0.41030371 0.057872336 0.034316618
0.41033366 0.05885819 0.034310609
0.41036364 0.059844043 0.034304604
0.4103936 0.060829896 0.034298595
0.41042355 0.06181575 0.03429259
0.41045353 0.0628016 0.034286581
0.41048348 0.063787453 0.034280572
0.40961978 0.06484364 0.033789296
0.40964979 0.06583108 0.033783279
0.40967983 0.066818528 0.033777259
0.40970984 0.067805976 0.033771243
0.40973985 0.068793423 0.033765227
0.40976986 0.069780864 0.03375921
0.40979987 0.070768312 0.03375319
0.40982988 0.071755759 0.033747174
0.4098599 0.0727432 0.033741158
0.40988991 0.073730648 0.033735141
0.40991992 0.074718095 0.033729121
0.40994993 0.075705543 0.033723105
0.40997994 0.076692984 0.033717088
0.41000998 0.077680431 0.033711072
0.41003999 0.078667872 0.033705052
0.41007 0.079655319 0.033699036
0.41010001 0.080642775 0.033693019
0.41013002 0.081630215 0.033687003
0.41016003 0.082617663 0.033680983
0.41019005 0.083605111 0.033674967
0.41022006 0.084592551 0.03366895
0.41025007 0.085579999 0.033662934
0.41028008 0.086567439 0.033656918
0.41031012 0.087554887 0.033650897
0.41034013 0.088542335 0.033644881
0.41037014 0.089529783 0.033638865
0.41040015 0.090517223 0.033632848
0.41043016 0.091504671 0.033626828
0.41046017 0.092492118 0.033620812
0.41049019 0.093479559 0.033614796
0.4105202 0.094467007 0.033608779
0.41055021 0.095454454 0.033602759
0.41058022 0.096441902 0.033596743
0.40971813 0.09755224 0.033105109
0.40974817 0.098541282 0.033099081
0.40977824 0.099530309 0.033093054
0.40980831 0.10051936 0.033087026
0.40983838 0.10150839 0.033081003
0.40897658 0.10262828 0.032589335
0.40811494 0.10375135 0.032097641
0.4081451 0.10474358 0.032091595
0.40639189 0.10600705 0.031114211
0.40332898 0.043342941 0.029753407
0.40335932 0.044341534 0.029747322
0.40428331 0.045301691 0.030227548
0.40520725 0.046258654 0.030707819
0.4052375 0.047254067 0.030701753
0.40705472 0.048163041 0.031668365
0.40708488 0.049155265 0.031662319
0.40800843 0.050101086 0.032142632
0.40803853 0.051091716 0.032136597
0.40896195 0.052032761 0.032616936
0.40899199 0.0530218 0.032610912
0.4099153 0.053958062 0.033091307
0.40994534 0.054945506 0.03308529
0.40997535 0.055932954 0.033079274
0.41000536 0.056920398 0.033073254
0.41003537 0.057907842 0.033067238
0.41006538 0.058895286 0.033061221
0.41009539 0.059882738 0.033055205
0.4101254 0.060870182 0.033049185
0.41015542 0.061857626 0.033043168
0.41018543 0.062845074 0.033037152
0.41021544 0.063832521 0.033031136
0.41024545 0.064819962 0.033025116
0.41027549 0.06580741 0.033019099
0.4103055 0.066794857 0.033013083
0.41033551 0.067782305 0.033007067
0.409473 0.068846412 0.032514479
0.40950307 0.069835447 0.032508451
0.40953311 0.070824489 0.032502424
0.40956318 0.071813531 0.0324964
0.40959325 0.072802566 0.032490373
0.4096233 0.073791601 0.032484345
0.40965337 0.074780643 0.032478318
0.40968344 0.075769685 0.03247229
0.40971351 0.07675872 0.032466263
0.40974355 0.077747762 0.032460235
0.40977362 0.078736797 0.032454211
0.40980369 0.079725832 0.032448184
0.40983373 0.080714874 0.032442156
0.4098638 0.081703916 0.032436129
0.40989387 0.082692951 0.032430101
0.40992394 0.083681993 0.032424074
0.40995398 0.084671028 0.03241805
0.40998405 0.085660063 0.032412022
0.41001412 0.086649105 0.032405995
0.41004416 0.08763814 0.032399967
0.41007423 0.088627182 0.03239394
0.4101043 0.089616217 0.032387912
0.41013438 0.090605259 0.032381888
0.41016442 0.091594294 0.032375861
0.41019449 0.092583336 0.032369833
0.41022456 0.093572371 0.032363806
0.41025463 0.094561413 0.032357778
0.41028467 0.095550448 0.032351751
0.41031474 0.09653949 0.032345723
0.41034481 0.097528525 0.0323397
0.41037485 0.098517567 0.032333672
0.40951395 0.099632636 0.031840801
0.40954408 0.10062326 0.031834763
0.40957418 0.10161389 0.031828728
0.40871346 0.10273534 0.031335816
0.40874362 0.10372756 0.03132977
0.40699235 0.10498779 0.03034994
0.40613186 0.10611879 0.029856944
0.40527156 0.10725297 0.029363958
0.40001968 0.11110052 0.026424022
0.40214583 0.042387649 0.028011665
0.40306899 0.043354213 0.028493084
0.40399206 0.044317592 0.028974524
0.40402243 0.045316186 0.028968439
0.40494534 0.046274789 0.029449906
0.40586823 0.047230199 0.02993142
0.40679094 0.048182432 0.030412927
0.40771359 0.049131475 0.030894455
0.40774375 0.050123699 0.030888408
0.40866622 0.051067967 0.031369962
0.40869632 0.052058596 0.031363927
0.40961868 0.052998088 0.031845506
0.40964875 0.053987127 0.031839479
0.40967882 0.054976162 0.031833451
0.40970886 0.0559652 0.031827424
0.40973893 0.056954239 0.031821396
0.409769 0.057943277 0.031815372
0.40979904 0.058932316 0.031809345
0.40982911 0.059921354 0.031803317
0.40985918 0.060910393 0.03179729
0.40988925 0.061899431 0.031791262
0.40991929 0.062888473 0.031785235
0.40994936 0.063877508 0.031779211
0.40997943 0.06486655 0.031773183
0.4100095 0.065855585 0.031767156
0.41003954 0.06684462 0.031761128
0.41006961 0.067833662 0.031755101
0.41009969 0.068822697 0.031749073
0.41012973 0.069811739 0.031743046
0.4101598 0.070800774 0.031737022
0.41018987 0.071789816 0.031730995
0.41021994 0.072778851 0.031724967
0.41024998 0.073767893 0.03171894
0.41028005 0.074756928 0.031712912
0.41031012 0.07574597 0.031706885
0.41034016 0.076735005 0.031700861
0.41037023 0.077724047 0.031694833
0.4104003 0.078713082 0.031688806
0.41043037 0.079702117 0.031682778
0.41046041 0.080691166 0.031676751
0.41049048 0.081680201 0.031670723
0.41052055 0.082669243 0.031664699
0.41055059 0.083658278 0.031658672
0.41058066 0.084647313 0.031652644
0.41061074 0.085636355 0.031646617
0.41064081 0.08662539 0.031640589
0.41067085 0.087614425 0.031634562
0.41070092 0.088603474 0.031628534
0.41073099 0.089592509 0.03162251
0.41076103 0.090581551 0.031616483
0.4107911 0.091570586 0.031610455
0.41082117 0.092559621 0.031604428
0.40996099 0.093665101 0.031110387
0.40999109 0.09465573 0.03110435
0.41002119 0.095646359 0.031098315
0.41005132 0.096636996 0.031092279
0.41008142 0.097627625 0.031086242
0.41011155 0.098618262 0.031080205
0.41014165 0.099608883 0.031074168
0.40928185 0.1007271 0.030580044
0.40931201 0.10171933 0.030573998
0.40845236 0.10284232 0.030079845
0.4075928 0.10396851 0.029585673
0.40762305 0.10496392 0.029579608
0.40676358 0.10609489 0.029085379
0.40501466 0.10736617 0.028103013
0.40415549 0.1085051 0.027608763
0.40240684 0.10978755 0.026626304
0.40065846 0.11107635 0.025643831
0.39979967 0.11222802 0.025149504
0.40185827 0.041393846 0.026753735
0.40278059 0.042363632 0.027236395
0.40281105 0.043365411 0.027230289
0.40373313 0.044330422 0.027712952
0.40465516 0.045292247 0.028195634
0.40557706 0.046250883 0.028678335
0.40560737 0.047247887 0.028672259
0.40652919 0.048201744 0.029155018
0.40745085 0.049152419 0.029637761
0.40837243 0.050099909 0.030120531
0.40929392 0.051044215 0.030603319
0.40932402 0.052034847 0.030597283
0.40935415 0.053025477 0.030591246
0.41027543 0.053963412 0.031074073
0.41030547 0.05495245 0.031068048
0.41033554 0.055941489 0.03106202
0.41036561 0.056930527 0.031055992
0.41039568 0.057919566 0.031049967
0.41042572 0.058908604 0.031043939
0.41045579 0.059897643 0.031037912
0.41048586 0.060886681 0.031031886
0.41051593 0.06187572 0.031025859
0.41054597 0.062864758 0.031019831
0.41057605 0.063853793 0.031013804
0.41060612 0.064842835 0.031007778
0.41063616 0.06583187 0.03100175
0.40977567 0.066894308 0.030506734
0.4098058 0.067884944 0.030500697
0.4098359 0.068875574 0.03049466
0.40986601 0.069866203 0.030488623
0.40989614 0.070856832 0.030482586
0.40992624 0.071847469 0.03047655
0.40995634 0.072838098 0.030470513
0.40998647 0.073828727 0.030464476
0.41001657 0.074819356 0.030458441
0.4100467 0.075809993 0.030452404
0.4100768 0.076800622 0.030446367
0.4101069 0.077791251 0.030440331
0.41013703 0.07878188 0.030434294
0.41016713 0.07977251 0.030428257
0.41019723 0.080763146 0.03042222
0.41022736 0.081753783 0.030416183
0.41025746 0.082744412 0.030410146
0.41028756 0.083735041 0.030404111
0.41031769 0.084725671 0.030398075
0.41034779 0.0857163 0.030392038
0.41037789 0.086706929 0.030386001
0.41040802 0.087697558 0.030379964
0.41043812 0.088688195 0.030373927
0.41046822 0.089678831 0.03036789
0.41049835 0.090669461 0.030361854
0.41052845 0.09166009 0.030355817
0.41055855 0.092650719 0.03034978
0.41058868 0.093641348 0.030343745
0.41061878 0.094631977 0.030337708
0.41064888 0.095622607 0.030331671
0.40978992 0.096734427 0.029836353
0.40982008 0.097726651 0.029830307
0.40985024 0.098718867 0.029824261
0.4098804 0.09971109 0.029818214
0.40991056 0.10070331 0.029812166
0.40905187 0.10182468 0.02931679
0.40819326 0.10294924 0.028821401
0.40822351 0.10394464 0.028815335
0.40736502 0.10507399 0.028319884
0.40650666 0.1062065 0.027824439
0.40564841 0.1073422 0.027328975
0.40390164 0.10861979 0.026344078
0.40304363 0.10976345 0.025848571
0.40218571 0.1109103 0.025353039
0.40043947 0.11220381 0.02436807
0.39958176 0.11335862 0.023872465
0.40249404 0.041369788 0.025977241
0.40252453 0.042373162 0.025971128
0.40344578 0.043341395 0.02645503
0.40436688 0.044306442 0.026938926
0.40439728 0.045306627 0.02693283
0.40531823 0.046266899 0.027416751
0.40623909 0.047223981 0.027900694
0.40715989 0.048177879 0.028384686
0.40808058 0.049128592 0.028868662
0.40900114 0.05007612 0.029352665
0.4090313 0.051068347 0.029346619
0.40995172 0.052011095 0.029830644
0.40998182 0.053001728 0.029824609
0.41001195 0.053992357 0.029818572
0.41004205 0.05498299 0.029812535
0.41007215 0.055973623 0.029806498
0.41010228 0.056964252 0.029800462
0.41013238 0.057954881 0.029794425
0.41016248 0.058945511 0.029788388
0.41019261 0.059936147 0.029782351
0.41022271 0.060926776 0.029776314
0.41025281 0.061917406 0.029770279
0.41028294 0.062908038 0.029764242
0.41031304 0.063898668 0.029758206
0.41034314 0.064889297 0.029752169
0.41037327 0.065879934 0.029746132
0.41040337 0.066870563 0.029740095
0.4104335 0.067861192 0.029734058
0.4104636 0.068851821 0.029728021
0.4104937 0.06984245 0.029721985
0.40963447 0.070912816 0.029225692
0.40966463 0.071905039 0.029219646
0.40969479 0.072897263 0.0292136
0.40972495 0.073889486 0.029207554
0.40975511 0.07488171 0.029201506
0.40978527 0.075873934 0.02919546
0.40981543 0.076866157 0.029189413
0.40984559 0.077858381 0.029183367
0.40987575 0.078850605 0.029177321
0.40990591 0.079842828 0.029171275
0.40993607 0.080835059 0.029165229
0.40996623 0.081827275 0.029159183
0.40999639 0.082819507 0.029153137
0.41002655 0.08381173 0.02914709
0.41005671 0.084803954 0.029141042
0.41008687 0.085796177 0.029134996
0.41011703 0.086788394 0.02912895
0.41014719 0.087780617 0.029122904
0.41017735 0.088772848 0.029116858
0.41020751 0.089765072 0.029110812
0.41023764 0.090757295 0.029104766
0.4102678 0.091749519 0.029098719
0.41029796 0.092741735 0.029092673
0.41032812 0.093733959 0.029086625
0.41035828 0.094726183 0.029080579
0.41038844 0.095718406 0.029074533
0.4104186 0.096710637 0.029068487
0.41044876 0.097702861 0.029062441
0.41047892 0.098695077 0.029056394
0.40962115 0.099813223 0.028559804
0.40965137 0.10080704 0.028553749
0.40879372 0.10192996 0.028057134
0.40882397 0.10292537 0.028051069
0.40796643 0.10405307 0.027554393
0.40710905 0.10518397 0.027057726
0.40713939 0.10618255 0.027051641
0.40539455 0.10745528 0.026064336
0.40453741 0.10859574 0.025567584
0.40368038 0.10973936 0.025070839
0.40193602 0.11102802 0.024083439
0.40196669 0.11203617 0.024077294
0.40022254 0.11333438 0.023089811
0.4002533 0.11434572 0.023083648
0.4030993 0.040342361 0.025206851
0.40312982 0.041345734 0.025200736
0.4031603 0.042349108 0.025194623
0.40408054 0.043317378 0.025679758
0.40500063 0.044282462 0.026164887
0.40503103 0.045282647 0.026158793
0.40595096 0.046242956 0.026643945
0.40687081 0.04720008 0.027129123
0.40779063 0.048154015 0.027614348
0.40782088 0.049149424 0.027608281
0.40874049 0.050098583 0.028093502
0.40966001 0.051044557 0.028578741
0.40969017 0.052036781 0.028572695
0.4097203 0.053029004 0.028566649
0.40975046 0.054021228 0.028560603
0.41066974 0.054959238 0.029045897
0.41069984 0.05594987 0.02903986
0.41072994 0.0569405 0.029033823
0.41076007 0.057931133 0.029027786
0.41079018 0.058921762 0.029021751
0.41082031 0.059912395 0.029015714
0.40996158 0.060966793 0.028518278
0.40999174 0.061959017 0.028512232
0.4100219 0.062951237 0.028506186
0.41005206 0.063943468 0.02850014
0.41008222 0.064935684 0.028494094
0.41011238 0.065927908 0.028488047
0.41014254 0.066920131 0.028481999
0.4101727 0.067912363 0.028475953
0.41020286 0.068904579 0.028469907
0.41023302 0.069896802 0.028463861
0.41026318 0.070889026 0.028457815
0.41029334 0.07188125 0.028451769
0.4103235 0.072873473 0.028445723
0.41035366 0.073865697 0.028439676
0.41038382 0.07485792 0.02843363
0.41041398 0.075850144 0.028427582
0.41044414 0.076842368 0.028421536
0.4104743 0.077834599 0.02841549
0.41050446 0.078826822 0.028409444
0.41053462 0.079819039 0.028403398
0.41056478 0.08081127 0.028397352
0.41059494 0.081803493 0.028391305
0.4106251 0.082795717 0.028385259
0.40976754 0.083888337 0.027887596
0.40979776 0.084882148 0.02788154
0.40982795 0.085875966 0.027875485
0.40985817 0.086869784 0.027869428
0.40988836 0.087863602 0.027863372
0.40991858 0.08885742 0.027857317
0.4099488 0.089851238 0.027851259
0.40997899 0.090845048 0.027845204
0.41000921 0.091838866 0.027839148
0.4100394 0.092832685 0.027833091
0.41006961 0.093826495 0.027827036
0.41009983 0.094820313 0.02782098
0.41013002 0.095814131 0.027814923
0.41016024 0.096807949 0.027808867
0.41019043 0.097801767 0.027802812
0.41022065 0.098795578 0.027796755
0.40936393 0.099915281 0.027298927
0.40939417 0.10091069 0.027292863
0.40942442 0.1019061 0.027286796
0.40856785 0.10303217 0.026788898
0.40859815 0.10402917 0.026782822
0.40774179 0.10516002 0.026284922
0.4068855 0.10629405 0.025787005
0.40514266 0.10756831 0.024797194
0.40428662 0.1087103 0.02429923
0.40431717 0.10971526 0.024293106
0.40346128 0.11086204 0.023795109
0.40260547 0.112012 0.023297096
0.40174976 0.11316513 0.022799065
0.40089411 0.11432147 0.022300983
0.40092483 0.11533281 0.022294819
0.4028157 0.039343625 0.023944048
0.40373507 0.040318307 0.024430351
0.40376556 0.041321676 0.024424238
0.40379608 0.04232505 0.024418123
0.4047153 0.043293357 0.024904493
0.40563437 0.044258483 0.02539085
0.40566477 0.045258667 0.025384756
0.40658373 0.046219014 0.025871141
0.40750256 0.047176175 0.026357546
0.40842134 0.048130147 0.026844002
0.40845162 0.049125556 0.026837938
0.40937018 0.050074756 0.027324397
0.4094004 0.05106857 0.027318342
0.41031885 0.052012991 0.027804824
0.41034901 0.053005215 0.027798777
0.41037917 0.053997438 0.027792731
0.41040933 0.054989662 0.027786685
0.41043949 0.055981886 0.027780639
0.41046965 0.056974109 0.027774593
0.41049981 0.057966333 0.027768547
0.41052997 0.058958557 0.027762499
0.41056013 0.05995078 0.027756453
0.41059029 0.060943004 0.027750406
0.41062045 0.061935227 0.02774436
0.41065061 0.062927455 0.027738314
0.41068077 0.063919678 0.027732268
0.41071093 0.064911902 0.027726222
0.41074109 0.065904126 0.027720176
0.40988371 0.066969633 0.027221445
0.40991393 0.067963451 0.027215388
0.40994415 0.068957269 0.027209332
0.40997434 0.06995108 0.027203277
0.41000456 0.070944898 0.027197219
0.41003475 0.071938716 0.027191164
0.41006497 0.072932526 0.027185109
0.41009519 0.073926345 0.027179051
0.41012537 0.074920163 0.027172996
0.41015559 0.075913981 0.02716694
0.41018578 0.076907799 0.027160883
0.410216 0.077901609 0.027154827
0.41024622 0.078895427 0.027148772
0.41027641 0.079889245 0.027142715
0.40941978 0.080978647 0.026643833
0.40945005 0.081974052 0.026637768
0.4094803 0.082969464 0.026631702
0.40951055 0.083964869 0.026625637
0.4095408 0.084960274 0.02661957
0.40957108 0.085955687 0.026613504
0.40960133 0.086951099 0.026607439
0.40963158 0.087946504 0.026601372
0.40966183 0.088941917 0.026595308
0.40969208 0.089937329 0.026589241
0.40972236 0.090932734 0.026583176
0.40975261 0.091928139 0.026577109
0.40978286 0.092923552 0.026571045
0.40981311 0.093918957 0.026564978
0.40984339 0.094914369 0.026558913
0.40987363 0.095909774 0.026552847
0.40990388 0.096905187 0.026546782
0.40993413 0.097900599 0.026540715
0.40996438 0.098896004 0.02653465
0.40999466 0.099891417 0.026528584
0.40913898 0.10101426 0.026029471
0.40916929 0.10201126 0.026023395
0.4091996 0.10300827 0.026017321
0.40834418 0.10413748 0.025518201
0.40748885 0.10526989 0.025019063
0.40751925 0.10627007 0.025012968
0.40577844 0.10754425 0.024020696
0.40492341 0.1086862 0.023521492
0.40406847 0.10983135 0.023022277
0.40409905 0.11083791 0.023016144
0.40324426 0.11198782 0.022516897
0.40327489 0.11299597 0.022510754
0.40242025 0.11415067 0.022011479
0.40156564 0.11530857 0.021512154
0.40434033 0.039290879 0.023659967
0.40437084 0.040294249 0.023653854
0.40440133 0.041297622 0.023647739
0.4053196 0.042267561 0.024135333
0.40535006 0.04326934 0.024129227
0.40626812 0.044234503 0.024616817
0.40629852 0.045234688 0.024610722
0.40721646 0.046195075 0.025098342
0.40813428 0.047152273 0.025585987
0.40816459 0.048149273 0.025579911
0.40908232 0.049101692 0.026067605
0.40911257 0.0500971 0.026061539
0.41003013 0.051044744 0.026549237
0.41006032 0.052038562 0.02654318
0.41009054 0.053032376 0.026537124
0.41012073 0.054026194 0.026531069
0.41015095 0.055020012 0.026525011
0.41018113 0.056013826 0.026518956
0.41021135 0.057007644 0.0265129
0.41024157 0.058001459 0.026506843
0.41027176 0.058995273 0.026500788
0.41030198 0.059989091 0.026494732
0.41033217 0.060982909 0.026488677
0.41036239 0.061976723 0.026482619
0.41039261 0.062970541 0.026476564
0.4104228 0.063964359 0.026470508
0.41045302 0.06495817 0.026464451
0.41048321 0.065951988 0.026458396
0.40962693 0.067019053 0.025958423
0.40965718 0.068014458 0.025952356
0.40968743 0.06900987 0.025946289
0.40971768 0.070005283 0.025940225
0.40974796 0.071000688 0.025934158
0.40977821 0.0719961 0.025928093
0.40980846 0.072991505 0.025922026
0.40983871 0.073986918 0.025915962
0.40986896 0.074982323 0.025909895
0.40989923 0.075977735 0.02590383
0.40992948 0.07697314 0.025897764
0.40995973 0.077968553 0.025891699
0.40998998 0.078963958 0.025885632
0.41002026 0.07995937 0.025879567
0.41005051 0.080954783 0.025873501
0.41008076 0.081950188 0.025867436
0.41011101 0.0829456 0.025861369
0.41014126 0.083941005 0.025855305
0.41017154 0.08493641 0.025849238
0.41020179 0.085931823 0.025843173
0.41023204 0.086927228 0.025837107
0.41026229 0.08792264 0.02583104
0.40940705 0.089026347 0.025330817
0.40943736 0.090023346 0.025324741
0.40946767 0.091020346 0.025318667
0.40949798 0.092017353 0.025312591
0.40952826 0.093014352 0.025306515
0.40955856 0.094011351 0.025300439
0.40958887 0.095008351 0.025294365
0.40961918 0.09600535 0.025288289
0.40964949 0.097002357 0.025282213
0.4096798 0.097999357 0.025276138
0.40971008 0.098996364 0.025270063
0.40974039 0.099993356 0.025263987
0.4097707 0.10099036 0.025257912
0.40891621 0.10211635 0.024757573
0.40894654 0.10311495 0.024751488
0.40809217 0.10424571 0.024251126
0.4081226 0.10524591 0.024245031
0.40726838 0.10638145 0.023744639
0.40641418 0.10752019 0.023244197
0.40556017 0.10866211 0.022743767
0.40559071 0.10966707 0.022737643
0.40473685 0.11081377 0.022237184
0.40476742 0.11182033 0.02223105
0.40391368 0.1129718 0.021730561
0.40394434 0.11397995 0.021724418
0.40309075 0.11513621 0.021223901
0.4049761 0.039266821 0.022883469
0.40500659 0.040270194 0.022877354
0.4059239 0.041241761 0.023366166
0.40595436 0.04224354 0.023360061
0.40598482 0.043245323 0.023353957
0.40690187 0.044210523 0.02384278
0.40781882 0.045172539 0.024331622
0.40784919 0.046171132 0.024325538
0.408766 0.047128368 0.02481441
0.40879631 0.048125371 0.024808334
0.40882662 0.049122371 0.024802258
0.40974328 0.050073236 0.025291201
0.40977356 0.051068645 0.025285136
0.40980381 0.052064054 0.025279069
0.40983406 0.053059462 0.025273005
0.40986431 0.054054871 0.025266938
0.40989456 0.05505028 0.025260873
0.40992483 0.056045689 0.025254807
0.40995508 0.057041101 0.025248742
0.40998533 0.058036506 0.025242675
0.41001558 0.059031915 0.02523661
0.41004586 0.060027327 0.025230544
0.41007611 0.061022736 0.025224479
0.41010636 0.062018145 0.025218412
0.41013661 0.063013554 0.025212348
0.41016686 0.064008966 0.025206281
0.41019714 0.065004371 0.025200216
0.41022739 0.065999776 0.025194149
0.41025764 0.066995189 0.025188083
