# .PCD v0.7 - Point Cloud Data file format
VERSION 0.7
FIELDS x y z
SIZE 4 4 4
TYPE F F F
COUNT 1 1 1
WIDTH 1337
HEIGHT 1
VIEWPOINT 0 0 0 1 0 0 0
POINTS 1337
DATA ascii
0.42414242 -0.02021162 0.065503992
0.42417082 -0.019276734 0.065498292
0.42419925 -0.018341845 0.0654926
0.4251467 -0.017341118 0.065945446
0.42609403 -0.016343581 0.06639833
0.42612237 -0.015411879 0.066392653
0.42615068 -0.014480177 0.066386975
0.42709783 -0.013489012 0.066839889
0.42712611 -0.0125589 0.066834219
0.42807317 -0.011572509 0.067287199
0.42810139 -0.010643994 0.067281537
0.42904824 -0.0096623749 0.067734517
0.4290764 -0.0087354537 0.06772887
0.43002313 -0.0077586202 0.068181865
0.43005124 -0.0068332893 0.068176225
0.43007937 -0.0059079584 0.068170585
0.4301075 -0.0049826233 0.068164952
0.43013564 -0.0040572924 0.068159312
0.43016374 -0.0031319612 0.068153672
0.43019187 -0.0022066263 0.068148032
0.43022001 -0.0012812953 0.068142392
0.43024814 -0.00035596421 0.068136759
0.43027624 0.00056937063 0.068131119
0.43030438 0.0014947017 0.068125479
0.42941448 0.0023876429 0.067661084
0.42944267 0.0033145677 0.067655437
0.42947084 0.0042414926 0.067649789
0.42858115 0.0051408061 0.06718535
0.42769152 0.0060433028 0.066720866
0.4277198 0.0069734133 0.066715196
0.42774805 0.0079035237 0.066709526
0.42685866 0.0088123921 0.066245042
0.42688698 0.0097440938 0.066239364
0.42599773 0.010657743 0.065774836
0.42281288 -0.02318956 0.063878089
0.4237597 -0.022177646 0.06433215
0.42378816 -0.021241168 0.064326443
0.42381662 -0.020304684 0.064320736
0.4247632 -0.01929915 0.064774789
0.42479163 -0.01836426 0.064769089
0.42573807 -0.017363494 0.065223187
0.42576641 -0.016430201 0.065217502
0.42671272 -0.015434217 0.065671615
0.42674103 -0.014502515 0.065665938
0.42768717 -0.01351131 0.066120096
0.42771542 -0.012581198 0.066114426
0.4286615 -0.01159477 0.066568621
0.42868972 -0.010666256 0.066562966
0.42963555 -0.0096845981 0.067017175
0.42966372 -0.0087576769 0.067011528
0.43060943 -0.0077808057 0.06746576
0.43063757 -0.0068554743 0.06746012
0.4306657 -0.0059301434 0.06745448
0.43069381 -0.0050048083 0.06744884
0.43072194 -0.0040794774 0.067443207
0.43075007 -0.0031541463 0.067437567
0.43077821 -0.0022288114 0.067431927
0.43080631 -0.0013034804 0.067426287
0.43083444 -0.00037814924 0.067420647
0.43086258 0.0005471856 0.067415014
0.43089071 0.0014725167 0.067409374
0.43000183 0.0023654196 0.06694375
0.43002999 0.0032923445 0.066938102
0.42914128 0.0041900282 0.066472434
0.42916951 0.0051185447 0.066466779
0.42919773 0.0060470612 0.066461116
0.42830911 0.0069511137 0.065995403
0.42742071 0.0078583518 0.065529674
0.42744902 0.0087900544 0.065523997
0.42656073 0.0097020697 0.065058261
0.4265891 0.010635368 0.065052569
0.42570093 0.01155216 0.064586788
0.42337877 -0.024150122 0.063157849
0.42340726 -0.023212049 0.063152127
0.42435306 -0.022200098 0.063607417
0.42438155 -0.02126362 0.06360171
0.42441002 -0.020327136 0.063596003
0.42535558 -0.019321563 0.064051293
0.42538399 -0.018386673 0.064045601
0.4263294 -0.017385868 0.064500928
0.42635778 -0.016452577 0.064495236
0.42730305 -0.015456554 0.064950585
0.42733139 -0.014524852 0.064944908
0.42827651 -0.013533611 0.065400288
0.42830479 -0.012603498 0.065394618
0.42924982 -0.011617031 0.065850064
0.42927805 -0.010688516 0.065844402
0.43022287 -0.0097068213 0.066299833
0.43025106 -0.0087799011 0.066294186
0.43027923 -0.0078529762 0.066288538
0.43030742 -0.0069260513 0.066282891
0.431252 -0.005952328 0.066738389
0.43128014 -0.0050269933 0.066732749
0.43130824 -0.004101662 0.066727109
0.43133637 -0.0031763311 0.066721469
0.43136451 -0.0022509962 0.066715829
0.43139264 -0.001325665 0.066710189
0.43142074 -0.00040033393 0.066704556
0.43053281 0.00048934692 0.066237703
0.43056098 0.0014162717 0.066232055
0.43058914 0.0023431964 0.066226408
0.43061733 0.0032701213 0.06622076
0.42972961 0.0041677668 0.06575387
0.42975783 0.0050962837 0.065748215
0.4288702 0.0059987041 0.065281257
0.42798272 0.0069043124 0.064814329
0.42801103 0.007836014 0.064808644
0.42803937 0.0087677166 0.064802967
0.42715207 0.0096796937 0.064335994
0.42718044 0.010612992 0.06433031
0.42629331 0.011529746 0.063863292
0.42632172 0.012464633 0.0638576
0.42394462 -0.025110686 0.062437601
0.42397314 -0.024172613 0.062431887
0.424918 -0.023159031 0.062888384
0.42494646 -0.022222551 0.062882677
0.42497492 -0.021286072 0.06287697
0.42500338 -0.020349588 0.062871262
0.42594793 -0.019343976 0.063327797
0.42597637 -0.018409086 0.063322105
0.42692077 -0.017408244 0.063778654
0.42694914 -0.016474953 0.063772969
0.4278934 -0.015478892 0.064229548
0.42792174 -0.014547191 0.064223871
0.42886585 -0.01355591 0.064680479
0.42889413 -0.012625798 0.06467481
0.42983815 -0.011639292 0.065131485
0.42986637 -0.010710778 0.06512583
0.4298946 -0.0097822556 0.065120168
0.43083838 -0.0088021243 0.065576851
0.43086657 -0.0078751994 0.065571196
0.43089473 -0.0069482746 0.065565549
0.4309229 -0.0060213497 0.065559901
0.43095109 -0.0050944248 0.065554254
0.43097925 -0.0041675 0.065548606
0.43100742 -0.0032405753 0.065542959
0.43103561 -0.002313647 0.065537311
0.43106377 -0.0013867258 0.065531664
0.43109196 -0.00045980109 0.065526016
0.43112013 0.00046712367 0.065520361
0.43114829 0.0013940484 0.065514714
0.43117648 0.0023209732 0.065509066
0.43028972 0.003216987 0.065040953
0.43031794 0.0041455054 0.065035298
0.43034616 0.0050740219 0.065029643
0.42945954 0.0059764045 0.064561456
0.42857307 0.0068819746 0.064093284
0.42860138 0.0078136763 0.064087607
0.42862973 0.0087453788 0.06408193
0.42774343 0.0096573178 0.06361372
0.42685726 0.010572445 0.063145496
0.42688566 0.011507332 0.063139796
0.4269141 0.012442219 0.063134104
0.42453903 -0.025133176 0.061711628
0.42456752 -0.024195103 0.061705913
0.42551136 -0.023181483 0.062163658
0.42553982 -0.022245003 0.062157951
0.42556831 -0.021308525 0.062152244
0.42559677 -0.020372041 0.062146537
0.42654032 -0.019366391 0.062604293
0.42656875 -0.018431501 0.062598594
0.42751214 -0.017430622 0.06305638
0.42754051 -0.016497329 0.063050695
0.42848375 -0.01550123 0.063508503
0.4285121 -0.014569528 0.063502826
0.42945519 -0.013578209 0.063960686
0.42948347 -0.012648097 0.063955016
0.43042648 -0.011661554 0.064412914
0.4304547 -0.010733039 0.064407259
0.43048292 -0.009804517 0.064401597
0.43051115 -0.0088759987 0.064395942
0.43145388 -0.0078974226 0.064853862
0.43148205 -0.0069704978 0.064848214
0.43151024 -0.0060435729 0.064842567
0.4315384 -0.005116648 0.064836912
0.43156657 -0.0041897232 0.064831264
0.43159476 -0.0032627985 0.064825617
0.43162292 -0.0023358702 0.064819969
0.43165112 -0.0014089491 0.064814322
0.43167928 -0.00048202433 0.064808674
0.43170744 0.00044490042 0.064803027
0.43173563 0.0013718251 0.064797379
0.43084982 0.0022662072 0.064328045
0.43087804 0.0031947256 0.064322382
0.43090627 0.004123244 0.064316727
0.4300206 0.0050239949 0.063847326
0.43004888 0.0059541049 0.063841656
0.42916343 0.0068596369 0.063372247
0.42919174 0.007791339 0.06336657
0.42830643 0.0087016476 0.062897138
0.4283348 0.0096349418 0.062891454
0.42744964 0.010550031 0.062421989
0.42747805 0.011484918 0.062416293
0.42750648 0.012419805 0.062410597
0.4266215 0.013341265 0.061941098
0.42664996 0.014277746 0.061935391
0.42513341 -0.025155667 0.060985666
0.42607629 -0.024140414 0.061444636
0.42610475 -0.023203935 0.061438929
0.42613322 -0.022267455 0.061433222
0.42616168 -0.021330977 0.061427515
0.42619014 -0.020394493 0.061421808
0.4271327 -0.019388804 0.061880797
0.4271611 -0.018453915 0.061875101
0.42810351 -0.017452996 0.06233412
0.4290458 -0.01645527 0.062793158
0.42907411 -0.015523568 0.062787481
0.42910242 -0.014591865 0.062781803
0.43004453 -0.013600509 0.063240878
0.43007281 -0.012670397 0.063235208
0.43010107 -0.011740289 0.063229539
0.43104303 -0.010755301 0.063688695
0.43107125 -0.0098267784 0.063683033
0.43109947 -0.0088982601 0.063677378
0.4311277 -0.0079697454 0.063671723
0.43115592 -0.0070412271 0.063666061
0.43118414 -0.0061127082 0.063660406
0.43121237 -0.0051841936 0.063654743
0.43124059 -0.0042556752 0.063649088
0.43126881 -0.0033271606 0.063643426
0.43129703 -0.0023986385 0.063637771
0.43132526 -0.00147012 0.063632116
0.43135348 -0.0005416054 0.063626453
0.4313817 0.00038691302 0.063620798
0.43140993 0.0013154314 0.063615136
0.43143815 0.0022439461 0.063609481
0.43146637 0.0031724644 0.063603818
0.43058169 0.0040715868 0.063133188
0.43060994 0.0050016954 0.063127518
0.43063822 0.0059318054 0.063121855
0.42975378 0.0068372991 0.062651217
0.42978209 0.0077690012 0.06264554
0.4288978 0.0086792726 0.062174875
0.42892617 0.0096125659 0.062169187
0.42895454 0.010545864 0.062163502
0.42807043 0.011462504 0.061692797
0.42809883 0.012397392 0.061687101
0.42721486 0.013318812 0.061216369
0.42724332 0.014255294 0.061210662
0.42572778 -0.025178157 0.060259704
0.42666966 -0.024162866 0.060719896
0.42669812 -0.023226388 0.060714189
0.42672661 -0.022289908 0.060708482
0.42675507 -0.021353429 0.060702775
0.42769665 -0.020346105 0.06116299
0.42772505 -0.019411219 0.06115729
0.4286665 -0.018408673 0.061617531
0.42869484 -0.017475374 0.061611846
0.42963615 -0.016477607 0.062072117
0.42966446 -0.015545906 0.06206644
0.42969278 -0.014614203 0.062060762
0.43063387 -0.013622809 0.06252107
0.43066216 -0.012692696 0.0625154
0.43069044 -0.011762588 0.062509738
0.43071869 -0.01083248 0.062504068
0.43165958 -0.0098490398 0.062964462
0.4316878 -0.0089205215 0.062958807
0.43171602 -0.0079920068 0.062953144
0.43174425 -0.0070634885 0.062947489
0.43177247 -0.0061349701 0.062941827
0.43180069 -0.005206455 0.062936172
0.43182892 -0.0042779366 0.062930517
0.43185714 -0.003349422 0.062924854
0.43188536 -0.0024208999 0.062919199
0.43191358 -0.0014923816 0.062913537
0.43194181 -0.00056386687 0.062907882
0.43197003 0.00036465155 0.06290222
0.43108621 0.0012589546 0.062430386
0.43111449 0.002189063 0.062424716
0.43114275 0.0031191751 0.062419049
0.43117103 0.0040492872 0.062413383
0.43119931 0.0049793953 0.062407713
0.43031582 0.0058832574 0.061935853
0.43034413 0.0068149613 0.061930176
0.43037245 0.0077466634 0.061924499
0.42948917 0.0086568967 0.061452601
0.42951754 0.0095901899 0.061446916
0.42863438 0.010505202 0.060974989
0.42775133 0.011423398 0.060503043
0.42777979 0.012359879 0.060497336
0.42780825 0.01329636 0.060491629
0.42692533 0.014220926 0.06001962
0.42723459 -0.025121801 0.060000874
0.42726305 -0.024185318 0.059995167
0.42729151 -0.02324884 0.05998946
0.42731997 -0.02231236 0.059983753
0.42826059 -0.021303408 0.060445189
0.428289 -0.020368518 0.060439494
0.42831743 -0.019433632 0.060433798
0.42925784 -0.018431049 0.060895272
0.42928621 -0.017497748 0.060889583
0.4302265 -0.016499946 0.061351087
0.43025482 -0.015568243 0.06134541
0.43028313 -0.014636541 0.061339732
0.43031144 -0.013704839 0.061334055
0.4312515 -0.012714996 0.061795607
0.43127975 -0.011784888 0.061789941
0.43130803 -0.01085478 0.061784271
0.43133631 -0.0099246632 0.061778605
0.43136457 -0.0089945551 0.061772935
0.43139285 -0.008064447 0.061767269
0.4314211 -0.0071343346 0.061761599
0.43144938 -0.0062042265 0.061755933
0.43147767 -0.0052741179 0.061750263
0.43150592 -0.0043440061 0.061744597
0.4315342 -0.0034138977 0.061738931
0.43156248 -0.0024837819 0.061733261
0.43159074 -0.0015536734 0.061727595
0.43161902 -0.00062356511 0.061721925
0.43164727 0.00030654695 0.061716259
0.43167555 0.0012366553 0.061710589
0.43170384 0.0021667636 0.061704922
0.43173209 0.0030968757 0.061699253
0.43176037 0.0040269876 0.061693586
0.43087783 0.004929218 0.061220504
0.43090615 0.0058609201 0.061214827
0.43093449 0.006792624 0.06120915
0.43005213 0.0077012246 0.060736027
0.4300805 0.0086345207 0.060730342
0.42919832 0.0095478985 0.060257189
0.42922676 0.010482788 0.060251493
0.4283447 0.011400945 0.059778314
0.42837316 0.012337427 0.059772607
0.42840162 0.013273908 0.0597669
0.42751971 0.014198435 0.059293658
0.42754823 0.015136508 0.059287939
0.42782795 -0.025144255 0.059276134
0.42785642 -0.024207771 0.059270427
0.42788488 -0.023271292 0.059264719
0.42791337 -0.022334812 0.059259012
0.42885298 -0.021325823 0.059721682
0.42888138 -0.020390933 0.059715986
0.42890981 -0.019456048 0.05971029
0.42984921 -0.018453425 0.060173005
0.42987758 -0.017520124 0.060167316
0.43081683 -0.016522283 0.060630053
0.43084517 -0.015590581 0.060624376
0.43087348 -0.014658879 0.060618699
0.4309018 -0.013727177 0.060613021
0.43184084 -0.012737296 0.061075799
0.43186909 -0.011807187 0.061070133
0.43189737 -0.010877079 0.061064467
0.43192565 -0.0099469628 0.061058797
0.43195391 -0.0090168547 0.061053131
0.43198219 -0.0080867466 0.061047461
0.43201047 -0.0071566342 0.061041795
0.43203872 -0.0062265261 0.061036125
0.43206701 -0.0052964175 0.061030459
0.43209526 -0.0043663057 0.061024789
0.43212354 -0.0034361973 0.061019123
0.43215182 -0.0025060815 0.061013456
0.43218008 -0.0015759731 0.061007787
0.43220836 -0.00064586475 0.06100212
0.43223664 0.0002842473 0.06099645
0.43135491 0.0011800666 0.06052218
0.43138322 0.0021117723 0.060516503
0.43141156 0.0030434744 0.060510825
0.43143988 0.0039751763 0.060505148
0.43146819 0.0049068802 0.060499471
0.4314965 0.0058385823 0.060493793
0.43061513 0.006745555 0.060019448
0.4306435 0.0076788492 0.06001376
0.43067187 0.0086121447 0.060008071
0.42979071 0.0095254844 0.059533685
0.42981911 0.010460374 0.059527986
0.42893809 0.011378493 0.059053574
0.42896655 0.012314974 0.059047867
0.4280856 0.013237872 0.058573399
0.42811412 0.014175945 0.058567684
0.42814264 0.015114018 0.058561966
0.42842132 -0.025166705 0.058551412
0.42844981 -0.024230223 0.058545705
0.42938849 -0.023218011 0.059009589
0.42941689 -0.022283122 0.05900389
0.42853519 -0.021420784 0.058528583
0.42947373 -0.020413347 0.058992498
0.42950216 -0.019478461 0.058986802
0.43044057 -0.018475801 0.059450734
0.43046895 -0.0175425 0.05944505
0.43049729 -0.016609209 0.059439361
0.43143553 -0.015612918 0.059903342
0.43146384 -0.014681216 0.059897665
0.43149215 -0.013749515 0.059891988
0.43152046 -0.012817812 0.05988631
0.4315488 -0.011886111 0.059880633
0.43157712 -0.010954408 0.059874956
0.43160543 -0.010022703 0.059869278
0.43163374 -0.0090909973 0.059863597
0.43166208 -0.0081592947 0.05985792
0.43169039 -0.0072275931 0.059852242
0.43171871 -0.006295891 0.059846565
0.43174702 -0.0053641889 0.059840888
0.43177533 -0.0044324868 0.05983521
0.43180367 -0.0035007847 0.059829533
0.43183199 -0.0025690792 0.059823856
0.4318603 -0.0016373771 0.059818178
0.43188861 -0.00070567511 0.059812501
0.43191695 0.00022602691 0.059806824
0.43194526 0.001157729 0.059801146
0.43197358 0.0020894345 0.059795469
0.43200189 0.0030211366 0.059789792
0.43203023 0.0039528385 0.059784114
0.43205854 0.0048845424 0.059778437
0.43117812 0.0057898816 0.059302866
0.43120649 0.006723179 0.059297182
0.43123487 0.0076564732 0.059291493
0.43035465 0.0085681835 0.058815893
0.43038306 0.0095030712 0.058810193
0.42950299 0.010419562 0.058334559
0.42953146 0.011356041 0.058328852
0.42865148 0.012277307 0.057853159
0.42867997 0.013215382 0.057847444
0.42870849 0.014153454 0.057841726
0.42873701 0.015091528 0.057836011
0.42901471 -0.025189158 0.057826675
0.42904317 -0.024252675 0.057820972
0.42907164 -0.023316195 0.057815265
0.4291001 -0.022379717 0.057809558
0.42912856 -0.021443237 0.057803851
0.43006611 -0.020435762 0.05826899
0.43009454 -0.019500876 0.058263294
0.43012294 -0.018565986 0.058257595
0.43106028 -0.017564876 0.058722783
0.43108866 -0.016631585 0.058717094
0.43111703 -0.015698289 0.058711406
0.43205419 -0.014703554 0.059176624
0.4320825 -0.013771852 0.059170946
0.43211082 -0.01284015 0.059165269
0.43213916 -0.011908448 0.059159592
0.43216747 -0.010976747 0.059153914
0.43219578 -0.01004504 0.059148237
0.43222409 -0.0091133351 0.05914256
0.43225244 -0.0081816325 0.059136882
0.43228075 -0.0072499309 0.059131205
0.43230906 -0.0063182288 0.059125528
0.43233737 -0.0053865267 0.05911985
0.43236572 -0.0044548246 0.059114173
0.43239403 -0.0035231228 0.059108492
0.43242234 -0.0025914169 0.059102815
0.43245065 -0.001659715 0.059097137
0.43247896 -0.00072801299 0.05909146
0.43250731 0.00020368904 0.059085783
0.43253562 0.0011353911 0.059080105
0.43165603 0.0020343249 0.05860335
0.43168437 0.0029676207 0.058597662
0.43171275 0.0039009163 0.058591973
0.43174112 0.00483421 0.058586288
0.43176949 0.0057675056 0.0585806
0.43179786 0.0067008035 0.058574911
0.4309186 0.0076108817 0.058098081
0.43094701 0.0085457694 0.058092386
0.4300679 0.0094606262 0.05761553
0.43009636 0.010397109 0.057609823
0.42921734 0.011316744 0.057132907
0.42924586 0.012254816 0.057127193
0.42927438 0.013192891 0.057121474
0.4293029 0.014130964 0.05711576
0.42933139 0.015069038 0.057110045
0.42869973 -0.025290608 0.056629881
0.42872825 -0.024352536 0.056624163
0.42966503 -0.023338649 0.057090525
0.42969349 -0.022402169 0.057084817
0.42972195 -0.021465691 0.05707911
0.42975041 -0.020529207 0.057073403
0.43068689 -0.019523289 0.057539791
0.43071532 -0.0185884 0.057534095
0.43074372 -0.017653506 0.057528399
0.43168002 -0.016653961 0.05799482
0.4317084 -0.015720665 0.057989132
0.43173677 -0.014787369 0.057983447
0.43176514 -0.013854073 0.057977758
0.43270117 -0.012862488 0.058444235
0.43272948 -0.011930786 0.058438558
0.43275782 -0.010999084 0.058432881
0.43278614 -0.010067378 0.058427203
0.43281445 -0.0091356728 0.058421526
0.43284276 -0.0082039703 0.058415849
0.4328711 -0.0072722686 0.058410171
0.43289942 -0.0063405666 0.05840449
0.43292773 -0.0054088645 0.058398813
0.43295604 -0.0044771624 0.058393136
0.43207717 -0.003587825 0.0579152
0.43210554 -0.0026545257 0.057909511
0.43213391 -0.0017212337 0.057903826
0.43216228 -0.00078793807 0.057898138
0.43219066 0.00014535757 0.057892449
0.43221903 0.0010786533 0.057886764
0.43224737 0.002011949 0.057881076
0.43227574 0.0029452445 0.057875387
0.43230411 0.0038785401 0.057869703
0.43233249 0.0048118341 0.057864014
0.43145415 0.0057186908 0.057385974
0.43148255 0.0066535799 0.057380278
0.43151098 0.0075884676 0.057374582
0.43063283 0.0085016945 0.056896497
0.43066129 0.0094381738 0.056890789
0.43068975 0.010374657 0.056885086
0.42981175 0.011294253 0.056406941
0.42984024 0.012232326 0.056401227
0.42986876 0.013170401 0.056395508
0.42989728 0.014108473 0.056389794
0.4299258 0.015046547 0.056384075
0.42841539 -0.024452468 0.055424921
0.42935115 -0.023436954 0.055892486
0.42937964 -0.022498881 0.055886768
0.43031532 -0.021488141 0.056354381
0.43034381 -0.020551659 0.056348674
0.43037227 -0.019615181 0.056342971
0.43130767 -0.018610815 0.056810603
0.4313361 -0.017675921 0.056804903
0.43136451 -0.016741036 0.056799207
0.43139294 -0.015806146 0.056793511
0.4323281 -0.014809745 0.057261184
0.43235648 -0.013876449 0.057255495
0.43238485 -0.012943154 0.057249811
0.43241322 -0.012009862 0.057244122
0.43244159 -0.011076566 0.057238437
0.43246996 -0.010143267 0.057232749
0.43249834 -0.0092099709 0.05722706
0.43252671 -0.0082766758 0.057221375
0.43255505 -0.0073433798 0.057215687
0.43258342 -0.0064100879 0.057209998
0.43261179 -0.0054767923 0.057204314
0.43264017 -0.0045434963 0.057198625
0.43266854 -0.0036102007 0.057192937
0.43269691 -0.0026769014 0.057187252
0.43181917 -0.0017828249 0.056708056
0.4318476 -0.00084793929 0.056702357
0.431876 8.6950051e-05 0.056696661
0.43190444 0.0010218356 0.056690965
0.43193284 0.001956725 0.056685269
0.43196127 0.0028916143 0.056679569
0.43198967 0.0038264999 0.056673873
0.4320181 0.0047613895 0.056668177
0.4320465 0.0056962767 0.056662481
0.43116927 0.0066062822 0.056183182
0.43119773 0.0075427615 0.056177475
0.43122619 0.0084792422 0.056171767
0.43125466 0.0094157215 0.056166064
0.4303776 0.01033369 0.055686697
0.43040612 0.011271763 0.055680979
0.43043464 0.012209835 0.055675264
0.42955783 0.013134175 0.055195879
0.42958641 0.014073839 0.055190153
0.42961496 0.015013505 0.055184428
0.42903933 -0.02353533 0.054691993
0.42906791 -0.022595666 0.054686267
0.43000254 -0.021583298 0.055155084
0.43003106 -0.020645225 0.055149369
0.43005958 -0.019707153 0.055143651
0.43099409 -0.018701153 0.055612527
0.43102255 -0.017764667 0.05560682
0.43195689 -0.016763451 0.0560757
0.43198532 -0.015828561 0.056070004
0.43201372 -0.014893675 0.056064308
0.43204215 -0.013958786 0.056058608
0.43297622 -0.012965529 0.056527544
0.43300459 -0.012032238 0.056521855
0.43303296 -0.011098942 0.056516167
0.43306133 -0.010165643 0.056510482
0.43308967 -0.0092323469 0.056504793
0.43311805 -0.0082990518 0.056499105
0.43314642 -0.0073657557 0.05649342
0.43226945 -0.0064796819 0.056013033
0.43229789 -0.0055447929 0.056007337
0.43232629 -0.004609907 0.056001641
0.43235472 -0.0036750177 0.055995941
0.43238312 -0.0027401284 0.055990245
0.43241155 -0.0018052391 0.055984549
0.43243995 -0.00087035354 0.055978853
0.43246838 6.4535758e-05 0.055973154
0.43249679 0.00099942135 0.055967458
0.43252522 0.0019343107 0.055961762
0.43164879 0.0028379073 0.055481274
0.43167725 0.0037743866 0.055475567
0.43170571 0.0047108675 0.055469863
0.43173417 0.0056473468 0.055464156
0.43176264 0.0065838299 0.055458449
0.43179113 0.0075203092 0.055452742
0.43091497 0.0084350519 0.054972161
0.43094349 0.0093731247 0.054966446
0.43097201 0.010311199 0.054960728
0.43009612 0.011232313 0.054480132
0.43012467 0.012171978 0.054474402
0.43015322 0.013111646 0.054468676
0.4301818 0.014051311 0.054462951
0.42930615 0.014980387 0.05398231
0.42782435 -0.023709709 0.053013299
0.42875814 -0.022692526 0.053483315
0.42969185 -0.02167853 0.053953353
0.4297204 -0.020738862 0.053947628
0.42974898 -0.019799199 0.053941902
0.43068248 -0.018791569 0.054411974
0.43161595 -0.017787118 0.054882094
0.43164441 -0.016850639 0.054876387
0.43167287 -0.015914161 0.05487068
0.4326061 -0.014916088 0.055340812
0.4326345 -0.0139812 0.055335116
0.43266293 -0.013046314 0.055329416
0.43269134 -0.012111424 0.05532372
0.43271977 -0.011176539 0.055318024
0.43274817 -0.010241646 0.055312328
0.4327766 -0.0093067605 0.055306628
0.432805 -0.008371871 0.055300932
0.4328334 -0.0074369851 0.055295236
0.43286183 -0.0065020961 0.05528954
0.43289024 -0.0055672065 0.055283841
0.43291867 -0.0046323212 0.055278145
0.43204293 -0.0037399146 0.054796495
0.43207139 -0.0028034279 0.054790787
0.43209985 -0.0018669487 0.05478508
0.43212831 -0.00093046937 0.054779373
0.43215677 6.0098896e-06 0.054773666
0.43218523 0.00094249286 0.054767959
0.43221369 0.0018789722 0.054762252
0.43224216 0.0028154552 0.054756548
0.43227062 0.0037519343 0.054750841
0.43229911 0.0046884157 0.054745134
0.43142381 0.0055983388 0.05426335
0.43145233 0.0065364153 0.054257631
0.43148085 0.0074744886 0.054251917
0.43150935 0.0084125614 0.054246198
0.43063438 0.0093304496 0.053764392
0.43066293 0.010270118 0.053758666
0.43069151 0.011209785 0.05375294
0.42981672 0.012134043 0.053271089
0.42984533 0.013075304 0.053265356
0.42987394 0.014016562 0.053259619
0.42899933 0.014947195 0.052777734
0.4265846 -0.024830282 0.051335402
0.42751753 -0.023808282 0.051806621
0.42845044 -0.022789463 0.052277893
0.42847908 -0.021846615 0.052272145
0.42941177 -0.02083258 0.052743413
0.43034437 -0.019821728 0.053214699
0.43037292 -0.018882062 0.053208973
0.43130538 -0.017875984 0.05368029
0.4313339 -0.016937912 0.053674575
0.43226627 -0.015936613 0.054145947
0.43229473 -0.015000133 0.05414024
0.43232319 -0.01406365 0.054134533
0.43235165 -0.013127171 0.054128826
0.43328372 -0.012133839 0.05460022
0.43240857 -0.011254212 0.054117411
0.43243703 -0.010317725 0.054111704
0.43246549 -0.0093812458 0.054106001
0.43249395 -0.0084447665 0.054100294
0.43252245 -0.0075082877 0.054094587
0.43255091 -0.0065718046 0.054088879
0.43257937 -0.0056353253 0.054083172
0.43260783 -0.004698846 0.054077465
0.43263629 -0.0037623669 0.054071758
0.43266475 -0.0028258802 0.054066051
0.43269321 -0.001889401 0.054060347
0.4318186 -0.000990664 0.053577397
0.43184713 -5.2591047e-05 0.053571679
0.43187565 0.00088548189 0.053565964
0.43190417 0.0018235547 0.053560246
0.43193266 0.0027616315 0.053554531
0.43196118 0.0036997043 0.053548813
0.4319897 0.0046377773 0.053543098
0.43201822 0.0055758483 0.05353738
0.43204671 0.0065139248 0.053531665
0.43117267 0.0074285916 0.053048644
0.43120122 0.0083682565 0.053042918
0.43122977 0.0093079209 0.053037193
0.43125835 0.010247589 0.053031467
0.43038452 0.011170219 0.052548397
0.43041313 0.012111477 0.05254266
0.42953944 0.013038887 0.052059561
0.42956811 0.013981737 0.052053817
0.42869452 0.014913922 0.051570658
0.42872322 0.015858365 0.051564902
0.41987076 -0.028350066 0.0467951
0.42628083 -0.024930561 0.05012507
0.4272128 -0.023906929 0.050597515
0.42814466 -0.022886481 0.051069975
0.42907649 -0.02186922 0.051542483
0.42910516 -0.020926369 0.051536739
0.43003678 -0.019913886 0.052009251
0.43096831 -0.018904591 0.052481778
0.43099689 -0.01796492 0.052476052
0.43192828 -0.016960401 0.052948613
0.4319568 -0.016022328 0.052942894
0.43198532 -0.015084255 0.05293718
0.43291655 -0.014086102 0.053409804
0.43294501 -0.013149623 0.053404097
0.43297347 -0.012213144 0.053398389
0.43300197 -0.011276664 0.053392686
0.43303043 -0.010340177 0.053386979
0.43305889 -0.0094036981 0.053381272
0.43308735 -0.0084672188 0.053375565
0.43311581 -0.00753074 0.053369857
0.43314427 -0.006594257 0.05336415
0.43227044 -0.0057035228 0.052880015
0.43229896 -0.0047654496 0.052874301
0.43232745 -0.0038273768 0.052868582
0.43235597 -0.0028893002 0.052862868
0.43238449 -0.0019512272 0.052857149
0.43241301 -0.0010131543 0.052851435
0.4324415 -7.50814e-05 0.052845716
0.43247002 0.0008629915 0.052840002
0.43249854 0.0018010645 0.052834284
0.43162525 0.0027077338 0.052350082
0.4316538 0.0036473966 0.052344352
0.43168238 0.0045870631 0.052338626
0.43171093 0.0055267299 0.0523329
0.43173948 0.0064663962 0.052327175
0.43176806 0.0074060629 0.052321449
0.43179661 0.0083457278 0.052315723
0.4309237 0.0092651332 0.051831439
0.43095231 0.010206393 0.051825706
0.43098092 0.011147652 0.051819969
0.43010819 0.012073428 0.051335648
0.43013686 0.013016282 0.0513299
0.42926425 0.013946835 0.050845522
0.42839175 0.014880576 0.050361153
0.42842051 0.015826613 0.05035539
0.41771266 -0.030547393 0.044626623
0.42414564 -0.026138585 0.047959171
0.42597905 -0.025030911 0.048912276
0.42691007 -0.02400565 0.049385935
0.42784098 -0.022983573 0.049859621
0.42877179 -0.021964684 0.050333325
0.42970258 -0.020948974 0.050807077
0.42973122 -0.020006124 0.050801333
0.4306618 -0.018995196 0.051275078
0.43159229 -0.017987449 0.051748853
0.43162084 -0.017047781 0.051743127
0.43164942 -0.01610812 0.051737402
0.4325797 -0.015106746 0.052211214
0.43260822 -0.014168673 0.052205496
0.43263671 -0.0132306 0.052199781
0.43266523 -0.012292528 0.052194063
0.43269375 -0.011354455 0.052188348
0.43272227 -0.010416377 0.05218263
0.43275076 -0.0094783045 0.052176915
0.43277928 -0.0085402317 0.052171197
0.4328078 -0.0076021589 0.052165482
0.43283632 -0.0066640861 0.052159764
0.43286481 -0.0057260133 0.052154049
0.43289334 -0.0047879401 0.052148331
0.43292186 -0.0038498673 0.052142616
0.43295038 -0.0029117907 0.052136898
0.43207783 -0.002013128 0.051651508
0.43210641 -0.0010734614 0.051645782
0.43213496 -0.00013379476 0.051640056
0.43216351 0.00080587179 0.05163433
0.43219209 0.0017455347 0.051628605
0.43222064 0.0026852051 0.051622879
0.43224919 0.0036248679 0.051617153
0.43227777 0.0045645344 0.051611427
0.43230632 0.0055042012 0.051605701
0.43143427 0.006418793 0.051120214
0.43146288 0.0073600514 0.051114477
0.43149149 0.0083013093 0.05110874
0.4315201 0.0092425663 0.051103007
0.4306483 0.010165123 0.050617475
0.43067697 0.011107973 0.050611731
0.43070561 0.012050823 0.050605986
0.42983395 0.012979749 0.050120384
0.42896244 0.013911857 0.049634792
0.4289912 0.014857895 0.049629025
0.42811981 0.015794782 0.049143404
0.42724854 0.016734855 0.048657764
0.42012605 -0.030399226 0.044842184
0.42105666 -0.029354811 0.045316968
0.42474911 -0.026161419 0.047222115
0.42567933 -0.025131339 0.047697011
0.4275105 -0.024028368 0.048652578
0.42844042 -0.023006255 0.049127497
0.42846918 -0.022060217 0.049121734
0.42939892 -0.021042883 0.049596675
0.43032864 -0.020028729 0.050071672
0.4312582 -0.019017763 0.050546657
0.43128681 -0.018076498 0.05054092
0.43221626 -0.01707031 0.051015932
0.43224481 -0.016130649 0.051010206
0.43227336 -0.015190981 0.051004481
0.43230194 -0.014251314 0.050998755
0.43323112 -0.013253091 0.051473819
0.43325961 -0.012315018 0.0514681
0.43328813 -0.011376944 0.051462386
0.43331665 -0.010438868 0.051456667
0.43334517 -0.009500795 0.051450953
0.4324733 -0.0086133191 0.050964396
0.43250185 -0.0076736524 0.050958671
0.43253043 -0.0067339856 0.050952945
0.43255898 -0.0057943226 0.050947219
0.43258753 -0.0048546563 0.050941493
0.43261611 -0.0039149895 0.050935768
0.43264467 -0.0029753193 0.050930042
0.43267322 -0.0020356565 0.050924316
0.4327018 -0.00109599 0.050918587
0.43273035 -0.00015632332 0.050912861
0.43275893 0.00078334328 0.050907135
0.43278748 0.0017230061 0.050901409
0.43191624 0.0026311928 0.050414734
0.43194485 0.0035724493 0.050408997
0.43197346 0.0045137075 0.050403263
0.43200207 0.0054549659 0.050397526
0.43203068 0.0063962261 0.05039179
0.43205929 0.0073374845 0.050386056
0.4311884 0.0082568135 0.049899306
0.43121704 0.009199664 0.049893562
0.43124571 0.010142518 0.049887814
0.43037495 0.011068217 0.049401
0.43040368 0.01201266 0.049395245
0.42953312 0.01294314 0.048908431
0.42956185 0.013889176 0.048902668
0.42869145 0.014824432 0.048415821
0.42782113 0.015762875 0.047928959
0.42785001 0.016712097 0.047923177
0.42697984 0.017655319 0.047436282
0.42352307 -0.027298458 0.045527086
0.42535257 -0.026184253 0.046485052
0.42628178 -0.025154136 0.046961181
0.42721081 -0.024127206 0.047437299
0.42813975 -0.023103461 0.047913443
0.4290686 -0.022082899 0.048389599
0.42999735 -0.021065528 0.04886578
0.43092605 -0.020051334 0.049342003
0.43095472 -0.01910848 0.049336258
0.43188325 -0.018099066 0.049812488
0.43191183 -0.01715781 0.049806751
0.4328402 -0.016153177 0.050283004
0.43286878 -0.01521351 0.050277278
0.43289733 -0.014273844 0.050271552
0.43292588 -0.013334177 0.050265826
0.43295446 -0.012394514 0.050260101
0.43298301 -0.011454848 0.050254375
0.43301156 -0.010515177 0.050248649
0.43304014 -0.0095755104 0.050242923
0.43306869 -0.0086358478 0.050237197
0.43309727 -0.0076961811 0.050231472
0.43312582 -0.0067565143 0.050225742
0.43315437 -0.0058168517 0.050220016
0.43318295 -0.004877185 0.050214291
0.43321151 -0.0039375182 0.050208565
0.43234098 -0.0030389281 0.049720716
0.43236959 -0.0020976679 0.049714979
0.4323982 -0.0011564114 0.049709242
0.43242681 -0.00021515113 0.049703509
0.43245542 0.00072610535 0.049697772
0.43248403 0.0016673619 0.049692035
0.43251264 0.0026086259 0.049686301
0.43254125 0.0035498824 0.049680565
0.43256986 0.0044911406 0.049674828
0.43169984 0.0054056542 0.049186874
0.43172851 0.0063485065 0.04918113
0.43175715 0.0072913584 0.049175382
0.43178582 0.0082342084 0.049169637
0.43091598 0.0091566844 0.048681617
0.43094468 0.01010113 0.048675861
0.43097338 0.011045574 0.048670106
0.43010378 0.011974421 0.048182063
0.43013254 0.012920459 0.0481763
0.4283649 0.013841675 0.047205929
0.42839375 0.014790895 0.047200143
0.42752448 0.015730891 0.046712041
0.42755339 0.016681708 0.046706248
0.42668423 0.017626481 0.046218082
0.42671317 0.018578889 0.046212278
0.42314199 -0.030273847 0.044321947
0.4231711 -0.029316669 0.044316113
0.4240995 -0.028276959 0.044793386
0.42502785 -0.027240431 0.045270678
0.42595607 -0.026207088 0.045747992
0.42688423 -0.025176931 0.046225354
0.42781228 -0.024149964 0.046702705
0.4287402 -0.023126179 0.047180083
0.42966804 -0.02210558 0.047657471
0.4296968 -0.021159546 0.047651704
0.43062449 -0.020143727 0.048129126
0.43155214 -0.019131085 0.048606597
0.43158081 -0.018188231 0.048600849
0.43250826 -0.017180376 0.049078315
0.43253687 -0.016239116 0.049072582
0.43256548 -0.01529786 0.049066845
0.43259409 -0.014356599 0.049061108
0.4335213 -0.013356705 0.049538627
0.43354985 -0.012417043 0.049532901
0.4335784 -0.011477376 0.049527172
0.43360698 -0.010537705 0.049521446
0.43273714 -0.0096503058 0.049032431
0.43276575 -0.0087090489 0.049026694
0.43279436 -0.0077677886 0.049020961
0.43282297 -0.0068265321 0.049015224
0.43285158 -0.0058852723 0.049009487
0.43288019 -0.0049440158 0.049003754
0.4329088 -0.0040027555 0.048998017
0.43293738 -0.003061495 0.04899228
0.43296599 -0.0021202348 0.048986543
0.4329946 -0.0011789784 0.04898081
0.43302321 -0.00023771808 0.048975073
0.43305182 0.00070353842 0.048969336
0.43218261 0.001611645 0.048480194
0.43221128 0.0025544951 0.04847445
0.43223995 0.0034973491 0.048468705
0.43226859 0.0044401973 0.048462957
0.43229726 0.0053830496 0.048457213
0.4323259 0.0063259015 0.048451468
0.43145698 0.0072451537 0.047962226
0.43148568 0.0081895972 0.04795647
0.43151441 0.0091340411 0.047950715
0.4306457 0.010059667 0.047461465
0.43067446 0.011005702 0.047455698
0.42980593 0.011936106 0.046966422
0.42983472 0.012883737 0.046960648
0.42896634 0.013818917 0.046471335
0.42809805 0.01475728 0.045982007
0.42812696 0.015708094 0.045976214
0.42725876 0.016651239 0.045486823
0.4272877 0.017603647 0.045481019
0.42641971 0.018551568 0.044991635
0.42369032 -0.032211166 0.043592855
0.42461786 -0.031166647 0.044071332
0.42464691 -0.030211054 0.044065509
0.42467594 -0.029255463 0.044059686
0.4256033 -0.028217301 0.044538207
0.42653057 -0.027182335 0.045016743
0.42745781 -0.026150541 0.045495328
0.42838487 -0.025121942 0.045973901
0.42841372 -0.024172721 0.045968115
0.42934066 -0.0231489 0.046446718
0.42936945 -0.022201268 0.046440944
0.43029621 -0.021182228 0.046919584
0.43122292 -0.020166369 0.047398236
0.43125162 -0.019221926 0.04739248
0.4321782 -0.018210836 0.047871187
0.43220687 -0.017267985 0.047865443
0.43223554 -0.016325135 0.047859699
0.43316188 -0.015320426 0.048338417
0.43319049 -0.014379166 0.04833268
0.43321911 -0.01343791 0.048326947
0.43324772 -0.012496649 0.04832121
0.43327633 -0.011555393 0.048315473
0.43330494 -0.010614129 0.04830974
0.43333355 -0.0096728727 0.048304003
0.43336216 -0.0087316157 0.048298266
0.43339077 -0.0077903555 0.048292533
0.43341938 -0.006849099 0.048286796
0.43344799 -0.0059078387 0.048281059
0.43257943 -0.0050109224 0.047790751
0.4326081 -0.0040680724 0.047785006
0.43263674 -0.0031252145 0.047779262
0.43266541 -0.0021823645 0.047773514
0.43269405 -0.0012395142 0.04776777
0.43272272 -0.00029666407 0.047762025
0.43275139 0.00064618612 0.047756277
0.43278003 0.00158904 0.047750533
0.4328087 0.0025318903 0.047744788
0.43194059 0.0034447336 0.047254357
0.43196929 0.0043891775 0.047248602
0.43199798 0.0053336211 0.047242846
0.43202668 0.0062780669 0.047237091
0.43205541 0.0072225109 0.047231335
0.43118763 0.0081449104 0.046740871
0.43121639 0.0090909479 0.046735108
0.43124515 0.010036985 0.046729341
0.43037757 0.010965757 0.046238836
0.43040639 0.011913386 0.046233062
0.42953894 0.012846938 0.04574253
0.4286716 0.013783672 0.045251977
0.42870051 0.014734484 0.045246184
0.42872941 0.015685299 0.045240391
0.42786223 0.016628405 0.044749774
0.42699516 0.017574696 0.044259164
0.42702416 0.018528696 0.044253353
0.42615727 0.019479765 0.043762706
0.42516527 -0.033100739 0.043343458
0.42609179 -0.032056175 0.043823168
0.42612079 -0.031102175 0.043817356
0.42614979 -0.030148178 0.043811541
0.42707616 -0.029109985 0.044291291
0.4271051 -0.028157573 0.044285487
0.42803136 -0.027124157 0.044765294
0.42806026 -0.026173338 0.044759497
0.42808917 -0.025222523 0.044753704
0.42901516 -0.024195479 0.045233522
0.42994109 -0.023171619 0.045713358
0.42996991 -0.022223989 0.045707583
0.43089566 -0.021204909 0.046187449
0.43092442 -0.020258872 0.046181686
0.43185005 -0.019244568 0.046661582
0.43187875 -0.018300122 0.046655826
0.43280429 -0.01729059 0.047135781
0.43283296 -0.01634774 0.047130037
0.4328616 -0.01540489 0.047124289
0.43289027 -0.014462036 0.047118545
0.43291891 -0.013519187 0.0471128
0.43294758 -0.012576336 0.047107052
0.43297625 -0.011633486 0.047101308
0.43300489 -0.010690632 0.047095563
0.43303356 -0.0097477781 0.047089819
0.4330622 -0.0088049276 0.047084071
0.43309087 -0.007862078 0.047078326
0.43311954 -0.0069192275 0.047072582
0.43314818 -0.0059763775 0.047066834
0.43317685 -0.0050335275 0.047061089
0.43320552 -0.004090677 0.047055345
0.43323416 -0.0031478195 0.047049601
0.43236676 -0.0022445729 0.046557985
0.43239549 -0.001300129 0.046552233
0.43242419 -0.0003556851 0.046546478
0.43245289 0.00058875873 0.046540722
0.43248159 0.0015332026 0.046534967
0.43251029 0.0024776463 0.046529211
0.43253902 0.0034220903 0.046523456
0.43256772 0.0043665338 0.0465177
0.4317008 0.0052841185 0.046026032
0.43172956 0.0062301578 0.046020269
0.43175831 0.0071761939 0.046014503
0.43178707 0.008122229 0.04600874
0.43181583 0.0090682665 0.046002973
0.43094921 0.0099954074 0.045511246
0.43097803 0.010943037 0.045505472
0.43011156 0.011874955 0.045013718
0.43014041 0.012824181 0.045007933
0.42927408 0.013760876 0.04451615
0.42930299 0.014711688 0.044510357
0.42843673 0.015653163 0.044018518
0.42846569 0.016605571 0.044012714
0.42759967 0.017551823 0.043520872
0.42762867 0.018505823 0.043515056
0.42765766 0.019459823 0.043509245
0.42679182 0.020412447 0.043017361
0.42756382 -0.032942444 0.043577451
0.42759278 -0.031990033 0.043571647
0.42762172 -0.031037629 0.043565843
0.42765066 -0.030085225 0.043560039
0.42767963 -0.029132819 0.043554235
0.42860493 -0.028097764 0.044035263
0.42863381 -0.027146952 0.044029471
0.42866272 -0.026196133 0.044023674
0.42958778 -0.025167458 0.044504717
0.42961663 -0.024218237 0.044498932
0.43054152 -0.023194339 0.044980001
0.43057033 -0.022246707 0.044974227
0.4314951 -0.021227591 0.045455329
0.43152386 -0.020281553 0.045449562
0.43155262 -0.01933552 0.045443799
0.43247718 -0.018322764 0.045924935
0.43250588 -0.017378321 0.04591918
0.43253458 -0.016433878 0.045913424
0.4325633 -0.015489433 0.045907669
0.432592 -0.014544989 0.045901913
0.4326207 -0.013600545 0.045896161
0.4326494 -0.012656102 0.045890406
0.43267813 -0.011711658 0.04588465
0.43270683 -0.01076721 0.045878895
0.43273553 -0.0098227663 0.045873139
0.43276423 -0.0088783223 0.045867383
0.43279293 -0.0079338783 0.045861628
0.43282166 -0.0069894386 0.045855872
0.43285036 -0.006044995 0.045850117
0.43287906 -0.0051005511 0.045844365
0.43290776 -0.0041561071 0.045838609
0.43293649 -0.0032116596 0.045832854
0.43296519 -0.0022672159 0.045827098
0.43299389 -0.001322772 0.045821343
0.43302259 -0.00037832811 0.045815587
0.43215647 0.00053125375 0.045322735
0.4321852 0.0014772912 0.045316972
0.43221396 0.0024233288 0.045311205
0.43224272 0.0033693663 0.045305438
0.43227148 0.0043154038 0.045299675
0.43230024 0.0052614375 0.045293912
0.432329 0.0062074768 0.045288146
0.43146324 0.0071298005 0.044795215
0.43149206 0.0080774296 0.044789441
0.43152085 0.0090250587 0.044783667
0.43154964 0.0099726887 0.044777893
0.43068415 0.010902977 0.044284914
0.430713 0.011852197 0.044279128
0.42984763 0.012787265 0.04378612
0.42987654 0.01373808 0.043780327
0.42901126 0.014677922 0.043287266
0.42904022 0.015630329 0.043281462
0.42817512 0.016574953 0.042788394
0.42820412 0.017528951 0.042782582
0.4273392 0.018478351 0.042289488
0.42736825 0.019433944 0.042283662
0.42739731 0.020389536 0.042277839
0.42742634 0.021345129 0.042272016
0.42816728 -0.03296528 0.042840388
0.42819625 -0.032012869 0.042834584
0.42822519 -0.031060463 0.04282878
0.42825413 -0.030108059 0.042822976
0.4282831 -0.029155653 0.042817172
0.42920738 -0.028120559 0.043299437
0.42923629 -0.027169749 0.04329364
0.42926517 -0.02621893 0.043287847
0.43018922 -0.025190216 0.043770123
0.43021807 -0.024240995 0.043764338
0.43114197 -0.023217058 0.04424664
0.43117079 -0.022269428 0.044240866
0.43209451 -0.021250272 0.044723198
0.43212327 -0.020304235 0.044717435
0.43215203 -0.019358201 0.044711668
0.43218079 -0.018412158 0.044705905
0.43310431 -0.017400963 0.045188282
0.43313301 -0.01645652 0.045182526
0.43316174 -0.015512076 0.045176771
0.43319044 -0.014567632 0.045171015
0.43321913 -0.013623189 0.045165259
0.43324783 -0.012678745 0.045159504
0.43327653 -0.011734301 0.045153748
0.43330526 -0.010789854 0.045147993
0.43333396 -0.0098454095 0.045142237
0.43336266 -0.0089009656 0.045136482
0.43249711 -0.0080057578 0.044642489
0.43252584 -0.0070597203 0.044636726
0.4325546 -0.0061136824 0.04463096
0.43258336 -0.0051676487 0.044625197
0.43261212 -0.0042216112 0.04461943
0.43264088 -0.0032755702 0.044613667
0.43266964 -0.0023295365 0.0446079
0.4326984 -0.0013834989 0.044602137
0.43272713 -0.00043746142 0.04459637
0.43275589 0.00050857232 0.044590607
0.43278465 0.0014546098 0.044584841
0.43281341 0.0024006474 0.044579078
0.43194848 0.0033165656 0.044084951
0.43197727 0.0042641931 0.044079177
0.43200609 0.0052118204 0.044073403
0.43203488 0.0061594518 0.044067629
0.4320637 0.0071070809 0.044061854
0.43209249 0.00805471 0.04405608
0.43122789 0.0089817727 0.043561887
0.43125674 0.0099309981 0.043556102
0.43128559 0.010880219 0.04355032
0.4304212 0.011813653 0.043056086
0.43045008 0.012764469 0.043050293
0.43047899 0.013715284 0.0430445
0.42961472 0.014655088 0.042550202
0.42964369 0.015607495 0.042544398
0.4287796 0.016552079 0.042050105
0.4288086 0.017506078 0.042044293
0.42794469 0.01845544 0.041549966
0.42797375 0.019411033 0.041544139
0.42800277 0.020366626 0.041538317
0.42713907 0.021322358 0.041043952
0.42716816 0.022279542 0.041038118
0.42877075 -0.032988112 0.042103339
0.42879972 -0.032035701 0.042097535
0.42882866 -0.031083297 0.042091731
0.42885759 -0.030130893 0.042085927
0.42978093 -0.029094173 0.042569414
0.42980984 -0.028143356 0.042563617
0.42983875 -0.027192544 0.042557824
0.42986763 -0.026241725 0.042552032
0.43079066 -0.025212973 0.043035533
0.43081951 -0.024263753 0.043029748
0.4317424 -0.023239778 0.043513287
0.43177122 -0.022292146 0.043507509
0.43180001 -0.021344518 0.043501735
0.43272272 -0.020326914 0.043985307
0.43275148 -0.019380881 0.04397954
0.43278024 -0.018434839 0.043973777
0.432809 -0.017488802 0.043968011
0.43283772 -0.016542764 0.043962248
0.43286648 -0.015596732 0.043956481
0.43289524 -0.014650694 0.043950718
0.432924 -0.01370466 0.043944951
0.43295276 -0.012758623 0.043939188
0.43298152 -0.011812585 0.043933421
0.43301028 -0.010866544 0.043927658
0.43303901 -0.0099205105 0.043921892
0.43306777 -0.008974473 0.043916129
0.43309653 -0.0080284392 0.043910362
0.43312529 -0.0070824013 0.043904599
0.43315405 -0.0061363638 0.043898832
0.43318281 -0.0051903301 0.043893069
0.43231848 -0.0042871917 0.043397792
0.4323473 -0.0033395607 0.043392017
0.43237609 -0.0023919295 0.043386243
0.43240491 -0.0014443022 0.043380469
0.43243369 -0.00049667468 0.043374695
0.43246251 0.00045095646 0.043368921
0.4324913 0.0013985839 0.043363146
0.43252012 0.0023462151 0.043357372
0.43254891 0.0032938463 0.043351598
0.4325777 0.0042414735 0.04334582
0.43260652 0.0051891012 0.043340046
0.43263531 0.0061367322 0.043334272
0.43177164 0.007060573 0.042838868
0.43180048 0.0080097942 0.042833082
0.43182933 0.0089590149 0.042827297
0.43185818 0.0099082403 0.042821515
0.43099475 0.010840044 0.042326063
0.43102366 0.011790857 0.04232027
0.43105254 0.012741674 0.042314477
0.43018925 0.013679848 0.041818958
0.43021819 0.014632254 0.041813154
0.43024716 0.015584661 0.04180735
0.42938408 0.016529208 0.041311815
0.42852113 0.017476937 0.040816266
0.42855018 0.01843253 0.04081044
0.42857924 0.019388122 0.040804617
0.42771646 0.020342223 0.040309034
0.42863733 0.021299308 0.040792972
0.42777464 0.022256594 0.040297367
0.42937422 -0.033010948 0.041366275
0.42940319 -0.032058537 0.041360471
0.42943212 -0.031106131 0.041354671
0.43035451 -0.030067781 0.04183938
0.42949003 -0.029201321 0.041343063
0.43041229 -0.028166151 0.04182779
0.4304412 -0.027215339 0.041821998
0.43047011 -0.026264522 0.041816201
0.43139213 -0.025235731 0.04230094
0.43142098 -0.02428651 0.042295154
0.43144983 -0.023337286 0.042289369
0.43237168 -0.022314867 0.042774145
0.43240047 -0.021367239 0.04276837
0.43242928 -0.020419611 0.042762592
0.43245807 -0.019471981 0.042756818
0.43248689 -0.018524349 0.042751044
0.43251568 -0.017576719 0.04274527
0.4325445 -0.016629091 0.042739496
0.43257329 -0.015681462 0.042733721
0.43260208 -0.014733832 0.042727947
0.4326309 -0.013786204 0.042722173
0.43265969 -0.012838577 0.042716399
0.4326885 -0.011890946 0.042710621
0.43271729 -0.010943315 0.042704847
0.43274611 -0.009995684 0.042699073
0.4327749 -0.0090480559 0.042693298
0.43280372 -0.0081004286 0.042687524
0.43283251 -0.0071527977 0.04268175
0.43286133 -0.0062051699 0.042675976
0.43289012 -0.0052575427 0.042670202
0.43291894 -0.0043099117 0.042664427
0.43294773 -0.0033622805 0.042658653
0.43297654 -0.0024146494 0.042652875
0.43300533 -0.0014670219 0.042647101
0.43303415 -0.00051939447 0.042641327
0.43217114 0.00039326027 0.04214476
0.43219998 0.0013424814 0.042138979
0.43222883 0.0022917062 0.042133193
0.43225768 0.0032409274 0.042127408
0.43228653 0.0041901483 0.042121623
0.43231538 0.0051393714 0.042115841
0.43234423 0.0060885944 0.042110056
0.43237311 0.0070378152 0.04210427
0.43240196 0.0079870364 0.042098489
0.43153942 0.0089156162 0.041601826
0.43156832 0.0098664332 0.041596029
0.4315972 0.010817247 0.041590236
0.43162611 0.011768061 0.041584443
0.43165502 0.012718878 0.041578647
0.43079272 0.013657013 0.041081894
0.43082166 0.01460942 0.04107609
0.42995957 0.015552334 0.040579334
0.42998856 0.016506335 0.040573522
0.42912662 0.017454026 0.040076744
0.42915568 0.018409619 0.040070917
0.42918471 0.019365212 0.040065095
0.42921376 0.020320805 0.040059272
0.42835206 0.021276461 0.039562438
0.42838115 0.022233646 0.039556608
0.42751953 0.02319408 0.039059717
0.42997772 -0.033033781 0.040629216
0.43000665 -0.032081369 0.040623412
0.43003559 -0.031128965 0.040617608
0.43006456 -0.030176561 0.040611804
0.43098587 -0.029139765 0.041097756
0.43101478 -0.028188948 0.041091964
0.43104365 -0.027238136 0.041086167
0.43107256 -0.026287317 0.041080374
0.43110147 -0.025336502 0.041074581
0.43202242 -0.024309268 0.041560557
0.43205127 -0.023360044 0.041554775
0.43208015 -0.022410823 0.04154899
0.432109 -0.0214616 0.041543204
0.43213785 -0.02051238 0.041537423
0.43305853 -0.019494699 0.042023458
0.43308732 -0.018547069 0.042017683
0.43311614 -0.017599437 0.042011909
0.43314493 -0.016651809 0.042006135
0.43317375 -0.015704183 0.042000361
0.43320253 -0.014756552 0.041994587
0.43323135 -0.013808924 0.041988809
0.43326014 -0.012861297 0.041983034
0.43328893 -0.011913666 0.04197726
0.43331775 -0.010966035 0.041971486
0.43245521 -0.010070937 0.041473795
0.43248406 -0.009121716 0.041468009
0.43251291 -0.0081724944 0.041462224
0.43254176 -0.0072232736 0.041456442
0.43257061 -0.0062740524 0.041450657
0.43259948 -0.005324828 0.041444872
0.43262833 -0.0043756068 0.04143909
0.43265718 -0.0034263819 0.041433305
0.43268603 -0.0024771609 0.041427519
0.43271488 -0.0015279397 0.041421734
0.43274373 -0.00057871861 0.041415952
0.43277258 0.00037050247 0.041410167
0.43280143 0.0013197236 0.041404381
0.43283027 0.0022689484 0.0413986
0.43285915 0.0032181693 0.041392814
0.432888 0.0041673905 0.041387029
0.43202627 0.0050895633 0.040889174
0.43205518 0.006040378 0.040883377
0.43208408 0.0069911927 0.040877584
0.43211296 0.0079420079 0.040871792
0.43214187 0.0088928202 0.040865995
0.43217078 0.0098436372 0.040860202
0.43219969 0.010794451 0.040854409
0.43133831 0.011729362 0.040356442
0.43136725 0.012681773 0.040350638
0.43139619 0.013634179 0.040344834
0.43142515 0.014586586 0.04033903
0.43056405 0.015529461 0.039841041
0.43059304 0.016483463 0.039835226
0.42973211 0.017431116 0.039337214
0.42976117 0.018386709 0.039331391
0.4297902 0.019342301 0.039325569
0.42892945 0.020296326 0.038827516
0.42895856 0.021253511 0.038821682
0.42898765 0.022210697 0.038815852
0.42812705 0.023171093 0.038317729
0.42971867 -0.032193407 0.039393429
0.43063906 -0.031151799 0.039880551
0.43066803 -0.030199395 0.039874747
0.43158832 -0.029162562 0.040361933
0.43161723 -0.028211743 0.040356141
0.43164611 -0.027260931 0.040350344
0.43167502 -0.026310114 0.040344551
0.43170393 -0.025359299 0.040338758
0.43173283 -0.024408484 0.040332966
0.43265274 -0.023382802 0.040820185
0.43268159 -0.022433579 0.0408144
0.43271044 -0.021484358 0.040808618
0.43273929 -0.020535138 0.040802833
0.43276814 -0.019585917 0.040797047
