# .PCD v0.7 - Point Cloud Data file format
VERSION 0.7
FIELDS x y z
SIZE 4 4 4
TYPE F F F
COUNT 1 1 1
WIDTH 1350
HEIGHT 1
VIEWPOINT 0 0 0 1 0 0 0
POINTS 1350
DATA ascii
0.51270878 -0.023660475 0.033069134
0.51273489 -0.022802033 0.033063903
0.512761 -0.021943592 0.033058673
0.51278704 -0.021085152 0.033053443
0.51281315 -0.020226711 0.033048209
0.51367569 -0.019292936 0.033602558
0.51370174 -0.018436087 0.033597339
0.51372778 -0.017579239 0.033592116
0.51375383 -0.01672239 0.033586897
0.51294363 -0.015934508 0.033022054
0.51296973 -0.015076065 0.033016823
0.51299578 -0.014217627 0.033011593
0.51302189 -0.013359185 0.033006363
0.51304799 -0.012500746 0.033001129
0.5130741 -0.011642304 0.032995898
0.51310015 -0.010783866 0.032990668
0.51312625 -0.0099254241 0.032985438
0.51315236 -0.0090669822 0.032980207
0.51317847 -0.0082085393 0.032974973
0.51320451 -0.0073501011 0.032969743
0.51323062 -0.0064916592 0.032964513
0.51325673 -0.0056332205 0.032959282
0.51328284 -0.0047747786 0.032954048
0.51330894 -0.0039163404 0.032948818
0.51333499 -0.003057898 0.032943588
0.5133611 -0.0021994561 0.032938357
0.5133872 -0.0013410138 0.032933127
0.51341331 -0.00048257547 0.032927893
0.51343936 0.00037586663 0.032922663
0.51346546 0.001234305 0.032917432
0.51349157 0.0020927454 0.032912202
0.51351768 0.0029511873 0.032906972
0.51354373 0.0038096276 0.032901738
0.51356983 0.0046680677 0.032896508
0.51359594 0.0055265082 0.032891277
0.51362205 0.0063849501 0.032886047
0.51364809 0.0072433907 0.032880813
0.5136742 0.0081018312 0.032875583
0.51370031 0.0089602713 0.032870352
0.51372641 0.0098187132 0.032865122
0.51375246 0.010677153 0.032859892
0.51377857 0.011535593 0.032854658
0.51380467 0.012394036 0.032849427
0.51383078 0.013252476 0.032844197
0.51385689 0.014110916 0.032838967
0.51388294 0.014969356 0.032833736
0.51390904 0.015827799 0.032828502
0.51393515 0.016686238 0.032823272
0.51396126 0.017544679 0.032818042
0.5139873 0.01840312 0.032812811
0.51401341 0.019261561 0.032807581
0.51320529 0.020117927 0.032242317
0.5132314 0.020977959 0.032237079
0.51325756 0.021837994 0.032231838
0.51328367 0.022698026 0.032226596
0.51330984 0.02355806 0.032221355
0.51333594 0.024418093 0.032216113
0.51252818 0.025285607 0.031650789
0.51255435 0.026147233 0.031645536
0.51258051 0.027008859 0.031640287
0.51177287 0.027882744 0.031074887
0.5117991 0.028745962 0.031069627
0.51099163 0.029624626 0.030504229
0.5093506 0.030523509 0.029378669
0.50854337 0.031410135 0.028813226
0.50690264 0.032320168 0.027687566
0.50609565 0.033214759 0.027122071
0.50445527 0.034135938 0.025996376
0.50364852 0.035038494 0.0254308
0.50284183 0.035944231 0.024865242
0.50203532 0.036853153 0.024299663
0.50122887 0.037765261 0.023734061
0.50125569 0.038649183 0.023728676
0.5087055 -0.036227401 0.029674847
0.50873178 -0.035361003 0.029669568
0.50875813 -0.034494594 0.029664287
0.50962073 -0.033527337 0.030219667
0.50964701 -0.032662526 0.030214397
0.5096733 -0.031797711 0.030209128
0.51053566 -0.030836828 0.030764544
0.51056188 -0.029973602 0.030759284
0.51058811 -0.029110385 0.030754024
0.51145035 -0.02815586 0.031309515
0.51147658 -0.027294233 0.031304266
0.51233858 -0.026344491 0.031859752
0.51236475 -0.025484459 0.03185451
0.51239085 -0.024624428 0.031849269
0.51241702 -0.023764396 0.031844031
0.51327878 -0.022822615 0.032399565
0.51330489 -0.021964172 0.032394335
0.513331 -0.021105735 0.032389101
0.5133571 -0.020247292 0.03238387
0.51338315 -0.019388853 0.03237864
0.51340926 -0.018530412 0.03237341
0.51343536 -0.017671973 0.032368179
0.51346147 -0.016813532 0.032362945
0.51348758 -0.015955089 0.032357715
0.51351362 -0.015096647 0.032352485
0.51353973 -0.014238209 0.032347254
0.51356584 -0.013379766 0.03234202
0.51359195 -0.012521327 0.03233679
0.51361799 -0.011662886 0.03233156
0.5136441 -0.010804447 0.032326329
0.51367021 -0.0099460054 0.032321099
0.51369631 -0.0090875626 0.032315865
0.51372236 -0.0082291206 0.032310635
0.51374847 -0.0073706824 0.032305405
0.51377457 -0.0065122405 0.032300174
0.51380068 -0.0056538018 0.032294944
0.51382673 -0.0047953599 0.03228971
0.51385283 -0.0039369217 0.03228448
0.51387894 -0.0030784793 0.032279249
0.51390505 -0.0022200372 0.032274019
0.5139311 -0.0013615951 0.032268785
0.5139572 -0.00050315674 0.032263555
0.51314896 0.00031653876 0.031697288
0.51317513 0.0011765745 0.031692047
0.51320124 0.0020366067 0.031686805
0.5132274 0.0028966404 0.031681564
0.51325351 0.0037566745 0.031676322
0.51327968 0.0046167066 0.031671084
0.51330578 0.0054767383 0.031665843
0.51333195 0.0063367742 0.031660601
0.51335812 0.0071968064 0.03165536
0.51338422 0.0080568399 0.031650119
0.51341039 0.0089168726 0.031644881
0.5134365 0.009776908 0.031639639
0.51346266 0.01063694 0.031634398
0.51348877 0.011496972 0.031629156
0.51351494 0.012357008 0.031623915
0.5135411 0.01321704 0.031618673
0.51356721 0.014077074 0.031613436
0.51359338 0.014937106 0.031608194
0.51361948 0.015797142 0.031602953
0.51364565 0.016657174 0.031597711
0.51367176 0.017517207 0.03159247
0.51369792 0.018377241 0.031587232
0.51372409 0.019237274 0.03158199
0.5137502 0.020097308 0.031576749
0.51377636 0.020957341 0.031571507
0.51380247 0.021817375 0.031566266
0.51299554 0.022680072 0.030999737
0.51302171 0.023541698 0.030994486
0.51304793 0.024403322 0.030989235
0.5130741 0.025264949 0.030983984
0.51310033 0.026126575 0.030978734
0.51229358 0.026998829 0.030412111
0.51231986 0.027862048 0.030406849
0.51234609 0.028725266 0.030401589
0.51153964 0.029603891 0.029834963
0.50990057 0.030502699 0.028706938
0.50909436 0.031389285 0.02814026
0.5082882 0.032279059 0.027573531
0.50664967 0.033193793 0.026445407
0.50584376 0.034091529 0.025878664
0.50503802 0.034992453 0.0253119
0.50339991 0.035923112 0.024183648
0.50342667 0.036803853 0.02417828
0.50262117 0.037714329 0.023611458
0.502648 0.03859666 0.023606082
0.50184268 0.039511915 0.023039231
0.50925446 -0.036248174 0.029004347
0.5092808 -0.035381772 0.028999068
0.50930715 -0.034515366 0.028993787
0.50933343 -0.033648968 0.028988509
0.51019496 -0.032683257 0.02954513
0.51022124 -0.031818446 0.029539861
0.51024753 -0.03095364 0.029534591
0.51027381 -0.030088827 0.02952932
0.5111351 -0.029131081 0.030085988
0.51116133 -0.028267862 0.030080728
0.51118755 -0.027404644 0.030075468
0.51204872 -0.026453266 0.030632213
0.51207489 -0.02559164 0.030626962
0.51293582 -0.024645047 0.031183701
0.51296192 -0.023785016 0.03117846
0.51298809 -0.022924976 0.03117322
0.51301426 -0.022064943 0.031167978
0.51304036 -0.021204911 0.031162737
0.51306653 -0.020344879 0.031157497
0.51309264 -0.019484848 0.031152256
0.5131188 -0.018624812 0.031147014
0.51314491 -0.017764781 0.031141775
0.51317108 -0.016904747 0.031136533
0.51319724 -0.016044712 0.031131294
0.51322335 -0.01518468 0.031126052
0.51324952 -0.014324644 0.031120811
0.51327562 -0.013464612 0.031115571
0.51330179 -0.01260458 0.03111033
0.51332796 -0.011744548 0.031105088
0.51335406 -0.010884512 0.031099848
0.51338023 -0.010024481 0.031094607
0.51340634 -0.0091644442 0.031089365
0.5134325 -0.0083044125 0.031084126
0.51345861 -0.0074443803 0.031078884
0.51348478 -0.0065843444 0.031073645
0.51351094 -0.0057243123 0.031068403
0.51353705 -0.0048642806 0.031063162
0.51356322 -0.0040042484 0.031057922
0.51358932 -0.0031442163 0.031052681
0.51361549 -0.0022841769 0.031047439
0.5136416 -0.0014241447 0.0310422
0.51366776 -0.00056411268 0.031036958
0.51369393 0.00029591937 0.031031717
0.51372004 0.0011559551 0.031026477
0.5137462 0.0020159872 0.031021236
0.51377231 0.0028760212 0.031015996
0.51379848 0.003736055 0.031010754
0.51382458 0.0045960872 0.031005513
0.51385075 0.0054561193 0.031000273
0.51387691 0.0063161547 0.030995032
0.51390302 0.0071761869 0.03098979
0.51392919 0.0080362204 0.030984551
0.5139553 0.0088962531 0.030979309
0.51398146 0.0097562885 0.030974068
0.51400757 0.010616321 0.030968828
0.51403373 0.011476353 0.030963587
0.5140599 0.012336388 0.030958347
0.51408601 0.013196421 0.030953106
0.51327962 0.014043153 0.030385438
0.51330578 0.014904779 0.030380188
0.51333195 0.015766406 0.030374937
0.51335818 0.016628033 0.030369688
0.51338434 0.017489659 0.030364437
0.51341057 0.018351285 0.030359186
0.51343673 0.019212911 0.030353935
0.5134629 0.020074535 0.030348685
0.51348913 0.020936161 0.030343434
0.51351529 0.021797789 0.030338183
0.51354152 0.022659414 0.030332934
0.51356769 0.02352104 0.030327683
0.51276183 0.024388477 0.029759856
0.51278806 0.025251696 0.029754594
0.51281434 0.026114915 0.029749334
0.51284057 0.026978133 0.029744074
0.5128668 0.027841352 0.029738814
0.5120613 0.028718347 0.029170966
0.51208758 0.029583158 0.029165696
0.51128221 0.030464929 0.028597815
0.50964534 0.031368438 0.027467296
0.5088402 0.032258175 0.026899332
0.50803518 0.033151094 0.026331387
0.50723028 0.034047198 0.025763419
0.50642544 0.03494649 0.025195433
0.50478929 0.035875481 0.024064722
0.50398475 0.036782734 0.023496689
0.50401151 0.037663475 0.023491323
0.50403827 0.038544212 0.023485955
0.50323391 0.039457835 0.022917882
0.50980341 -0.036268946 0.028333846
0.50982976 -0.035402544 0.028328568
0.5098561 -0.034536138 0.028323287
0.51071662 -0.033568803 0.028881131
0.50990874 -0.032803334 0.028312728
0.51076925 -0.031839181 0.028870592
0.51079553 -0.030974373 0.028865321
0.51082182 -0.03010956 0.028860051
0.5108481 -0.029244747 0.028854782
0.51170826 -0.028288558 0.029412694
0.51173455 -0.027425338 0.029407434
0.51176077 -0.026562123 0.029402174
0.51262081 -0.025612298 0.029960159
0.51264703 -0.024750672 0.029954908
0.5126732 -0.023889046 0.029949658
0.51269943 -0.023027416 0.029944407
0.51272559 -0.022165792 0.029939158
0.51358533 -0.021225531 0.030497167
0.51361144 -0.020365499 0.030491928
0.5136376 -0.019505467 0.030486686
0.51366371 -0.018645432 0.030481447
0.51368988 -0.017785398 0.030476205
0.51371604 -0.016925367 0.030470964
0.51374215 -0.016065331 0.030465724
0.51376832 -0.015205299 0.030460482
0.51379442 -0.014345263 0.030455241
0.51382059 -0.013485231 0.030450001
0.5138467 -0.0126252 0.03044476
0.51387286 -0.011765167 0.030439518
0.51389903 -0.010905132 0.030434279
0.51392514 -0.010045099 0.030429037
0.5139513 -0.0091850637 0.030423798
0.51397741 -0.008325032 0.030418556
0.51400357 -0.0074649998 0.030413315
0.51402974 -0.0066049639 0.030408075
0.51322317 -0.0057949028 0.029839398
0.5132494 -0.0049332771 0.029834148
0.51327556 -0.0040716515 0.029828897
0.51330173 -0.0032100258 0.029823646
0.51332796 -0.0023483965 0.029818395
0.51335412 -0.0014867708 0.029813144
0.51338035 -0.00062514504 0.029807894
0.51340652 0.00023648066 0.029802645
0.51343268 0.0010981064 0.029797394
0.51345891 0.001959732 0.029792143
0.51348507 0.0028213596 0.029786892
0.5135113 0.0036829854 0.029781641
0.51353747 0.0045446111 0.029776391
0.51356363 0.0054062367 0.029771142
0.51358986 0.0062678624 0.029765891
0.51361603 0.007129488 0.02976064
0.51364219 0.0079911137 0.029755389
0.51366842 0.0088527398 0.029750139
0.51369458 0.0097143669 0.029744888
0.51372081 0.010575993 0.029739637
0.51374698 0.011437618 0.029734388
0.51377314 0.012299246 0.029729137
0.51379937 0.013160872 0.029723886
0.51382554 0.014022496 0.029718636
0.51385176 0.014884122 0.029713385
0.51387793 0.01574575 0.029708134
0.51390409 0.016607374 0.029702885
0.51393032 0.017469 0.029697634
0.51395649 0.018330626 0.029692383
0.51315135 0.019188469 0.029123383
0.51317763 0.020051688 0.029118123
0.51320386 0.020914907 0.029112862
0.51323009 0.021778127 0.029107602
0.51325631 0.022641344 0.029102342
0.51328254 0.023504563 0.029097082
0.51330882 0.024367781 0.029091822
0.51333505 0.025231 0.029086562
0.51336128 0.026094219 0.029081302
0.51255667 0.026967989 0.028512236
0.51258296 0.027832801 0.028506966
0.51260924 0.028697612 0.028501697
0.51180488 0.029577753 0.027932595
0.51183116 0.030444156 0.027927315
0.51019639 0.031347588 0.026794329
0.5093922 0.032237288 0.026225135
0.50858819 0.033130169 0.025655957
0.50778431 0.034026235 0.025086755
0.50698048 0.034925487 0.024517534
0.50700712 0.035801448 0.024512198
0.50620341 0.036705479 0.023942951
0.50539982 0.037612695 0.02337365
0.50459635 0.038523097 0.022804361
0.50462312 0.039403833 0.022798995
0.51035243 -0.036289718 0.027663341
0.51037872 -0.03542332 0.027658062
0.51040506 -0.03455691 0.027652781
0.51043141 -0.033690512 0.027647503
0.51045775 -0.032824107 0.027642222
0.5104841 -0.031957705 0.027636943
0.51134348 -0.030995108 0.028196052
0.51136976 -0.030130295 0.028190782
0.51139605 -0.029265482 0.028185511
0.51225525 -0.028309254 0.028744657
0.51228148 -0.027446033 0.028739396
0.5123077 -0.026582818 0.028734136
0.51233399 -0.0257196 0.028728876
0.51236022 -0.024856379 0.028723614
0.51238644 -0.023993164 0.028718354
0.51324534 -0.023048075 0.029277602
0.51327151 -0.022186449 0.029272351
0.51329774 -0.021324823 0.029267101
0.5133239 -0.020463202 0.02926185
0.51335013 -0.019601576 0.029256601
0.5133763 -0.01873995 0.02925135
0.51340246 -0.017878324 0.029246099
0.51342869 -0.0170167 0.029240848
0.51345485 -0.01615507 0.029235598
0.51348108 -0.015293444 0.029230347
0.51350725 -0.014431817 0.029225096
0.51353341 -0.013570192 0.029219847
0.51355964 -0.012708566 0.029214596
0.51358581 -0.011846941 0.029209346
0.51361197 -0.010985315 0.029204095
0.5136382 -0.01012369 0.029198844
0.51366436 -0.0092620598 0.029193593
0.51369059 -0.0084004337 0.029188342
0.51371676 -0.0075388085 0.029183093
0.51374292 -0.0066771829 0.029177843
0.51376915 -0.0058155609 0.029172592
0.51379532 -0.0049539348 0.029167341
0.51382154 -0.0040923092 0.02916209
0.51384771 -0.0032306835 0.029156839
0.51304239 -0.0024126912 0.02858685
0.51306862 -0.0015494757 0.028581589
0.51309484 -0.00068625627 0.028576329
0.51312107 0.00017696308 0.028571069
0.51314735 0.0010401824 0.028565809
0.51317358 0.0019033981 0.028560549
0.51319981 0.0027666194 0.028555289
0.51322603 0.0036298367 0.028550029
0.51325226 0.0044930563 0.028544767
0.51327854 0.0053562736 0.028539507
0.51330477 0.0062194932 0.028534247
0.513331 0.0070827124 0.028528986
0.51335722 0.0079459297 0.028523726
0.51338345 0.0088091493 0.028518466
0.51340973 0.0096723689 0.028513206
0.51343596 0.010535587 0.028507946
0.51346219 0.011398805 0.028502686
0.51348841 0.012262025 0.028497426
0.51351464 0.013125245 0.028492166
0.51354092 0.013988461 0.028486906
0.51356715 0.014851679 0.028481646
0.51359338 0.015714901 0.028476385
0.5136196 0.016578117 0.028471125
0.51364583 0.017441336 0.028465865
0.51367211 0.018304557 0.028460605
0.51369834 0.019167773 0.028455343
0.51372457 0.020030992 0.028450083
0.51375079 0.020894211 0.028444823
0.51377702 0.021757431 0.028439563
0.5138033 0.022620648 0.028434303
0.51299953 0.023488009 0.027864046
0.51302582 0.024352821 0.027858777
0.51305211 0.025217632 0.027853506
0.51307839 0.026082443 0.027848236
0.51310468 0.026947254 0.027842967
0.51313096 0.027812067 0.027837697
0.51315725 0.028676879 0.027832426
0.51235384 0.02955698 0.02726209
0.51155055 0.030440267 0.026691737
0.51074737 0.031326741 0.026121363
0.51077378 0.032196332 0.026116064
0.50997066 0.033087581 0.025545627
0.50916773 0.03398202 0.024975201
0.50836492 0.03487964 0.02440476
0.5075621 0.035780445 0.023834301
0.50675946 0.036684439 0.023263818
0.50595689 0.037591618 0.022693284
0.50598359 0.038470764 0.022687925
0.50518113 0.039382719 0.022117397
0.50437886 0.040297858 0.02154685
0.50357664 0.041216183 0.020976279
0.51090139 -0.03631049 0.026992841
0.51092774 -0.035444088 0.026987562
0.51095402 -0.034577683 0.026982281
0.51098037 -0.033711284 0.026977003
0.51100671 -0.032844879 0.026971724
0.51103306 -0.031978477 0.026966443
0.51189142 -0.031015841 0.027526783
0.51191771 -0.030151028 0.027521512
0.511944 -0.029286215 0.027516242
0.51197028 -0.028421402 0.027510973
0.51199657 -0.027556593 0.027505703
0.5128547 -0.026603514 0.028066099
0.51288092 -0.025740296 0.028060839
0.51290715 -0.024877075 0.028055578
0.51293337 -0.02401386 0.028050318
0.51295966 -0.023150638 0.028045058
0.51298589 -0.022287417 0.028039798
0.51301211 -0.021424199 0.028034538
0.51303834 -0.020560984 0.028029278
0.51306456 -0.019697763 0.028024018
0.51309085 -0.018834544 0.028018758
0.51311707 -0.017971328 0.028013498
0.5131433 -0.017108109 0.028008237
0.51316953 -0.016244886 0.028002977
0.51319575 -0.015381671 0.027997717
0.51322204 -0.014518451 0.027992457
0.51324826 -0.013655231 0.027987197
0.51327449 -0.012792015 0.027981935
0.51330072 -0.011928797 0.027976675
0.51332694 -0.011065577 0.027971415
0.51335323 -0.010202361 0.027966155
0.51337945 -0.0093391379 0.027960895
0.51340568 -0.0084759193 0.027955635
0.51343191 -0.0076126996 0.027950374
0.51345813 -0.0067494838 0.027945114
0.51348442 -0.0058862646 0.027939854
0.51351064 -0.005023045 0.027934594
0.51353687 -0.0041598296 0.027929334
0.5135631 -0.0032966102 0.027924074
0.51358932 -0.0024333871 0.027918814
0.51361561 -0.0015701714 0.027913554
0.51364183 -0.00070695212 0.027908294
0.51366806 0.00015626727 0.027903033
0.51369429 0.0010194867 0.027897773
0.51372051 0.0018827022 0.027892511
0.51374674 0.0027459236 0.027887251
0.51377302 0.0036091411 0.027881991
0.51379925 0.0044723605 0.027876731
0.51382548 0.0053355778 0.027871471
0.5138517 0.0061987974 0.027866211
0.51387793 0.0070620165 0.027860951
0.51390421 0.0079252338 0.027855691
0.51393044 0.0087884534 0.02785043
0.51395667 0.009651673 0.02784517
0.51398289 0.010514891 0.02783991
0.51400912 0.011378109 0.02783465
0.5140354 0.012241329 0.02782939
0.51406163 0.013104549 0.02782413
0.51408786 0.013967766 0.02781887
0.51411408 0.014830983 0.02781361
0.51331091 0.015683975 0.027242206
0.51333719 0.016548786 0.027236937
0.51336348 0.017413598 0.027231667
0.51338977 0.018278409 0.027226396
0.51341605 0.01914322 0.027221126
0.51344234 0.020008031 0.027215857
0.51346862 0.020872841 0.027210588
0.51349491 0.021737654 0.027205316
0.51352119 0.022602465 0.027200047
0.51354748 0.023467276 0.027194778
0.51357377 0.024332087 0.027189506
0.51360005 0.025196899 0.027184237
0.51362634 0.02606171 0.027178967
0.51365262 0.026926521 0.027173698
0.51285017 0.027803401 0.026602149
0.51287645 0.028669804 0.02659687
0.5129028 0.029536208 0.02659159
0.51210052 0.030419458 0.026020003
0.51129836 0.031305891 0.025448397
0.51132476 0.032175481 0.025443098
0.51052272 0.033066694 0.024871426
0.51054919 0.033937879 0.024866117
0.50974727 0.034833867 0.024294453
0.50894547 0.035733044 0.02372277
0.50814378 0.036635406 0.023151066
0.50817043 0.037511364 0.023145728
0.50654066 0.038449686 0.022007566
0.50573921 0.039361604 0.021435803
0.50493789 0.040276706 0.020864023
0.50413668 0.041194994 0.020292222
0.50333554 0.042116467 0.01972037
0.50170654 0.043080267 0.018582083
0.50007778 0.044050436 0.017443763
0.51059264 -0.037305091 0.025760837
0.51061904 -0.03643709 0.025755549
0.51064539 -0.035569098 0.025750259
0.51150304 -0.034598455 0.026311783
0.51152939 -0.033732057 0.026306503
0.51155567 -0.032865651 0.026301224
0.51158202 -0.031999249 0.026295943
0.51160836 -0.031132843 0.026290664
0.51246572 -0.030171763 0.026852246
0.512492 -0.02930695 0.026846975
0.51251829 -0.028442137 0.026841706
0.51254457 -0.027577328 0.026836436
0.51257086 -0.026712514 0.026831165
0.51259714 -0.025847705 0.026825896
0.51262343 -0.024982896 0.026820626
0.51264971 -0.024118083 0.026815357
0.51350659 -0.023171334 0.027377026
0.51353282 -0.022308113 0.027371764
0.51355904 -0.021444894 0.027366504
0.51358533 -0.020581678 0.027361244
0.51361156 -0.019718459 0.027355984
0.51363778 -0.01885524 0.027350724
0.51366401 -0.017992023 0.027345464
0.51369023 -0.017128805 0.027340204
0.51371652 -0.016265582 0.027334943
0.51374274 -0.015402365 0.027329683
0.51376897 -0.014539147 0.027324423
0.5137952 -0.013675927 0.027319163
0.51382142 -0.012812711 0.027313903
0.51384771 -0.011949493 0.027308643
0.51387393 -0.011086273 0.027303383
0.51390016 -0.010223057 0.027298123
0.51392639 -0.0093598338 0.027292863
0.51395261 -0.0084966151 0.027287602
0.5139789 -0.0076333955 0.02728234
0.51400512 -0.0067701796 0.02727708
0.51403135 -0.0059069605 0.02727182
0.51405758 -0.0050437408 0.02726656
0.5140838 -0.0041805254 0.0272613
0.51328057 -0.0033626107 0.026688877
0.51330686 -0.0024977976 0.026683608
0.51333314 -0.0016329846 0.026678339
0.51335943 -0.00076817529 0.026673067
0.51338571 9.6637712e-05 0.026667798
0.513412 0.00096144702 0.026662529
0.51343828 0.0018262581 0.026657259
0.51346457 0.0026910712 0.026651988
0.51349086 0.0035558804 0.026646718
0.51351714 0.0044206916 0.026641449
0.51354343 0.0052855029 0.02663618
0.51356971 0.006150316 0.026630908
0.513596 0.0070151272 0.026625639
0.51362228 0.007879938 0.026620369
0.51364857 0.0087447474 0.026615098
0.51367486 0.0096095605 0.026609829
0.51370114 0.010474372 0.026604559
0.51372743 0.011339183 0.02659929
0.51375371 0.012203996 0.026594019
0.51378 0.013068807 0.026588749
0.51380628 0.013933619 0.02658348
0.51383257 0.014798428 0.02657821
0.51385885 0.01566324 0.026572939
0.51388514 0.016528051 0.02656767
0.51391143 0.017392863 0.0265624
0.51393771 0.018257674 0.026557131
0.513964 0.019122485 0.026551859
0.51399028 0.019987298 0.02654659
0.51401657 0.020852108 0.026541321
0.51404285 0.021716919 0.026536049
0.51324111 0.022584204 0.025963327
0.51326746 0.023450609 0.025958046
0.5132938 0.024317011 0.025952768
0.51332009 0.025183415 0.025947489
0.51334643 0.026049821 0.025942208
0.51337278 0.026916225 0.02593693
0.51339912 0.027782628 0.025931649
0.51342547 0.028649032 0.02592637
0.51262414 0.02953065 0.025353558
0.51265049 0.030398648 0.02534827
0.51184934 0.031285044 0.024775429
0.51187575 0.032154635 0.024770131
0.51107472 0.03304581 0.02419723
0.51110119 0.033916991 0.024191922
0.51030028 0.034812942 0.023619022
0.5103268 0.035685718 0.023613704
0.50952607 0.036586449 0.023040777
0.50872546 0.037490364 0.022467833
0.50875205 0.038366321 0.022462497
0.50712442 0.039307751 0.021321848
0.50632405 0.040221225 0.020748846
0.50469679 0.041173801 0.019608164
0.50389659 0.042095236 0.019035079
0.50309658 0.043019857 0.018462006
0.50146979 0.043988358 0.017321227
0.49984315 0.044963233 0.016180377
0.51114261 -0.037325904 0.025089104
0.51116902 -0.036457904 0.025083816
0.51119536 -0.035589907 0.025078526
0.512052 -0.034619227 0.025641283
0.51207834 -0.033752829 0.025636002
0.51210469 -0.032886423 0.025630724
0.51213098 -0.032020021 0.025625443
0.51215732 -0.031153616 0.025620164
0.51218367 -0.03028721 0.025614884
0.51221001 -0.029420806 0.025609605
0.51306623 -0.02846287 0.026172437
0.51309252 -0.027598061 0.026167165
0.5131188 -0.026733248 0.026161896
0.51314509 -0.025868438 0.026156627
0.51317137 -0.025003629 0.026151357
0.51319766 -0.024138816 0.026146086
0.51322395 -0.023274003 0.026140817
0.51325023 -0.022409189 0.026135547
0.51327652 -0.02154438 0.026130278
0.5133028 -0.020679573 0.026125006
0.51332909 -0.019814759 0.026119737
0.51335537 -0.01894995 0.026114468
0.51338166 -0.018085137 0.026109196
0.51340795 -0.017220328 0.026103927
0.51343423 -0.016355511 0.026098657
0.51346052 -0.015490701 0.026093388
0.5134868 -0.014625892 0.026088117
0.51351309 -0.013761079 0.026082847
0.51353937 -0.01289627 0.026077578
0.51356566 -0.012031456 0.026072308
0.51359195 -0.011166647 0.026067037
0.51361823 -0.010301838 0.026061768
0.51364452 -0.0094370209 0.026056498
0.5136708 -0.0085722115 0.026051229
0.51369709 -0.0077073989 0.026045958
0.51372337 -0.0068425895 0.026040688
0.51374966 -0.0059777764 0.026035419
0.51377594 -0.005112967 0.026030147
0.51380223 -0.0042481576 0.026024878
0.51382852 -0.0033833447 0.026019609
0.5138548 -0.0025185316 0.026014339
0.51388109 -0.0016537186 0.026009068
0.51390737 -0.00078890932 0.026003798
0.51393366 7.5903685e-05 0.025998529
0.51395994 0.00094071298 0.02599326
0.51398623 0.0018055241 0.025987988
0.51401252 0.0026703372 0.025982719
0.5140388 0.0035351466 0.025977449
0.51323706 0.0043689483 0.025403699
0.5132634 0.0052353512 0.02539842
0.51328975 0.0061017582 0.02539314
0.51331604 0.0069681611 0.025387861
0.51417023 0.007859204 0.025951099
0.51419652 0.0087240133 0.025945829
0.5142228 0.0095888264 0.02594056
0.51424909 0.010453638 0.02593529
0.51427537 0.011318449 0.025930019
0.51430166 0.012183262 0.02592475
0.51432794 0.013048073 0.02591948
0.51435423 0.013912885 0.025914211
0.51355308 0.014765795 0.025340343
0.51357943 0.015632201 0.025335064
0.51360577 0.016498605 0.025329784
0.51363206 0.017365009 0.025324505
0.5136584 0.018231412 0.025319224
0.51368475 0.019097816 0.025313945
0.51371109 0.01996422 0.025308665
0.51373744 0.020830624 0.025303386
0.51376373 0.021697028 0.025298107
0.51379007 0.022563431 0.025292827
0.51381642 0.023429837 0.025287548
0.51384276 0.024296239 0.025282267
0.51386911 0.025162643 0.025276989
0.51389545 0.026029048 0.025271708
0.51392174 0.026895452 0.025266429
0.51394808 0.027761856 0.025261149
0.51314771 0.028641844 0.024687115
0.51317412 0.029509841 0.024681825
0.51320052 0.030377837 0.024676535
0.51240033 0.031264193 0.024102466
0.51242679 0.032133784 0.024097167
0.51162672 0.033024922 0.023523033
0.51165318 0.033896104 0.023517724
0.51167965 0.034767285 0.023512416
0.51087981 0.035664793 0.022938274
0.5100801 0.036565486 0.022364117
0.51010668 0.037439853 0.022358788
0.50930709 0.038345322 0.021784598
0.50850761 0.039253976 0.021210393
0.50688213 0.040200107 0.020067252
0.50608289 0.041116726 0.019492993
0.50445771 0.042074006 0.018349787
0.50283277 0.043037653 0.017206574
0.50203389 0.043967012 0.016632238
0.50123513 0.044899561 0.016057888
0.49961066 0.045879137 0.014914542
0.51081038 -0.039193384 0.023858722
0.51166624 -0.038214706 0.024422662
0.51169258 -0.037346713 0.024417374
0.51171899 -0.036478713 0.024412084
0.51174539 -0.035610721 0.024406794
0.51260096 -0.034639999 0.024970783
0.5126273 -0.033773601 0.024965502
0.51265365 -0.032907195 0.024960224
0.51267999 -0.032040793 0.024954943
0.51270634 -0.031174388 0.024949664
0.51273263 -0.030307982 0.024944384
0.51275897 -0.029441578 0.024939105
0.51278532 -0.028575171 0.024933824
0.51281166 -0.027708769 0.024928546
0.51283801 -0.026842365 0.024923265
0.51286435 -0.025975963 0.024917986
0.51289064 -0.025109559 0.024912706
0.51291698 -0.024243157 0.024907427
0.51377189 -0.023294738 0.025471549
0.51379818 -0.022429924 0.02546628
0.51382446 -0.021565115 0.025461011
0.51385075 -0.020700306 0.025455741
0.51387703 -0.019835493 0.02545047
0.51390332 -0.018970683 0.025445201
0.51392961 -0.01810587 0.025439931
0.51395589 -0.017241061 0.02543466
0.51398218 -0.016376244 0.02542939
0.51400846 -0.015511435 0.025424121
0.51403481 -0.014646626 0.025418852
0.51406109 -0.013781813 0.02541358
0.51408738 -0.012917004 0.025408311
0.51411366 -0.01205219 0.025403041
0.51413995 -0.011187381 0.025397772
0.51416624 -0.010322572 0.025392501
0.51419252 -0.0094577549 0.025387231
0.51421881 -0.0085929455 0.025381962
0.51424509 -0.0077281324 0.025376691
0.51427138 -0.0068633235 0.025371421
0.51429766 -0.0059985104 0.025366152
0.51432395 -0.005133701 0.025360882
0.51352268 -0.0043158624 0.024785995
0.51354903 -0.0034494598 0.024780715
0.51357538 -0.002583053 0.024775436
0.51360172 -0.0017166501 0.024770157
0.51362801 -0.0008502471 0.024764877
0.51365435 1.6155867e-05 0.024759598
0.5136807 0.00088255882 0.024754317
0.51370704 0.0017489655 0.024749039
0.51373339 0.0026153685 0.024743758
0.51375967 0.0034817732 0.024738479
0.51378602 0.0043481761 0.024733199
0.51381236 0.0052145794 0.02472792
0.51383871 0.006080986 0.024722639
0.51386505 0.0069473889 0.024717361
0.5138914 0.0078137917 0.02471208
0.51391768 0.0086801946 0.024706801
0.51394403 0.0095466012 0.024701521
0.51397038 0.010413004 0.024696242
0.51399672 0.011279407 0.024690961
0.51402307 0.012145814 0.024685683
0.51404941 0.013012217 0.024680402
0.5140757 0.01387862 0.024675123
0.51410204 0.014745023 0.024669843
0.51412839 0.01561143 0.024664564
0.51415473 0.016477833 0.024659283
0.51418108 0.017344236 0.024654005
0.51420736 0.01821064 0.024648726
0.51423371 0.019077044 0.024643445
0.51426005 0.019943448 0.024638167
0.5142864 0.020809852 0.024632886
0.51431274 0.021676255 0.024627607
0.51433909 0.022542659 0.024622327
0.51353943 0.023413055 0.02404712
0.51356578 0.024281051 0.024041831
0.51359218 0.025149047 0.024036542
0.51361859 0.026017044 0.024031252
0.51364493 0.02688504 0.024025964
0.51367134 0.027753036 0.024020674
0.51369774 0.028621033 0.024015384
0.51289845 0.029504169 0.023440097
0.51292491 0.030373758 0.023434799
0.51295131 0.031243347 0.0234295
0.51297778 0.032112937 0.023424201
0.51217872 0.033004034 0.022848833
0.51220518 0.033875216 0.022843525
0.51223165 0.034746397 0.022838214
0.51225817 0.035617582 0.022832906
0.51145935 0.036516644 0.022257525
0.51066071 0.037418887 0.021682125
0.50986212 0.038324319 0.021106705
0.50906366 0.039232939 0.020531263
0.50744015 0.040178992 0.019385658
0.50664192 0.041095573 0.01881017
0.50584382 0.042015336 0.018234663
0.50422078 0.042977318 0.017088959
0.50259805 0.04394567 0.015943252
0.5018003 0.044878177 0.015367666
0.5001778 0.045857675 0.014221857
0.49938029 0.046798147 0.013646224
0.4985829 0.047741801 0.013070568
0.51136136 -0.039214235 0.023185758
0.51138783 -0.03834464 0.023180459
0.51224262 -0.037367523 0.023745641
0.51226896 -0.036499523 0.023740351
0.51229537 -0.03563153 0.023735061
0.51232177 -0.03476353 0.023729773
0.51234812 -0.03389553 0.023724483
0.51320261 -0.032927968 0.024289723
0.51322895 -0.032061566 0.024284443
0.5132553 -0.03119516 0.024279164
0.51328164 -0.030328754 0.024273884
0.51330799 -0.029462351 0.024268605
0.51333427 -0.028595943 0.024263324
0.51336062 -0.027729541 0.024258045
0.51338696 -0.026863137 0.024252767
0.51341331 -0.025996735 0.024247486
0.51343966 -0.025130332 0.024242207
0.51346594 -0.02426393 0.024236927
0.51349229 -0.023397522 0.024231648
0.51351863 -0.022531116 0.024226367
0.51354498 -0.021664713 0.024221089
0.51357132 -0.020798309 0.024215808
0.51359767 -0.019931907 0.024210529
0.51362395 -0.019065503 0.024205249
0.5136503 -0.018199101 0.02419997
0.51367664 -0.017332697 0.024194689
0.51370299 -0.016466288 0.024189411
0.51372933 -0.015599884 0.02418413
0.51375562 -0.014733481 0.024178851
0.51378196 -0.013867078 0.024173571
0.51380831 -0.013000675 0.024168292
0.51383466 -0.012134273 0.024163011
0.513861 -0.01126787 0.024157733
0.51388735 -0.010401467 0.024152452
0.51391363 -0.0095350565 0.024147173
0.51393998 -0.0086686537 0.024141893
0.51396632 -0.0078022503 0.024136614
0.51399267 -0.0069358475 0.024131335
0.51401901 -0.0060694446 0.024126055
0.51404536 -0.0052030417 0.024120776
0.51407164 -0.0043366347 0.024115495
0.51409799 -0.0034702318 0.024110217
0.51412433 -0.0026038252 0.024104936
0.51415068 -0.0017374222 0.024099657
0.51335067 -0.00091166125 0.023523489
0.51337707 -4.3664644e-05 0.023518199
0.51340348 0.000824332 0.023512909
0.51342982 0.0016923286 0.023507621
0.51345623 0.0025603252 0.023502331
0.51348257 0.0034283218 0.023497041
0.51350898 0.0042963186 0.023491753
0.51353538 0.0051643131 0.023486463
0.51356173 0.0060323118 0.023481173
0.51358813 0.0069003082 0.023475885
0.51361454 0.007768305 0.023470595
0.51364088 0.0086362995 0.023465306
0.51366729 0.0095042977 0.023460016
0.51369369 0.010372295 0.023454728
0.51372004 0.01124029 0.023449438
0.51374644 0.012108288 0.023444148
0.51377279 0.012976285 0.02343886
0.51379919 0.013844281 0.02343357
0.5138256 0.014712276 0.02342828
0.51385194 0.015580274 0.023422992
0.51387835 0.016448271 0.023417702
0.51390475 0.017316267 0.023412412
0.5139311 0.018184265 0.023407124
0.5139575 0.01905226 0.023401834
0.51398385 0.019920258 0.023396544
0.51401025 0.020788254 0.023391256
0.51403666 0.021656251 0.023385966
0.514063 0.022524247 0.023380676
0.51408941 0.023392243 0.023375386
0.51411581 0.02426024 0.023370098
0.51414216 0.025128236 0.023364808
0.51334375 0.026004963 0.022788329
0.51337016 0.026874552 0.022783032
0.51339662 0.02774414 0.022777732
0.51342303 0.028613731 0.022772433
0.51344949 0.02948332 0.022767134
0.51347589 0.030352909 0.022761835
0.5135023 0.031222498 0.022756536
0.51270425 0.032111965 0.022179944
0.51273072 0.03298315 0.022174636
0.51275718 0.033854332 0.022169327
0.51278365 0.034725513 0.022164019
0.51281017 0.035596695 0.02215871
0.51201236 0.036495719 0.021582095
0.51121473 0.037397925 0.021005461
0.51124132 0.038272291 0.021000134
0.50961971 0.039211899 0.019852135
0.50882226 0.040123664 0.01927541
0.50802499 0.041038614 0.0186987
0.50640386 0.041994147 0.017550604
0.50478286 0.04295605 0.016402436
0.50316215 0.043924324 0.015254263
0.50236541 0.044856794 0.014677444
0.50074494 0.045836218 0.013529172
0.49994844 0.046776649 0.012952305
0.49915203 0.047720265 0.012375419
0.49835575 0.04866707 0.011798513
0.51191235 -0.039235082 0.022512792
0.51193881 -0.038365491 0.022507492
0.51196522 -0.037495904 0.022502193
0.51199168 -0.036626309 0.022496894
0.51284534 -0.035652339 0.023063328
0.51287174 -0.034784339 0.02305804
0.51289809 -0.033916339 0.02305275
0.51292449 -0.033048347 0.02304746
0.5129509 -0.032180354 0.023042172
0.51297724 -0.031312354 0.023036882
0.51300365 -0.030444354 0.023031592
0.51303005 -0.029576359 0.023026302
0.5130564 -0.028708363 0.023021014
0.5130828 -0.027840367 0.023015724
0.51310915 -0.02697237 0.023010435
0.51313555 -0.026104374 0.023005147
0.51316196 -0.025236377 0.022999857
0.51401496 -0.024284702 0.023566427
0.5140413 -0.023418294 0.023561148
0.51324111 -0.022632387 0.022983989
0.51326746 -0.02176439 0.022978699
0.51329386 -0.020896394 0.022973411
0.51332027 -0.020028397 0.022968121
0.51334661 -0.019160401 0.022962831
0.51337302 -0.018292405 0.022957541
0.51339936 -0.017424406 0.022952253
0.51342577 -0.01655641 0.022946963
0.51345217 -0.015688414 0.022941673
0.51347852 -0.014820417 0.022936385
0.51350492 -0.013952421 0.022931095
0.51353133 -0.013084425 0.022925805
0.51355767 -0.012216427 0.022920517
0.51358408 -0.011348431 0.022915227
0.51361048 -0.010480438 0.022909937
0.51363683 -0.0096124383 0.022904649
0.51366323 -0.008744441 0.022899359
0.51368958 -0.0078764446 0.02289407
0.51371598 -0.0070084478 0.022888782
0.51374239 -0.0061404514 0.022883492
0.51376873 -0.0052724546 0.022878202
0.51379514 -0.0044044582 0.022872912
0.51382154 -0.0035364651 0.022867624
0.51384789 -0.0026684648 0.022862334
0.51387429 -0.0018004682 0.022857044
0.51307535 -0.00097315182 0.022279633
0.51310182 -0.00010356157 0.022274334
0.51312822 0.00076602498 0.022269035
0.51315463 0.0016356152 0.022263736
0.51318109 0.0025052056 0.022258438
0.5132075 0.003374794 0.022253139
0.51323396 0.0042443825 0.02224784
0.51326036 0.005113971 0.02224254
0.51328683 0.0059835631 0.022237241
0.51331323 0.0068531511 0.022231942
0.5133397 0.0077227396 0.022226643
0.5133661 0.0085923281 0.022221344
0.51339251 0.0094619188 0.022216044
0.51341897 0.010331509 0.022210745
0.51344538 0.011201097 0.022205448
0.51347184 0.012070687 0.022200149
0.51432282 0.012955475 0.022767127
0.51434916 0.013823471 0.022761837
0.51437557 0.014691466 0.022756547
0.51440197 0.015559464 0.022751259
0.51442832 0.016427461 0.022745969
0.51445472 0.017295457 0.022740679
0.51448107 0.018163454 0.022735391
0.51450747 0.01903145 0.022730101
0.51453388 0.019899447 0.022724811
0.51373613 0.020766579 0.022147158
0.51376259 0.021636168 0.022141859
0.513789 0.022505756 0.02213656
0.51381546 0.023375347 0.02213126
0.51384187 0.024244936 0.022125961
0.51386827 0.025114525 0.022120662
0.51389474 0.025984114 0.022115363
0.51392114 0.026853703 0.022110064
0.51394761 0.027723292 0.022104764
0.51397401 0.028592883 0.022099467
0.5131768 0.029477535 0.021521674
0.51320326 0.030348716 0.021516364
0.51322973 0.031219898 0.021511056
0.51325625 0.032091081 0.021505747
0.51328272 0.032962263 0.021500438
0.51330918 0.033833444 0.02149513
0.51333565 0.034704626 0.021489821
0.51336217 0.035575807 0.021484513
0.51256537 0.036474794 0.020906664
0.5125919 0.037347566 0.020901347
0.51179534 0.038251329 0.020323468
0.51099879 0.039158277 0.019745575
0.51020241 0.04006841 0.01916766
0.50858307 0.041017499 0.018017106
0.50696397 0.041972954 0.016866544
0.50616789 0.042895831 0.016288519
0.50454909 0.043862436 0.015137891
0.5037533 0.044793271 0.014559849
0.50213486 0.045771025 0.01340912
0.50133932 0.046709828 0.012831029
0.4997212 0.047698729 0.011680267
0.49892589 0.048645493 0.011102128
0.49813065 0.049595445 0.010523938
0.5124898 -0.038386337 0.021834528
0.5125162 -0.03751675 0.021829229
0.51254267 -0.036647156 0.02182393
0.51256907 -0.035777569 0.021818632
0.51342171 -0.034805149 0.022386307
0.51344812 -0.033937149 0.022381017
0.51347446 -0.033069156 0.022375727
0.51350087 -0.032201163 0.022370437
0.51352727 -0.031333163 0.022365149
0.51355362 -0.030465163 0.022359859
0.51358002 -0.029597171 0.022354569
0.51360637 -0.028729174 0.022349281
0.51363277 -0.027861178 0.022343991
0.51365918 -0.02699318 0.022338701
0.51368552 -0.026125183 0.022333413
0.51371193 -0.025257187 0.022328123
0.51373833 -0.024389191 0.022322834
0.51376468 -0.023521191 0.022317545
0.51379108 -0.022653198 0.022312256
0.51381743 -0.021785202 0.022306966
0.51384383 -0.020917205 0.022301678
0.51387024 -0.020049207 0.022296388
0.51389658 -0.019181211 0.022291098
0.5130977 -0.018385787 0.021712651
0.51312417 -0.017516198 0.021707352
0.51315057 -0.016646607 0.021702053
0.51317704 -0.015777016 0.021696754
0.51402855 -0.014841228 0.022264652
0.51405489 -0.013973231 0.022259362
0.5140813 -0.013105235 0.022254072
0.51410764 -0.012237238 0.022248784
0.51413405 -0.011369241 0.022243494
0.51416045 -0.010501249 0.022238204
0.5141868 -0.0096332477 0.022232916
0.51338845 -0.0088203019 0.021654362
0.51341492 -0.0079507148 0.021649063
0.51344132 -0.0070811249 0.021643763
0.51346779 -0.0062115383 0.021638464
0.51349419 -0.005341948 0.021633165
0.5135206 -0.0044723577 0.021627866
0.51354706 -0.0036027711 0.021622567
0.51357347 -0.002733177 0.021617267
0.51359993 -0.0018635906 0.021611968
0.51362634 -0.00099400035 0.021606671
0.5136528 -0.00012441004 0.021601371
0.51367921 0.00074517651 0.021596072
0.51370567 0.0016147668 0.021590773
0.51373208 0.002484357 0.021585474
0.51375848 0.0033539454 0.021580175
0.51378495 0.0042235339 0.021574875
0.51381135 0.0050931224 0.021569576
0.51383781 0.0059627146 0.021564277
0.51386422 0.006832303 0.021558978
0.51389068 0.0077018915 0.02155368
0.51391709 0.0085714795 0.021548381
0.51394355 0.0094410703 0.021543082
0.51396996 0.01031066 0.021537783
0.51399636 0.011180249 0.021532483
0.51402283 0.012049839 0.021527184
0.51404923 0.012919428 0.021521885
0.5140757 0.013789016 0.021516586
0.5141021 0.014658604 0.021511286
0.51412857 0.015528196 0.021505987
0.51415497 0.016397785 0.02150069
0.51418144 0.017267372 0.021495391
0.51420784 0.018136963 0.021490091
0.51423424 0.019006552 0.021484792
0.51426071 0.019876141 0.021479493
0.51428711 0.02074573 0.021474194
0.51431358 0.021615321 0.021468895
0.51433998 0.022484908 0.021463595
0.51436645 0.023354499 0.021458296
0.51356989 0.024229554 0.020879326
0.51359642 0.025100738 0.020874018
0.51362288 0.025971919 0.020868709
0.51364934 0.026843101 0.020863401
0.51367581 0.027714282 0.020858092
0.51370233 0.028585466 0.020852782
0.5137288 0.029456647 0.020847473
0.51375526 0.030327829 0.020842165
0.51378173 0.031199012 0.020836856
0.51380825 0.032070193 0.020831548
0.51383471 0.032941375 0.020826239
0.51386118 0.033812556 0.020820931
0.5138877 0.034683738 0.020815622
0.51309186 0.035581093 0.020236554
0.51311839 0.036453869 0.020231234
0.51314491 0.037326641 0.020225916
0.51234937 0.038230367 0.019646809
0.51155382 0.039137278 0.019067679
0.51075846 0.040047374 0.018488532
0.5099631 0.040960655 0.017909331
0.50834596 0.041914441 0.016756317
0.5075509 0.042835686 0.016177099
0.50593406 0.043800622 0.015023984
0.5043174 0.044771928 0.013870861
0.50352275 0.045705911 0.013291569
0.50190645 0.04668837 0.012138344
0.50111198 0.047630318 0.011559004
0.49949607 0.048623919 0.010405745
0.49870184 0.049573835 0.0098263221
0.51304078 -0.038407188 0.02116156
0.51306725 -0.037537601 0.021156261
0.51309365 -0.036668006 0.021150962
0.51312011 -0.035798419 0.021145662
0.51314652 -0.034928832 0.021140363
0.51399809 -0.033957962 0.02170928
0.51319939 -0.033189651 0.021129765
0.51322579 -0.032320067 0.021124465
0.51325226 -0.031450473 0.021119166
0.51327866 -0.030580886 0.021113867
0.51330513 -0.029711291 0.02110857
0.51333153 -0.028841704 0.02110327
0.513358 -0.027972113 0.021097971
0.5133844 -0.027102528 0.021092672
0.51341081 -0.026232937 0.021087373
0.51343727 -0.02536335 0.021082073
0.51346368 -0.024493759 0.021076774
0.51349014 -0.023624167 0.021071475
0.51351655 -0.02275458 0.021066176
0.51354301 -0.021884989 0.021060877
0.51356941 -0.021015404 0.021055579
0.51359588 -0.020145813 0.02105028
0.51362228 -0.019276222 0.021044981
0.51364869 -0.018406635 0.021039682
0.51367515 -0.017537046 0.021034382
0.51370156 -0.016667455 0.021029083
0.51372802 -0.015797865 0.021023784
0.51375443 -0.014928275 0.021018485
0.51378089 -0.014058689 0.021013185
0.5138073 -0.013189098 0.021007886
0.51383376 -0.012319512 0.021002589
0.51386017 -0.011449921 0.02099729
0.51388657 -0.010580335 0.02099199
0.51391304 -0.0097107403 0.020986691
0.51393944 -0.0088411504 0.020981392
0.5139659 -0.0079715634 0.020976093
0.51399231 -0.0071019735 0.020970793
0.51401877 -0.0062323869 0.020965494
0.51404518 -0.0053627966 0.020960195
0.51407164 -0.0044932063 0.020954896
0.51327455 -0.003669156 0.020375006
0.51330101 -0.0027979722 0.020369697
0.51332754 -0.0019267882 0.020364389
0.513354 -0.001055608 0.02035908
0.51338047 -0.00018442777 0.020353772
0.51340699 0.00068675616 0.020348463
0.51343346 0.0015579364 0.020343155
0.51345992 0.0024291202 0.020337844
0.51348639 0.0033003024 0.020332536
0.51351291 0.0041714828 0.020327227
0.51353937 0.0050426647 0.020321919
0.51356584 0.0059138485 0.02031661
0.5135923 0.0067850286 0.020311302
0.51361883 0.007656211 0.020305993
0.51364529 0.0085273925 0.020300684
0.51367176 0.0093985749 0.020295376
0.51369822 0.010269757 0.020290066
0.51372474 0.011140939 0.020284757
0.51375121 0.012012121 0.020279448
0.51377767 0.012883304 0.02027414
0.51462668 0.013768167 0.020843618
0.51465309 0.014637755 0.020838318
0.51467955 0.015507348 0.020833019
0.51470596 0.016376937 0.02082772
0.51473242 0.017246524 0.020822421
0.51393658 0.018110394 0.020242287
0.51396304 0.018981578 0.020236978
0.51398951 0.019852759 0.02023167
0.51401597 0.020723941 0.020226361
0.5140425 0.021595122 0.020221053
0.51406896 0.022466304 0.020215744
0.51409543 0.023337487 0.020210436
0.51412189 0.024208669 0.020205127
0.51414841 0.02507985 0.020199819
0.51417488 0.025951033 0.020194508
0.51420134 0.026822215 0.0201892
0.51422787 0.027693396 0.020183891
0.51425433 0.028564578 0.020178583
0.5142808 0.029435761 0.020173274
0.51430726 0.030306943 0.020167965
0.51351225 0.031196294 0.019587712
0.51353878 0.032069068 0.019582393
0.5135653 0.032941844 0.019577075
0.51359183 0.03381462 0.019571757
0.51361835 0.034687392 0.019566437
0.51364487 0.035560168 0.019561119
0.5136714 0.036432944 0.019555802
0.51369798 0.037305716 0.019550482
0.51290339 0.038209405 0.018970141
0.51292992 0.039083771 0.018964814
0.51213551 0.039992236 0.018384444
0.51052016 0.040939577 0.017228967
0.50972593 0.041856006 0.016648548
0.50811094 0.042814493 0.015493039
0.50649613 0.043779355 0.014337457
0.50570232 0.044708524 0.013756961
0.50408787 0.045684528 0.012601346
0.50329423 0.046621665 0.012020766
0.50168014 0.047608819 0.01086508
0.5008868 0.048553914 0.010284487
0.50009358 0.049502194 0.0097038746
0.49847993 0.05050528 0.0085480595
0.51361823 -0.037558448 0.020483293
0.51364464 -0.036688853 0.020477995
0.5136711 -0.035819266 0.020472696
0.5136975 -0.034949683 0.020467397
0.51372397 -0.034080088 0.020462098
0.51375037 -0.033210501 0.020456798
0.51377678 -0.032340914 0.020451499
0.51380324 -0.031471319 0.0204462
0.51382965 -0.030601734 0.020440901
0.51385611 -0.02973214 0.020435601
0.51388252 -0.028862553 0.020430302
0.51390898 -0.027992962 0.020425005
0.51393539 -0.027123377 0.020419706
0.51396185 -0.026253786 0.020414406
0.51398826 -0.025384199 0.020409107
0.51401466 -0.024514608 0.020403808
0.51404113 -0.023645015 0.020398509
0.51406753 -0.022775428 0.02039321
0.514094 -0.021905838 0.02038791
0.5141204 -0.021036252 0.020382611
0.51414686 -0.020166662 0.020377312
0.51334995 -0.019371316 0.019796366
0.51337641 -0.018500136 0.019791057
0.51340288 -0.017628957 0.019785749
0.51342934 -0.016757768 0.01978044
0.51345587 -0.015886588 0.019775132
0.51348233 -0.015015404 0.019769823
0.5135088 -0.014144224 0.019764515
0.51353526 -0.013273044 0.019759206
0.51356179 -0.01240186 0.019753898
0.51358825 -0.01153068 0.019748587
0.51361471 -0.010659499 0.019743279
0.51364118 -0.009788312 0.01973797
0.5136677 -0.0089171315 0.019732662
0.51369417 -0.0080459509 0.019727353
0.51372063 -0.0071747676 0.019722044
0.51374716 -0.006303587 0.019716736
0.51377362 -0.0054324069 0.019711427
0.51380008 -0.0045612231 0.019706119
0.51382655 -0.0036900428 0.019700808
0.51385307 -0.0028188587 0.0196955
0.51387954 -0.0019476749 0.019690191
0.513906 -0.0010764947 0.019684883
0.51393247 -0.00020531446 0.019679574
0.5131368 0.00062825828 0.019098427
0.51316333 0.0015010322 0.019093109
0.51318985 0.0023738097 0.01908779
0.51321638 0.0032465837 0.019082472
0.5132429 0.0041193576 0.019077154
0.51326942 0.0049921316 0.019071834
0.51329595 0.0058649071 0.019066516
0.51332247 0.0067376811 0.019061198
0.513349 0.0076104547 0.019055881
0.51419729 0.0085065067 0.019626487
0.51422375 0.0093776882 0.019621179
0.51425022 0.010248871 0.01961587
0.51427674 0.011120052 0.019610561
0.51430321 0.011991234 0.019605251
0.51432967 0.012862417 0.019599942
0.51435614 0.013733598 0.019594634
0.51438266 0.014604779 0.019589325
0.51440912 0.015475963 0.019584017
0.51443559 0.016347146 0.019578708
0.51446205 0.017218327 0.0195734
0.51448858 0.018089509 0.019568091
0.51451504 0.01896069 0.019562783
0.51454151 0.019831872 0.019557472
0.51456803 0.020703055 0.019552164
0.5145945 0.021574236 0.019546855
0.51462096 0.022445418 0.019541547
0.51464742 0.023316601 0.019536238
0.51467395 0.024187781 0.01953093
0.5138796 0.025065947 0.018949511
0.51390612 0.025938723 0.018944193
0.51393265 0.026811497 0.018938873
0.51395917 0.027684271 0.018933555
0.51398569 0.028557047 0.018928237
0.51401222 0.029429821 0.018922918
0.51403874 0.030302595 0.0189176
0.51406527 0.031175369 0.018912282
0.51409179 0.032048143 0.018906964
0.51411831 0.032920919 0.018901644
0.51414484 0.033793695 0.018896326
0.51417136 0.034666467 0.018891009
0.51419789 0.035539243 0.018885689
0.51340425 0.036439706 0.018304134
0.51343083 0.037314072 0.018298807
0.51345742 0.038188439 0.018293478
0.51348394 0.039062809 0.01828815
0.51269054 0.039971236 0.017706547
0.51189721 0.040882844 0.017124925
0.51110393 0.041797645 0.016543251
0.50949091 0.042754464 0.015385285
0.50787807 0.043717656 0.014227246
0.5070852 0.044645194 0.013645526
0.50547272 0.045619532 0.012487457
0.50386041 0.046600241 0.011329311
0.50306791 0.047540523 0.010747514
0.50145596 0.048532378 0.0095893377
0.50066376 0.049480621 0.0090074921
0.49905211 0.050483629 0.0078492099
0.4974407 0.051493008 0.0066909245
0.5125491 -0.036921974 0.01865169
0.51339883 -0.035944663 0.019223033
0.51342529 -0.035073478 0.019217724
0.51345176 -0.034202296 0.019212415
0.51347828 -0.033331115 0.019207107
0.51350474 -0.032459937 0.019201798
0.51435423 -0.03149217 0.019773237
0.51355767 -0.030717568 0.019191181
0.5144071 -0.029752988 0.019762639
0.5144335 -0.028883401 0.01975734
0.51363713 -0.028104024 0.019175254
0.51366359 -0.027232841 0.019169945
0.51369011 -0.026361659 0.019164637
0.51371658 -0.02549048 0.019159328
0.51374304 -0.024619296 0.01915402
0.51376951 -0.023748111 0.019148711
0.51379603 -0.022876931 0.019143403
0.5138225 -0.022005748 0.019138092
0.51384896 -0.021134567 0.019132784
0.51387542 -0.020263387 0.019127475
0.51390195 -0.019392204 0.019122167
0.51392841 -0.018521022 0.019116858
0.51395488 -0.017649842 0.019111549
0.51398134 -0.016778655 0.019106241
0.51400787 -0.015907476 0.019100932
0.51403433 -0.015036291 0.019095624
0.5140608 -0.014165111 0.019090313
0.51408732 -0.01329393 0.019085005
0.51411378 -0.012422747 0.019079696
0.51414025 -0.011551566 0.019074388
0.51416671 -0.010680386 0.019069079
