# .PCD v0.7 - Point Cloud Data file format
VERSION 0.7
FIELDS x y z
SIZE 4 4 4
TYPE F F F
COUNT 1 1 1
WIDTH 1418
HEIGHT 1
VIEWPOINT 0 0 0 1 0 0 0
POINTS 1418
DATA ascii
0.49834636 0.1145335 0.072234526
0.49925321 0.11519614 0.072726421
0.49927872 0.11603545 0.07272131
0.49930423 0.11687479 0.072716191
0.49932975 0.11771411 0.07271108
0.49935526 0.11855344 0.072705969
0.49938077 0.11939277 0.072700851
0.49940628 0.12023211 0.07269574
0.49943179 0.12107143 0.072690621
0.5003382 0.12171973 0.073182613
0.49948281 0.12275009 0.072680391
0.49950832 0.12358941 0.07267528
0.49953383 0.12442875 0.072670162
0.49955934 0.12526807 0.072665051
0.49958485 0.12610741 0.072659932
0.49961036 0.12694673 0.072654821
0.49963588 0.12778606 0.072649702
0.49600679 0.10743202 0.070135348
0.49603248 0.10827771 0.070130199
0.4960582 0.10912342 0.070125043
0.49608389 0.10996911 0.070119888
0.49699017 0.11064611 0.070612937
0.49789637 0.11131994 0.071105994
0.49792197 0.11216245 0.071100861
0.49882805 0.11283149 0.071593992
0.49885362 0.11367241 0.071588866
0.49975953 0.11433668 0.072081991
0.49978504 0.11517601 0.072076879
0.49981055 0.11601534 0.072071761
0.50071621 0.11667324 0.072564922
0.49986157 0.11769399 0.072061531
0.50076717 0.1183487 0.072554708
0.50079262 0.11918644 0.072549604
0.50081807 0.12002417 0.0725445
0.50084352 0.12086191 0.072539397
0.50086904 0.12169965 0.072534293
0.50089449 0.12253739 0.072529182
0.50091994 0.12337512 0.072524078
0.50094539 0.12421286 0.072518975
0.5009709 0.12505059 0.072513871
0.50099635 0.12588833 0.072508767
0.5010218 0.12672606 0.072503656
0.50016773 0.12776594 0.072000153
0.49649122 0.10572033 0.069491185
0.49651691 0.10656603 0.069486029
0.49654263 0.10741173 0.069480874
0.49656835 0.10825744 0.069475725
0.49659404 0.10910314 0.069470569
0.49661976 0.10994884 0.069465414
0.49752501 0.11062588 0.069959693
0.49843019 0.11129975 0.070453987
0.49845579 0.11214225 0.070448853
0.49936089 0.11281133 0.070943214
0.49938643 0.11365225 0.070938088
0.50029135 0.11431655 0.071432441
0.50119615 0.11497768 0.071926817
0.5012216 0.11581541 0.071921714
0.50124705 0.11665315 0.07191661
0.5012725 0.11749088 0.071911506
0.50129795 0.11832862 0.071906403
0.50132346 0.11916635 0.071901292
0.5022279 0.11981633 0.072395734
0.50225329 0.12065247 0.072390638
0.50227875 0.12148861 0.072385542
0.50230414 0.12232476 0.072380446
0.50232953 0.12316091 0.072375357
0.50147623 0.12419277 0.071870662
0.50150168 0.1250305 0.071865559
0.50152713 0.12586825 0.071860455
0.50155258 0.12670597 0.071855351
0.50157809 0.12754372 0.071850248
0.50160354 0.12838146 0.071845144
0.49700138 0.10485436 0.068841852
0.49702707 0.10570006 0.068836704
0.49705279 0.10654576 0.068831548
0.49707848 0.10739146 0.068826392
0.4971042 0.10823715 0.068821244
0.49712992 0.10908286 0.068816088
0.49715561 0.10992856 0.068810932
0.49805987 0.11060564 0.069306448
0.49896404 0.11127955 0.069801971
0.49898964 0.11212205 0.069796838
0.49989372 0.11279117 0.070292428
0.50079763 0.1134571 0.070788011
0.50082314 0.11429643 0.070782892
0.50172693 0.1149576 0.071278498
0.50175238 0.11579533 0.071273394
0.50265604 0.11645171 0.071769036
0.50268143 0.11728784 0.07176394
0.50270689 0.11812399 0.071758844
0.50273228 0.11896013 0.071753748
0.50275767 0.11979628 0.071748652
0.50278312 0.12063242 0.071743555
0.50280851 0.12146857 0.071738459
0.5028339 0.12230472 0.07173337
0.50285935 0.12314086 0.071728274
0.50288475 0.123977 0.071723178
0.5029102 0.12481314 0.071718082
0.50293559 0.12564929 0.071712986
0.50296098 0.12648542 0.071707889
0.50298643 0.12732157 0.071702793
0.50213432 0.12836137 0.071196817
0.49841511 0.10467666 0.068689212
0.49756294 0.10567979 0.06818223
0.49758863 0.10652548 0.068177074
0.49761435 0.10737119 0.068171926
0.49764004 0.10821688 0.06816677
0.49766576 0.10906259 0.068161614
0.49769145 0.10990828 0.068156466
0.4985947 0.11058541 0.068653204
0.49949786 0.11125934 0.069149964
0.49952349 0.11210185 0.06914483
0.50042653 0.112771 0.06964165
0.50132948 0.11343697 0.070138462
0.50223225 0.11409977 0.070635296
0.50313503 0.11475938 0.071132146
0.50316042 0.11559552 0.07112705
0.50318581 0.11643167 0.071121953
0.50408834 0.11708489 0.07161884
0.50411373 0.11791945 0.071613751
0.50413907 0.11875399 0.07160867
0.50416446 0.11958855 0.071603581
0.50418985 0.12042309 0.0715985
0.50421518 0.12125765 0.071593411
0.50424057 0.1220922 0.071588323
0.5042659 0.12292675 0.071583241
0.5042913 0.1237613 0.071578152
0.50431663 0.12459585 0.071573071
0.50434202 0.12543041 0.071567982
0.50436741 0.12626494 0.071562901
0.5035162 0.12730153 0.071055718
0.50354165 0.12813766 0.071050622
0.50356704 0.12897381 0.071045525
0.49894997 0.10465641 0.06803596
0.49809879 0.10565951 0.067527749
0.49812451 0.10650521 0.0675226
0.4981502 0.10735091 0.067517444
0.49817592 0.10819661 0.067512289
0.49820161 0.10904231 0.067507133
0.49822733 0.10988801 0.067501985
0.49912956 0.11056516 0.067999959
0.49915522 0.11140928 0.067994811
0.50005734 0.11208165 0.068492815
0.5009594 0.11275084 0.068990871
0.50186127 0.11341685 0.069488913
0.50276309 0.11407968 0.069986977
0.50366479 0.11473933 0.070485055
0.50456643 0.11539578 0.070983164
0.50459176 0.11623034 0.070978075
0.50461715 0.11706488 0.070972994
0.50551862 0.11771496 0.071471155
0.50554395 0.11854792 0.071466081
0.50556928 0.11938088 0.071461007
0.50559461 0.12021383 0.071455926
0.50561988 0.1210468 0.071450852
0.50564522 0.12187976 0.071445778
0.50567055 0.1227127 0.071440704
0.50482011 0.12374129 0.070932306
0.50484544 0.12457584 0.070927225
0.50487083 0.12541039 0.070922136
0.50489616 0.12624495 0.070917048
0.50492156 0.1270795 0.070911966
0.50407141 0.12811762 0.070403531
0.50409687 0.12895377 0.070398435
0.5003351 0.10363632 0.067892142
0.49948481 0.10463618 0.067382716
0.49951047 0.10548029 0.067377575
0.49866036 0.10648493 0.066868119
0.49868608 0.10733064 0.066862963
0.49871176 0.10817633 0.066857807
0.49873748 0.10902204 0.066852652
0.49963877 0.10970083 0.067351855
0.49966443 0.11054493 0.067346707
0.50056553 0.11121894 0.067845933
0.50146663 0.11188976 0.068345211
0.50236762 0.11255741 0.068844482
0.50326842 0.11322185 0.069343768
0.50416917 0.11388314 0.069843069
0.50506985 0.11454123 0.070342392
0.50509518 0.11537577 0.07033731
0.50599575 0.11602908 0.070836693
0.50602108 0.11686203 0.070831619
0.50604641 0.11769499 0.070826545
0.50607175 0.11852795 0.070821464
0.50609702 0.11936091 0.07081639
0.50612235 0.12019386 0.070811316
0.50614768 0.12102682 0.070806235
0.50617301 0.12185979 0.070801161
0.50619835 0.12269273 0.070796087
0.50622362 0.12352569 0.070791014
0.50624895 0.12435865 0.070785932
0.50627428 0.12519161 0.070780858
0.50542498 0.12622494 0.070271194
0.50545037 0.12705949 0.070266113
0.50460124 0.12809758 0.069756448
0.50550109 0.12872858 0.070255943
0.50465208 0.12976986 0.069746263
0.50086892 0.10361612 0.067240134
0.50001967 0.10461594 0.066729471
0.5000453 0.10546005 0.06672433
0.50007099 0.10630415 0.066719189
0.50009662 0.10714827 0.066714041
0.50012231 0.10799237 0.0667089
0.50014794 0.10883648 0.066703752
0.50017363 0.10968059 0.066698611
0.50107378 0.11035623 0.067199059
0.50109941 0.11119875 0.067193925
0.5019995 0.1118696 0.067694433
0.50289941 0.11253729 0.068194933
0.5046736 0.11302694 0.069201082
0.50557327 0.11368667 0.069701634
0.50559866 0.11452122 0.069696546
0.50649822 0.11517614 0.070197158
0.50652355 0.1160091 0.070192076
0.50654888 0.11684206 0.070187002
0.50744826 0.11749063 0.070687622
0.50747347 0.11832199 0.070682555
0.50749874 0.11915336 0.070677489
0.50752401 0.11998472 0.070672423
0.50754929 0.12081609 0.070667356
0.50757456 0.12164746 0.07066229
0.50759983 0.12247883 0.070657223
0.50675142 0.12350573 0.070146397
0.50677675 0.12433868 0.070141323
0.50680208 0.12517165 0.070136242
0.50595379 0.12620492 0.069625348
0.50597912 0.12703948 0.069620267
0.50600451 0.12787403 0.069615178
0.50515646 0.12891367 0.069104277
0.50518185 0.12974982 0.06909918
0.5052073 0.13058595 0.069094084
0.50227672 0.10344023 0.067094892
0.50142837 0.10443843 0.066582985
0.501454 0.10528094 0.066577852
0.50147957 0.10612345 0.066572718
0.5015052 0.10696598 0.066567585
0.50153077 0.10780849 0.066562451
0.5015564 0.108651 0.066557318
0.50158203 0.10949352 0.066552177
0.5016076 0.11033603 0.066547044
0.50250673 0.11100852 0.067048773
0.50340575 0.11167783 0.067550495
0.50430459 0.11234396 0.06805224
0.50520337 0.1130069 0.068553999
0.50610209 0.11366665 0.069055781
0.50700068 0.11432321 0.069557607
0.50702602 0.11515617 0.069552533
0.50792444 0.11580797 0.070054367
0.50794971 0.11663933 0.070049301
0.50797498 0.1174707 0.070044234
0.50800025 0.11830206 0.070039168
0.50802553 0.11913343 0.070034102
0.5080508 0.11996479 0.070029035
0.50807607 0.12079616 0.070023969
0.50810134 0.12162753 0.070018902
0.50812662 0.12245889 0.070013836
0.50815189 0.12329026 0.07000877
0.50730455 0.12431871 0.069496699
0.50732982 0.12515168 0.069491625
0.50735515 0.12598462 0.069486551
0.50650793 0.12701948 0.068974406
0.50653332 0.12785402 0.068969324
0.50568628 0.12889363 0.068457194
0.50571167 0.12972978 0.068452097
0.50573707 0.13056591 0.068447001
0.50280952 0.10342006 0.066444121
0.50283509 0.10426098 0.066438995
0.50286067 0.10510191 0.066433869
0.50288624 0.10594283 0.066428743
0.50203902 0.10694578 0.065915577
0.50206465 0.10778829 0.065910436
0.50209022 0.10863081 0.065905303
0.50298846 0.10930651 0.066408247
0.50301403 0.11014744 0.066403128
0.50391203 0.11081838 0.066906072
0.50480998 0.11148613 0.067409031
0.50570774 0.11215071 0.06791202
0.50660551 0.11281209 0.068415023
0.50663084 0.11364665 0.068409935
0.50752848 0.11430325 0.068912998
0.50842595 0.11495667 0.069416046
0.50845122 0.11578804 0.06941098
0.5084765 0.11661939 0.069405913
0.50850177 0.11745077 0.069400847
0.50852704 0.11828212 0.069395781
0.50855231 0.1191135 0.069390714
0.50857759 0.11994486 0.069385655
0.50860286 0.12077622 0.069380589
0.50862813 0.1216076 0.069375522
0.5086534 0.12243896 0.069370456
0.50867867 0.12327033 0.06936539
0.50783229 0.12429874 0.068852082
0.50785762 0.1251317 0.068847008
0.50788295 0.12596466 0.068841934
0.50703675 0.12699947 0.068328567
0.50706208 0.12783401 0.068323478
0.50708747 0.12866856 0.068318397
0.5062415 0.12970974 0.067805015
0.50626689 0.13054587 0.067799918
0.50629228 0.13138202 0.06779483
0.46380207 0.10036379 0.042939585
0.46382982 0.10127638 0.042934027
0.46385756 0.10218897 0.042928465
0.46388531 0.10310156 0.042922903
0.46391302 0.10401416 0.042917341
0.50421423 0.1032443 0.066302553
0.50423974 0.10408362 0.066297434
0.50426525 0.10492295 0.066292323
0.50341904 0.10592267 0.065777965
0.50344461 0.10676359 0.065772839
0.50347018 0.1076045 0.06576772
0.50349575 0.10844543 0.065762594
0.5043928 0.1091196 0.066266745
0.50441831 0.10995893 0.066261634
0.5053153 0.11062831 0.066765822
0.50621217 0.11129452 0.067270026
0.50623757 0.11213066 0.067264929
0.50713426 0.11279208 0.06776917
0.50803095 0.11345032 0.068273447
0.50805628 0.11428328 0.068268374
0.50895274 0.11493673 0.068772659
0.50897801 0.1157681 0.068767592
0.50900328 0.11659946 0.068762526
0.50902855 0.11743084 0.06875746
0.50905383 0.11826219 0.068752393
0.5090791 0.11909356 0.068747327
0.50910437 0.11992493 0.06874226
0.50912964 0.12075629 0.068737194
0.50915492 0.12158767 0.068732128
0.50918019 0.12241903 0.068727061
0.50833476 0.12344582 0.068212539
0.50836009 0.12427877 0.068207465
0.50838542 0.12511173 0.068202391
0.50841075 0.12594469 0.06819731
0.5075655 0.12697946 0.067682713
0.50759089 0.12781401 0.067677625
0.50761622 0.12864855 0.067672543
0.50764161 0.1294831 0.067667454
0.50679672 0.13052581 0.067152835
0.50682211 0.13136196 0.067147739
0.5068475 0.13219811 0.067142643
0.46615076 0.10097522 0.043248486
0.46617842 0.10188463 0.043242943
0.4653348 0.10293686 0.042727035
0.50472057 0.10238484 0.065658122
0.50561696 0.10306861 0.06616345
0.50477159 0.1040635 0.065647893
0.5047971 0.10490283 0.065642782
0.50482261 0.10574216 0.065637663
0.50484812 0.10658149 0.065632552
0.50487363 0.10742081 0.065627433
0.50489914 0.10826015 0.065622322
0.50579518 0.10893276 0.066127717
0.50582063 0.10977049 0.066122614
0.50671655 0.11043833 0.066628046
0.50674194 0.11127447 0.06662295
0.50763768 0.11193753 0.067128405
0.50853342 0.11259739 0.067633912
0.50855875 0.11343035 0.067628838
0.50858408 0.1142633 0.067623757
0.50947952 0.1149168 0.068129271
0.5095048 0.11574817 0.068124205
0.50953007 0.11657953 0.068119138
0.50955534 0.1174109 0.068114072
0.50958061 0.11824226 0.068109013
0.50960588 0.11907363 0.068103947
0.50963116 0.11990499 0.06809888
0.50965643 0.12073636 0.068093814
0.5096817 0.12156773 0.068088748
0.50883722 0.12259288 0.067573003
0.50886256 0.12342584 0.06756793
0.50888789 0.1242588 0.067562848
0.50891316 0.12509176 0.067557774
0.50806892 0.12612489 0.067041948
0.50809431 0.12695944 0.067036867
0.50811964 0.127794 0.067031778
0.50814503 0.12862855 0.067026697
0.50730109 0.12966964 0.066510856
0.50732648 0.13050577 0.06650576
0.50735193 0.13134192 0.066500664
0.50737733 0.13217807 0.066495568
0.50740272 0.1330142 0.066490471
0.4684402 0.099767976 0.04357342
0.46846774 0.1006742 0.0435679
0.46849528 0.10158042 0.043562375
0.46765253 0.10262944 0.043045223
0.50612229 0.10221078 0.065520242
0.50614774 0.10304853 0.065515138
0.50617319 0.10388625 0.065510035
0.50619864 0.104724 0.065504923
0.50622416 0.10556173 0.06549982
0.50624961 0.10639947 0.065494716
0.50627506 0.1072372 0.065489613
0.50630051 0.10807494 0.065484509
0.50632596 0.10891268 0.065479405
0.50722092 0.10958213 0.065986052
0.50724632 0.11041828 0.065980956
0.50814116 0.11108297 0.066487633
0.50816649 0.11191753 0.066482551
0.50906122 0.11257742 0.066989288
0.50908655 0.11341038 0.066984214
0.50911182 0.11424334 0.06697914
0.51000631 0.11489687 0.067485884
0.51003158 0.11572824 0.067480817
0.51005685 0.1165596 0.067475751
0.51008213 0.11739097 0.067470692
0.5101074 0.11822233 0.067465626
0.51013267 0.1190537 0.067460559
0.50928909 0.12007404 0.066943608
0.50931436 0.120907 0.066938534
0.50933969 0.12173996 0.066933461
0.50936502 0.12257291 0.066928379
0.50939035 0.12340587 0.066923305
0.50941569 0.12423883 0.066918232
0.50944096 0.12507179 0.066913158
0.50859773 0.12610488 0.066396095
0.50862312 0.12693945 0.066391014
0.50864846 0.12777399 0.066385925
0.50780547 0.12881345 0.065868862
0.50783086 0.12964959 0.065863766
0.50785631 0.13048573 0.06585867
0.5078817 0.13132188 0.065853573
0.50790715 0.13215801 0.065848485
0.5070644 0.13320702 0.065331362
0.47072572 0.098567277 0.043903213
0.47075316 0.09947031 0.043897711
0.47078061 0.10037334 0.043892208
0.47080806 0.10127638 0.043886706
0.5057587 0.10150527 0.064364135
0.50665307 0.1021907 0.064871922
0.50667858 0.10302844 0.064866818
0.50670403 0.10386617 0.064861715
0.50759822 0.10454524 0.065369539
0.50762367 0.10538137 0.065364443
0.50678039 0.10637938 0.064846396
0.50767452 0.10705365 0.06535425
0.50769991 0.1078898 0.065349154
0.5077253 0.10872595 0.065344058
0.50775075 0.10956208 0.065338962
0.50864458 0.11022841 0.065846868
0.50866991 0.11106296 0.065841779
0.50956368 0.1117245 0.066349745
0.50958902 0.11255745 0.066344671
0.50961429 0.11339041 0.066339597
0.50963962 0.11422336 0.066334516
0.50966495 0.11505632 0.066329442
0.50969028 0.11588928 0.066324368
0.51058364 0.11653966 0.066832371
0.50974089 0.1175552 0.066314213
0.50976622 0.11838815 0.066309139
0.50979155 0.11922111 0.066304065
0.50981683 0.12005407 0.066298991
0.50984216 0.12088703 0.06629391
0.50986749 0.12171999 0.066288836
0.50989282 0.12255294 0.066283762
0.50905043 0.12358122 0.0657655
0.50907582 0.12441577 0.065760411
0.50910115 0.12525032 0.06575533
0.50912654 0.12608488 0.065750241
0.50915188 0.12691943 0.06574516
0.50917727 0.12775397 0.065740071
0.50833529 0.12879339 0.065221772
0.50836068 0.12962954 0.065216683
0.50838614 0.13046567 0.065211587
0.50841153 0.13130182 0.06520649
0.50843692 0.13213797 0.065201394
0.50846237 0.1329741 0.065196298
0.50762069 0.13402468 0.064677931
0.47387594 0.097238332 0.044751957
0.4730348 0.098272927 0.044232454
0.47393054 0.099034846 0.044741008
0.47395784 0.099933103 0.044735536
0.47398514 0.10083136 0.04473006
0.4731442 0.10187232 0.04421052
0.5062905 0.10148515 0.063714594
0.50718391 0.10217062 0.06422361
0.5080772 0.1028529 0.064732648
0.50810266 0.10368904 0.06472756
0.50812805 0.10452519 0.064722463
0.50815344 0.10536132 0.064717367
0.50817889 0.10619747 0.064712271
0.50820428 0.10703361 0.064707175
0.50822967 0.10786976 0.064702079
0.50912261 0.10853931 0.065211199
0.509148 0.10937385 0.06520611
0.50917333 0.1102084 0.065201029
0.50919873 0.11104295 0.06519594
0.51009148 0.11170452 0.065705135
0.51011676 0.11253747 0.065700054
0.51014209 0.11337044 0.06569498
0.51016742 0.11420339 0.065689906
0.51019275 0.11503635 0.065684825
0.51021802 0.11586931 0.065679751
0.51024336 0.11670227 0.065674677
0.51026869 0.11753523 0.065669604
0.51029402 0.11836819 0.065664522
0.51031929 0.11920115 0.065659449
0.51034462 0.1200341 0.065654375
0.50950313 0.12105756 0.065134913
0.50952846 0.12189212 0.065129831
0.50955385 0.12272666 0.065124743
0.50957924 0.12356121 0.065119654
0.50960457 0.12439577 0.065114573
0.50962996 0.12523031 0.065109484
0.5096553 0.12606487 0.065104403
0.50881422 0.12710106 0.064584889
0.50883967 0.1279372 0.064579792
0.50886506 0.12877335 0.064574696
0.50889051 0.1296095 0.064569607
0.5089159 0.13044563 0.064564511
0.50807512 0.13149138 0.064044937
0.50810057 0.13232912 0.064039834
0.50812602 0.13316685 0.06403473
0.50815153 0.13400459 0.064029627
0.47531256 0.097082078 0.044572048
0.4753398 0.097978748 0.044566587
0.47623444 0.098737516 0.045076393
0.47626165 0.099632591 0.045070939
0.47628886 0.10052766 0.045065485
0.47544882 0.1015654 0.04454473
0.5059554 0.10161725 0.062549688
0.50771475 0.10215053 0.06357529
0.50860703 0.10283285 0.064085566
0.50863242 0.103669 0.064080469
0.50865787 0.10450514 0.064075373
0.50868326 0.10534128 0.064070277
0.50870866 0.10617743 0.064065181
0.50873411 0.10701356 0.064060085
0.50962603 0.10768474 0.064570427
0.50965142 0.10851929 0.064565346
0.50967675 0.10935384 0.064560257
0.50970215 0.11018839 0.064555176
0.50972754 0.11102294 0.064550087
0.51061922 0.11168455 0.065060511
0.51064456 0.11251751 0.065055437
0.51066989 0.11335047 0.065050356
0.51069522 0.11418343 0.065045282
0.51072049 0.11501638 0.065040208
0.51074582 0.11584934 0.065035135
0.51077116 0.1166823 0.065030053
0.51079649 0.11751526 0.065024979
0.50995582 0.1185339 0.064504318
0.50998116 0.11936846 0.064499229
0.51000655 0.120203 0.064494148
0.51003194 0.12103755 0.064489059
0.51005727 0.12187211 0.064483978
0.51008266 0.12270666 0.064478889
0.51010799 0.12354121 0.0644738
0.50926781 0.12457258 0.063953087
0.5092932 0.12540872 0.063947991
0.50931865 0.12624486 0.063942894
0.50934404 0.12708102 0.063937806
0.50936949 0.12791716 0.063932709
0.50939488 0.1287533 0.063927613
0.50942028 0.12958945 0.063922517
0.50944573 0.13042559 0.063917421
0.50860596 0.13147129 0.063396618
0.50863141 0.13230903 0.063391514
0.50865686 0.13314676 0.06338641
0.50868231 0.13398451 0.063381307
0.50870776 0.13482223 0.063376196
0.47674716 0.096925907 0.044394616
0.47764078 0.097684719 0.044905655
0.47766793 0.0985782 0.044900212
0.47769508 0.099471673 0.044894766
0.47772226 0.10036515 0.044889323
0.4768832 0.10140127 0.044367343
0.47691041 0.10229634 0.044361889
0.50562227 0.1017493 0.061382286
0.50824553 0.10213044 0.062926985
0.5091368 0.1028128 0.063438483
0.50916225 0.10364895 0.063433386
0.50918764 0.10448509 0.06342829
0.50921309 0.10532123 0.063423194
0.50923848 0.10615738 0.063418105
0.50926387 0.10699351 0.063413009
0.51015484 0.10766473 0.063924581
0.51018023 0.10849929 0.063919492
0.51020557 0.10933383 0.063914411
0.51023096 0.11016838 0.063909322
0.51025629 0.11100294 0.063904241
0.51028168 0.11183749 0.063899152
0.51030701 0.11267203 0.063894071
0.51033241 0.11350659 0.063888982
0.5103578 0.11434114 0.063883893
0.51038313 0.11517569 0.063878812
0.51040852 0.11601025 0.063873723
0.51043385 0.11684479 0.063868642
0.51045924 0.11767934 0.063863553
0.51048464 0.11851389 0.063858472
0.51050997 0.11934844 0.063853383
0.51053536 0.12018299 0.063848294
0.51056069 0.12101755 0.063843213
0.50972134 0.12204411 0.063321292
0.50974679 0.12288025 0.063316196
0.50977218 0.12371639 0.0633111
0.50979763 0.12455253 0.063306004
0.50982302 0.12538868 0.063300915
0.50984842 0.12622482 0.063295819
0.50987387 0.12706096 0.063290723
0.50903487 0.12810026 0.062768728
0.50906032 0.128938 0.062763624
0.50908583 0.12977573 0.06275852
0.50911129 0.13061348 0.062753417
0.50913674 0.1314512 0.062748313
0.50916219 0.13228895 0.062743202
0.50918764 0.13312668 0.062738098
0.50921315 0.13396442 0.062732995
0.50837463 0.13501805 0.06221091
0.47817975 0.096769817 0.044219643
0.47907236 0.097527064 0.044731952
0.47909948 0.098418944 0.044726517
0.47912657 0.099310838 0.044721082
0.47915369 0.10020272 0.044715647
0.47918078 0.1010946 0.044710211
0.48007306 0.1018423 0.045222554
0.48356059 0.10214946 0.047288291
0.50877637 0.10211036 0.062278662
0.50880182 0.1029481 0.062273558
0.50882727 0.10378583 0.062268451
0.50885272 0.10462357 0.062263347
0.50974286 0.10530119 0.062776119
0.50976831 0.10613734 0.062771022
0.5097937 0.10697347 0.062765926
0.50981909 0.10780962 0.06276083
0.50984454 0.10864577 0.062755734
0.50986993 0.1094819 0.062750638
0.51075971 0.11014838 0.063263468
0.5107851 0.11098292 0.063258387
0.51081049 0.11181748 0.063253298
0.51083583 0.11265202 0.063248217
0.51086122 0.11348658 0.063243128
0.51088655 0.11432113 0.06323804
0.51091194 0.11515568 0.063232958
0.51093733 0.11599024 0.06322787
0.51096267 0.11682478 0.063222788
0.51098806 0.11765934 0.0632177
0.51014948 0.11867948 0.062694594
0.51017493 0.11951563 0.062689498
0.51020032 0.12035177 0.062684402
0.51022577 0.12118791 0.062679306
0.51025116 0.12202406 0.062674209
0.51027656 0.1228602 0.062669113
0.51030201 0.12369634 0.062664025
0.50946385 0.12472923 0.06214083
0.5094893 0.12556697 0.062135722
0.50951475 0.1264047 0.062130619
0.50954026 0.12724245 0.062125515
0.50956571 0.12808017 0.062120408
0.50959116 0.12891792 0.062115304
0.50961661 0.12975565 0.062110201
0.50964206 0.13059339 0.062105093
0.50966758 0.13143112 0.06209999
0.50882989 0.13247994 0.061576705
0.5088554 0.13331927 0.061571591
0.50888091 0.13415861 0.061566476
0.50890642 0.13499792 0.061561365
0.47961035 0.096613795 0.044047173
0.47963747 0.097505681 0.044041738
0.48052892 0.098259777 0.044555269
0.48055598 0.099150077 0.044549845
0.48058304 0.10004037 0.044544417
0.4806101 0.10093066 0.044538993
0.48150131 0.1016768 0.045052573
0.48498479 0.10198252 0.047123253
0.5084433 0.10224398 0.061111286
0.50846881 0.10308332 0.061106171
0.50935805 0.10376575 0.061620142
0.50938356 0.10460349 0.061615039
0.50940901 0.10544122 0.061609935
0.50943446 0.10627896 0.061604828
0.51032352 0.10695342 0.062118843
0.51034892 0.10778957 0.062113751
0.51037431 0.10862572 0.062108655
0.51039976 0.10946185 0.062103558
0.51042515 0.110298 0.062098462
0.51045054 0.11113415 0.06209337
0.51047599 0.11197029 0.062088273
0.51050138 0.11280643 0.062083177
0.51052684 0.11364258 0.062078081
0.51055223 0.11447872 0.062072989
0.51057762 0.11531486 0.062067892
0.51060307 0.11615101 0.062062796
0.51062846 0.11698715 0.0620577
0.51065391 0.1178233 0.062052608
0.5106793 0.11865943 0.062047511
0.5107047 0.11949558 0.062042415
0.51073015 0.12033172 0.062037319
0.51075554 0.12116787 0.062032226
0.50991827 0.12219594 0.061507836
0.50994372 0.12303367 0.061502729
0.50996917 0.12387142 0.061497625
0.50999469 0.12470914 0.061492521
0.51002014 0.12554689 0.061487414
0.51004559 0.12638462 0.06148231
0.50920862 0.12742385 0.060957845
0.50923413 0.12826319 0.06095273
0.50925964 0.1291025 0.060947616
0.50928515 0.12994184 0.060942505
0.50931072 0.13078116 0.06093739
0.50933623 0.1316205 0.060932275
0.50936174 0.13245982 0.06092716
0.50938725 0.13329916 0.060922045
0.50941277 0.13413848 0.06091693
0.50857627 0.13519363 0.060392376
0.48106599 0.097348146 0.043871704
0.48109305 0.098238431 0.043866277
0.48112011 0.099128731 0.043860853
0.48287362 0.099737167 0.044895861
0.48290059 0.10062427 0.044890456
0.48465389 0.10122314 0.045925561
0.48727003 0.10166995 0.047480922
0.50811225 0.10237753 0.059941445
0.5090006 0.1030632 0.060456622
0.50902611 0.10390252 0.060451508
0.50905168 0.10474184 0.060446393
0.50993979 0.10542113 0.060961612
0.5099653 0.10625888 0.060956508
0.50999075 0.10709661 0.060951404
0.5100162 0.10793435 0.060946297
0.51004165 0.10877208 0.060941193
0.51092952 0.10944181 0.061456475
0.51095498 0.11027796 0.061451383
0.51098037 0.1111141 0.061446287
0.51100576 0.11195024 0.061441191
0.51103121 0.11278638 0.061436094
0.5110566 0.11362253 0.061431002
0.51108205 0.11445867 0.061425906
0.51110744 0.11529481 0.061420809
0.51113284 0.11613096 0.061415717
0.51029629 0.11714944 0.060890146
0.5103218 0.11798718 0.060885038
0.51034725 0.11882491 0.060879935
0.5103727 0.11966265 0.060874831
0.51039815 0.12050039 0.060869724
0.5104236 0.12133812 0.06086462
0.51044911 0.12217586 0.060859516
0.51047456 0.12301359 0.060854409
0.50963843 0.12404642 0.060328756
0.50966394 0.12488574 0.060323644
0.50968945 0.12572506 0.06031853
0.50971496 0.1265644 0.060313415
0.50974047 0.12740372 0.0603083
0.50976598 0.12824306 0.060303185
0.50979149 0.12908238 0.06029807
0.509817 0.1299217 0.060292955
0.50984251 0.13076104 0.060287841
0.50900686 0.13180979 0.05976209
0.50903243 0.1326507 0.059756964
0.509058 0.13349162 0.059751842
0.50908357 0.13433255 0.059746716
0.50910914 0.13517347 0.059741594
0.48163009 0.0973268 0.043182719
0.48251948 0.098079391 0.043698724
0.48254648 0.098968081 0.043693308
0.48343572 0.099715896 0.044209342
0.48432487 0.10046052 0.044725399
0.48693821 0.1009138 0.046284452
0.48955128 0.10135753 0.047843557
0.50778323 0.10251101 0.058769107
0.50867063 0.1031983 0.059285544
0.5086962 0.10403921 0.059280418
0.50958347 0.10472172 0.059796851
0.50960898 0.10556105 0.059791736
0.50963449 0.10640038 0.059786621
0.51052153 0.10707652 0.060303096
0.51054704 0.10791426 0.060297988
0.51057249 0.108752 0.060292885
0.51059794 0.10958973 0.060287781
0.5106234 0.11042747 0.060282674
0.51064885 0.1112652 0.06027757
0.51067436 0.11210294 0.060272466
0.51069981 0.11294067 0.060267359
0.51072526 0.11377841 0.060262255
0.51075071 0.11461616 0.060257152
0.51077616 0.11545388 0.060252044
0.51080167 0.11629163 0.060246941
0.51082712 0.11712936 0.060241837
0.51085258 0.11796709 0.06023673
0.51087803 0.11880483 0.060231626
0.51090348 0.11964256 0.060226522
0.51092899 0.1204803 0.060221415
0.51009369 0.1215083 0.059694558
0.5101192 0.12234763 0.059689444
0.51014471 0.12318695 0.059684329
0.51017022 0.12402629 0.059679214
0.51019573 0.12486561 0.059674099
0.51022124 0.12570494 0.059668984
0.51024675 0.12654427 0.059663869
0.50941187 0.12758501 0.059136938
0.50943744 0.12842594 0.059131812
0.50946301 0.12926686 0.059126686
0.50948858 0.13010778 0.059121564
0.50951415 0.13094869 0.059116438
0.50953972 0.13178962 0.059111316
0.50956523 0.13263054 0.05910619
0.50873071 0.13368404 0.058579147
0.50875634 0.13452655 0.058574013
0.50878191 0.13536906 0.05856888
0.48305556 0.097169377 0.043016382
0.48394388 0.09792041 0.043533631
0.48483211 0.098668255 0.044050898
0.48572031 0.099412911 0.044568222
0.48660833 0.10015439 0.045085527
0.48921856 0.10060459 0.04664829
0.49182844 0.10104526 0.048211079
0.49529913 0.10132913 0.050296687
0.50223929 0.10185865 0.054468133
0.50484788 0.10225631 0.056031186
0.50745624 0.1026444 0.057594329
0.50834262 0.10333332 0.058111958
0.50836825 0.10417584 0.058106825
0.50925463 0.10485997 0.058624506
0.50928015 0.1057009 0.058619384
0.51016629 0.10638025 0.059137069
0.5101918 0.10721958 0.059131954
0.51021737 0.10805891 0.059126839
0.51024288 0.10889824 0.059121724
0.51112878 0.10956964 0.059639458
0.51115423 0.11040738 0.059634354
0.51117969 0.11124511 0.05962925
0.51120514 0.11208285 0.059624143
0.51123059 0.11292058 0.059619039
0.5112561 0.11375833 0.059613936
0.51128155 0.11459607 0.059608828
0.511307 0.1154338 0.059603725
0.51133245 0.11627154 0.059598621
0.51049799 0.11729153 0.05907058
0.5105235 0.11813086 0.059065465
0.51054901 0.11897019 0.05906035
0.51057452 0.11980952 0.059055235
0.51060003 0.12064884 0.05905012
0.51062554 0.12148818 0.059045006
0.51065105 0.12232751 0.059039891
0.51067656 0.12316683 0.059034776
0.50984251 0.12420117 0.058506645
0.50986803 0.12504208 0.058501523
0.5098936 0.12588301 0.058496397
0.50991917 0.12672393 0.058491275
0.50994474 0.12756485 0.058486149
0.50997031 0.12840578 0.058481026
0.50999588 0.1292467 0.0584759
0.50916213 0.13029377 0.057947669
0.50918776 0.13113628 0.057942536
0.50921333 0.13197881 0.057937399
0.50923896 0.13282132 0.057932265
0.50926459 0.13366383 0.057927132
0.50929016 0.13450636 0.057921998
0.50931579 0.13534887 0.057916865
0.50192028 0.10198856 0.053283513
0.5045259 0.10238792 0.05485025
0.50713122 0.10277773 0.056417085
0.50801671 0.10346828 0.05693594
0.50890213 0.10415564 0.057454802
0.5089277 0.10499816 0.057449669
0.50981301 0.10568073 0.057968602
0.50983858 0.10652166 0.057963476
0.51072365 0.10719945 0.058482405
0.51074916 0.10803879 0.05847729
0.51077467 0.10887812 0.058472175
0.51080018 0.10971745 0.058467064
0.51082569 0.11055678 0.058461949
0.5108512 0.1113961 0.058456834
0.51087672 0.11223544 0.05845172
0.51090223 0.11307476 0.058446605
0.51092774 0.11391409 0.05844149
0.51095325 0.11475343 0.058436375
0.51097876 0.11559275 0.05843126
0.51100427 0.11643209 0.058426145
0.51102978 0.11727141 0.058421031
0.51105529 0.11811074 0.058415916
0.5110808 0.11895007 0.058410801
0.51024753 0.11997639 0.057881489
0.5102731 0.12081732 0.057876363
0.51029867 0.12165824 0.057871237
0.51032418 0.12249916 0.057866115
0.51034975 0.12334008 0.057860989
0.51037532 0.12418101 0.057855867
0.51040089 0.12502192 0.057850741
0.50956792 0.12606101 0.057321317
0.50959355 0.12690352 0.057316184
0.50961912 0.12774603 0.057311051
0.50964475 0.12858856 0.057305917
0.50967038 0.12943107 0.057300784
0.50969595 0.13027358 0.057295647
0.50972158 0.13111609 0.057290513
0.50974721 0.13195862 0.05728538
0.50891471 0.13301201 0.056755908
0.5089404 0.13385612 0.056750763
0.50896603 0.13470022 0.056745619
0.50899166 0.13554433 0.056740474
0.50901735 0.13638845 0.056735333
0.49983314 0.10069899 0.051056471
0.50071824 0.10141028 0.051576424
0.50332111 0.10181772 0.053146847
0.50506479 0.10236754 0.054192081
0.50680828 0.10291097 0.055237383
0.50769281 0.10360315 0.055757459
0.50857723 0.10429214 0.056277551
0.50946152 0.10497795 0.056797661
0.50948715 0.10582046 0.056792527
0.51037139 0.1065015 0.057312701
0.51039696 0.10734241 0.057307579
0.51042253 0.10818333 0.057302453
0.51044804 0.10902426 0.05729733
0.51133198 0.10969733 0.057817519
0.51135749 0.11053666 0.057812404
0.511383 0.11137598 0.057807289
0.51140851 0.11221532 0.057802174
0.51143402 0.11305464 0.057797063
0.51145953 0.11389397 0.057791948
0.51062697 0.11491071 0.05726146
0.51065254 0.11575162 0.057256334
0.51067811 0.11659255 0.057251211
0.51070368 0.11743347 0.057246085
0.51072925 0.1182744 0.057240959
0.51075476 0.11911531 0.057235837
0.51078033 0.11995623 0.057230711
0.5108059 0.12079716 0.057225589
0.51083148 0.12163808 0.057220463
0.50999933 0.12267075 0.056689847
0.51002496 0.12351327 0.05668471
0.51005054 0.12435579 0.056679577
0.51007617 0.12519829 0.056674443
0.51010174 0.12604082 0.05666931
0.51012737 0.12688333 0.056664176
0.50929564 0.12792714 0.056133527
0.50932127 0.12877125 0.056128383
0.50934696 0.12961535 0.056123238
0.50937259 0.13045946 0.056118097
0.50939822 0.13130356 0.056112953
0.50942391 0.13214767 0.056107808
0.50944954 0.13299178 0.056102663
0.50947523 0.13383588 0.056097522
0.50864393 0.13489403 0.05556678
0.50952655 0.13552409 0.056087233
0.5086953 0.13658543 0.055556472
0.4994939 0.099963851 0.049869731
0.50123608 0.10053127 0.05091732
0.50212014 0.101241 0.051438514
0.50386202 0.10179725 0.052486204
0.50474578 0.10249903 0.053007454
0.50648731 0.10304414 0.05405518
0.50737089 0.10373795 0.054576505
0.50825435 0.10442857 0.055097822
0.50913775 0.10511601 0.055619162
0.50916338 0.10596012 0.055614017
0.5100466 0.10664279 0.056135379
0.51007223 0.10748529 0.056130245
0.51095533 0.10816317 0.05665167
0.5109809 0.1090041 0.056646548
0.51100647 0.10984502 0.056641422
0.51103204 0.11068594 0.0566363
0.51105756 0.11152685 0.056631174
0.51108313 0.11236778 0.056626052
0.5111087 0.1132087 0.056620926
0.51113427 0.11404963 0.0566158
0.51115984 0.11489055 0.056610677
0.51118535 0.11573146 0.056605551
0.51121092 0.11657239 0.056600429
0.51123649 0.11741331 0.056595303
0.51040512 0.11843798 0.056063503
0.51043075 0.11928049 0.056058366
0.51045632 0.12012301 0.056053232
0.51048195 0.12096552 0.056048099
0.51050758 0.12180804 0.056042966
0.51053315 0.12265056 0.056037832
0.51055878 0.12349307 0.056032699
0.50972784 0.12453047 0.055500854
0.50975353 0.12537457 0.055495709
0.50977916 0.12621868 0.055490568
0.50980479 0.12706278 0.055485424
0.50983047 0.12790689 0.055480279
0.5098561 0.12875101 0.055475134
0.50988179 0.1295951 0.055469994
0.50990742 0.13043922 0.055464849
0.50993311 0.13128333 0.055459704
0.50910264 0.13233666 0.054927759
0.50912833 0.13318235 0.054922607
0.50915408 0.13402805 0.054917451
0.50917977 0.13487375 0.054912299
0.50920546 0.13571945 0.054907147
0.50837529 0.13678233 0.054375142
0.5084011 0.13762963 0.054369979
0.50001365 0.099081568 0.049208175
0.50175393 0.099652238 0.050258216
0.50263697 0.10036361 0.050780635
0.50352001 0.10107178 0.051303111
0.50440294 0.10177679 0.051825568
0.50528568 0.1024786 0.052348051
0.50616837 0.10317723 0.052870549
0.50790775 0.10371763 0.053920802
0.50793356 0.10456491 0.053915638
0.50881594 0.10525399 0.054438196
0.50969821 0.10593988 0.054960776
0.5097239 0.10678399 0.054955631
0.51060605 0.1074651 0.055478234
0.51063168 0.10830761 0.0554731
0.51065725 0.10915013 0.055467967
0.51068288 0.10999264 0.055462833
0.51156485 0.11066578 0.055985518
0.51159042 0.11150669 0.055980392
0.51161599 0.11234762 0.05597527
0.5116415 0.11318854 0.055970144
0.51166707 0.11402947 0.055965021
0.51083654 0.11504773 0.055432029
0.51086211 0.11589024 0.055426896
0.51088774 0.11673276 0.055421762
0.51091337 0.11757527 0.055416625
0.51093894 0.11841778 0.055411492
0.51096457 0.1192603 0.055406358
0.5109902 0.12010281 0.055401225
0.51016009 0.1211338 0.054868188
0.51018572 0.12197791 0.054863043
0.51021135 0.12282202 0.054857899
0.51023704 0.12366612 0.054852758
0.51026267 0.12451023 0.054847613
0.51028836 0.12535433 0.054842468
0.51031399 0.12619844 0.054837324
0.50948429 0.12724218 0.054304205
0.50950998 0.12808788 0.054299053
0.50953567 0.12893358 0.054293897
0.50956136 0.12977928 0.054288745
0.50958711 0.13062498 0.054283589
0.5096128 0.13147068 0.054278437
0.50963849 0.13231638 0.054273285
0.50880915 0.13337286 0.053740092
0.5088349 0.13422014 0.053734928
0.50886065 0.13506743 0.053729765
0.5088864 0.13591473 0.053724602
0.50891215 0.13676202 0.053719439
0.50893795 0.1376093 0.053714275
0.50138956 0.098057032 0.049075481
0.50227177 0.098773219 0.049599104
0.50315386 0.099486217 0.050122753
0.50317991 0.10034307 0.05011753
0.50406194 0.10105128 0.050641235
0.50494379 0.10175632 0.051164925
0.50582558 0.10245818 0.051688638
0.50670725 0.10315684 0.052212372
0.50758886 0.10385232 0.052736122
0.50847042 0.1045446 0.053259924
0.50935179 0.10523372 0.053783715
0.50937748 0.10607941 0.053778559
0.51025873 0.10676375 0.054302383
0.51028442 0.10760786 0.054297239
0.51031005 0.10845196 0.054292094
0.51119113 0.10912993 0.054815952
0.5112167 0.10997244 0.054810818
0.51124233 0.11081496 0.054805685
0.51126796 0.11165746 0.054800551
0.51129353 0.11249998 0.054795418
0.51131916 0.11334249 0.054790281
0.51134479 0.11418501 0.054785147
0.51137036 0.11502753 0.054780014
0.51139599 0.11587004 0.05477488
0.51142156 0.11671256 0.054769747
0.51059228 0.11773714 0.054235514
0.51061791 0.11858125 0.05423037
0.5106436 0.11942536 0.054225229
0.51066923 0.12026946 0.054220084
0.51069492 0.12111357 0.054214939
0.51072055 0.12195767 0.054209795
0.51074624 0.12280178 0.05420465
0.50991732 0.1238391 0.053670336
0.50994301 0.1246848 0.053665183
0.5099687 0.1255305 0.053660031
0.50999445 0.12637621 0.053654876
0.51002014 0.1272219 0.053649724
0.51004583 0.1280676 0.053644571
0.51007152 0.1289133 0.053639416
0.50924301 0.12996337 0.05310503
0.50926876 0.13081066 0.053099867
0.50929451 0.13165794 0.053094704
0.50932026 0.13250525 0.05308954
0.50934601 0.13335253 0.053084377
0.50937176 0.13419983 0.053079214
0.50939751 0.13504712 0.053074051
0.50856936 0.13610993 0.052539553
0.50859517 0.13695884 0.052534383
0.50862092 0.13780771 0.052529208
0.50278956 0.097894192 0.048940003
0.50281566 0.09875264 0.048934773
0.5036968 0.099465676 0.049459647
0.50372285 0.10032253 0.049454428
0.50460386 0.10103077 0.049979366
0.50462985 0.10188603 0.049974155
0.50636548 0.10243775 0.051029235
0.50724614 0.10313645 0.051554199
0.50812674 0.10383197 0.052079182
0.50815254 0.10468085 0.052074008
0.50903302 0.10537159 0.052599054
0.50991333 0.10605914 0.053124089
0.50993907 0.10690484 0.053118937
0.50996476 0.10775054 0.053113785
0.51084489 0.10843173 0.053638853
0.51087058 0.10927583 0.053633709
0.51089621 0.11011994 0.053628568
0.5109219 0.11096405 0.053623423
0.51094753 0.11180815 0.053618278
0.51097322 0.11265226 0.053613134
0.51099885 0.11349636 0.053607993
0.51102448 0.11434048 0.053602848
0.51105016 0.11518458 0.053597704
0.51107579 0.11602869 0.053592559
0.51110148 0.1168728 0.053587414
0.51112711 0.1177169 0.053582273
0.5111528 0.11856101 0.053577129
0.51117843 0.11940511 0.053571984
0.51035035 0.12043604 0.053036481
0.51037604 0.12128173 0.053031329
0.51040173 0.12212744 0.053026173
0.51042747 0.12297314 0.053021021
0.51045316 0.12381883 0.053015869
0.51047885 0.12466453 0.053010713
0.50965112 0.1257066 0.052475136
0.50967687 0.12655389 0.052469973
0.50970262 0.12740117 0.052464809
0.50972837 0.12824847 0.052459646
0.50975412 0.12909576 0.052454483
0.50977987 0.12994306 0.05244932
0.50980562 0.13079035 0.052444156
0.50983137 0.13163763 0.052438993
0.509004 0.13269405 0.051903304
0.50902981 0.13354294 0.051898129
0.50905561 0.13439181 0.051892959
0.50908142 0.13524072 0.051887784
0.50910723 0.13608959 0.051882613
0.50913304 0.13693848 0.051877439
0.50830603 0.13800602 0.051341712
0.50333351 0.097873613 0.048275661
0.50421369 0.09858828 0.048801761
0.50423974 0.099445134 0.048796542
0.50511974 0.10015502 0.049322702
0.50514579 0.10101027 0.04931749
0.50517178 0.10186553 0.049312279
0.50690538 0.10241732 0.050369825
0.5069313 0.10326938 0.050364632
0.50781089 0.10396653 0.050890841
0.50869042 0.1046605 0.051417068
0.50956988 0.10535127 0.051943343
0.50959563 0.10619856 0.05193818
0.50962138 0.10704586 0.051933017
0.51050061 0.10773026 0.052459303
0.5105263 0.10857597 0.052454147
0.51140541 0.1092556 0.05298046
0.51143104 0.1100997 0.052975319
0.51145673 0.11094381 0.052970175
0.51148236 0.11178792 0.05296503
0.51150805 0.11263203 0.052959885
0.51153368 0.11347613 0.052954745
0.51155937 0.11432024 0.0529496
0.511585 0.11516435 0.052944455
0.51075768 0.11618726 0.052407768
0.51078337 0.11703296 0.052402616
0.51080906 0.11787866 0.05239746
0.51083481 0.11872435 0.052392308
0.5108605 0.11957005 0.052387152
0.51088619 0.12041575 0.052382
0.51091188 0.12126146 0.052376848
0.51008499 0.12229712 0.051840082
0.51011074 0.12314441 0.051834919
0.51013649 0.12399169 0.051829755
0.51016223 0.12483899 0.051824592
0.51018798 0.12568629 0.051819429
0.51021373 0.12653357 0.051814266
0.51023948 0.12738086 0.051809102
0.50941288 0.12842928 0.051272225
0.50943869 0.12927817 0.051267054
0.5094645 0.13012704 0.05126188
0.50949025 0.13097593 0.051256709
0.50951606 0.13182481 0.051251534
0.50954187 0.1326737 0.05124636
0.50956768 0.13352259 0.051241189
0.5087415 0.13458373 0.050704267
0.50876737 0.13543421 0.050699085
0.50879323 0.13628468 0.050693903
0.50881904 0.13713516 0.050688721
0.50884491 0.13798563 0.050683536
0.50801903 0.13905632 0.050146557
0.50382525 0.096136153 0.047621783
0.50470448 0.096854046 0.048149098
0.50387746 0.097853027 0.047611319
0.50475657 0.098567739 0.048138652
0.50478262 0.099424593 0.048133433
0.50566167 0.10013451 0.048660826
0.50568765 0.10098977 0.048655614
0.50656652 0.10169492 0.049183007
0.50744528 0.10239689 0.049710412
0.5074712 0.10324895 0.049705219
0.50834978 0.10394614 0.05023266
0.50922829 0.10464015 0.05076012
0.5092541 0.10548903 0.050754946
0.51013249 0.10617825 0.051282465
0.51015824 0.10702555 0.051277302
0.51018399 0.10787283 0.051272139
0.5110622 0.10855569 0.051799666
0.51108789 0.10940139 0.051794514
0.51111358 0.11024708 0.051789362
0.51113927 0.11109279 0.051784206
0.51116502 0.11193848 0.051779054
0.51119071 0.11278419 0.051773898
0.5112164 0.11362988 0.051768746
0.51124215 0.11447559 0.051763594
0.51126784 0.11532129 0.051758438
0.51129353 0.11616699 0.051753286
0.51131922 0.11701269 0.051748134
0.51049304 0.11804033 0.051210184
0.51051879 0.11888763 0.05120502
0.51054454 0.11973492 0.051199857
0.51057035 0.12058222 0.051194694
0.5105961 0.1214295 0.051189531
0.51062185 0.1222768 0.051184367
0.51064759 0.1231241 0.051179204
0.50982171 0.12416449 0.050641142
0.50984752 0.12501338 0.050635971
0.50987333 0.12586227 0.050630797
0.50989914 0.12671116 0.050625622
0.50992495 0.12756003 0.050620452
0.50995076 0.12840892 0.050615277
0.50997657 0.12925781 0.050610106
0.51000237 0.13010669 0.050604932
0.51002818 0.13095558 0.050599758
0.50920284 0.13201189 0.050061636
0.50922871 0.13286239 0.05005645
0.50925457 0.13371286 0.050051268
0.50928038 0.13456333 0.050046086
0.50845534 0.13562763 0.049507912
0.50848126 0.13647969 0.049502719
0.50850713 0.13733177 0.049497526
0.50853306 0.13818383 0.049492337
0.50855893 0.1390359 0.049487144
0.50519532 0.095119812 0.047496434
0.50522137 0.095976651 0.047491215
0.50524741 0.096833505 0.047485992
0.50527346 0.097690351 0.047480773
0.50529951 0.098547198 0.04747555
0.5061776 0.099258751 0.048004169
0.50620359 0.10011401 0.047998957
0.50622958 0.10096926 0.047993746
0.50710744 0.10167445 0.048522364
0.50798517 0.10237646 0.049051009
0.50801104 0.10322852 0.049045816
0.50888866 0.10392576 0.049574491
0.50891453 0.10477623 0.049569305
0.50979197 0.10546868 0.050098009
0.50981778 0.10631756 0.050092835
0.5106951 0.10700523 0.050621595
0.51072091 0.10785251 0.050616432
0.51074666 0.10869981 0.050611269
0.51077241 0.10954711 0.050606105
0.51079816 0.1103944 0.050600942
0.51082391 0.11124169 0.050595779
0.51084965 0.11208898 0.050590616
0.5108754 0.11293627 0.050585452
0.51090115 0.11378356 0.050580289
0.5109269 0.11463086 0.050575126
0.51095265 0.11547815 0.050569963
0.5109784 0.11632544 0.050564799
0.51100415 0.11717274 0.050559636
0.5110299 0.11802002 0.050554473
0.51105571 0.11886732 0.05054931
0.51108146 0.11971461 0.050544146
0.51025641 0.12074861 0.050004896
0.51028222 0.12159749 0.049999725
0.51030803 0.12244637 0.049994551
0.51033384 0.12329526 0.04998938
0.51035959 0.12414414 0.049984206
0.51038539 0.12499303 0.049979035
0.5104112 0.12584192 0.04997386
0.51043701 0.1266908 0.049968686
0.5096125 0.12773912 0.049429376
0.50963831 0.1285896 0.049424194
0.50966418 0.12944008 0.049419012
0.50969005 0.13029055 0.04941383
0.50971586 0.13114104 0.049408648
0.50974172 0.13199151 0.049403463
0.50976759 0.13284199 0.049398281
0.50894344 0.13390304 0.048858892
0.50896931 0.13475512 0.048853703
0.50899523 0.1356072 0.04884851
0.5090211 0.13645926 0.048843317
0.50819719 0.13752829 0.04830388
0.50822318 0.13838196 0.048298679
0.5082491 0.13923562 0.048293475
0.50571221 0.094242416 0.046838548
0.50573826 0.095099263 0.046833329
0.50576431 0.095956109 0.046828106
0.50579035 0.096812963 0.046822883
0.5058164 0.09766981 0.046817664
0.50669348 0.098382987 0.047347505
0.50671953 0.099238247 0.047342293
0.50759643 0.099946663 0.047872126
0.50762236 0.10080032 0.047866926
0.50764835 0.10165399 0.047861721
0.50852507 0.10235603 0.048391599
0.50855094 0.10320809 0.048386406
0.50942755 0.10390536 0.048916306
0.50945342 0.10475584 0.048911124
0.51032984 0.10544833 0.049441062
0.51035565 0.10629721 0.049435887
0.51038146 0.1071461 0.049430717
0.51040727 0.10799498 0.049425542
0.51128352 0.1086795 0.049955558
0.51130927 0.1095268 0.049950395
0.51133502 0.11037408 0.049945232
0.51136076 0.11122137 0.049940068
0.51138651 0.11206867 0.049934905
0.51141226 0.11291596 0.049929742
0.51143801 0.11376325 0.049924579
0.51146376 0.11461055 0.049919415
0.51063949 0.11563495 0.049378987
0.5106653 0.11648383 0.049373813
0.51069105 0.11733272 0.049368642
0.51071686 0.1181816 0.049363468
0.51074266 0.11903048 0.049358297
0.51076847 0.11987937 0.049353123
0.51079428 0.12072825 0.049347948
0.51082009 0.12157714 0.049342778
0.50999624 0.12261587 0.04880229
0.5100221 0.12346635 0.048797108
0.51004797 0.12431682 0.048791926
0.51007384 0.12516731 0.048786744
0.51009965 0.12601778 0.048781563
0.51012552 0.12686826 0.048776377
0.51015139 0.12771873 0.048771195
0.5101772 0.1285692 0.048766013
0.50935382 0.12962228 0.048225448
0.50937974 0.13047434 0.048220254
0.50940561 0.13132642 0.048215061
0.50943154 0.13217849 0.048209868
0.50945741 0.13303055 0.048204679
0.50948334 0.13388261 0.048199486
0.50866026 0.13494684 0.047658846
0.50868624 0.1358005 0.047653642
0.50871217 0.13665415 0.047648441
0.5087381 0.13750783 0.047643237
0.50791532 0.13857999 0.047102556
0.50794131 0.13943525 0.047097344
0.50625515 0.094221875 0.046175446
0.5062812 0.095078722 0.046170224
0.50630724 0.095935568 0.046165004
0.50718343 0.096651971 0.046696059
0.50720942 0.097507231 0.046690848
0.50723541 0.098362483 0.046685636
0.50811136 0.099072531 0.047216691
0.50728738 0.100073 0.046675213
0.50816327 0.10077985 0.047206286
0.5081892 0.10163352 0.047201086
0.50906497 0.1023356 0.047732197
0.50909084 0.10318767 0.047727004
0.50996643 0.10388497 0.048258137
0.5099923 0.10473545 0.048252955
0.51001811 0.10558593 0.048247773
0.51004398 0.1064364 0.048242591
0.51091933 0.10712574 0.04877378
0.51094514 0.10797463 0.048768606
0.51097095 0.10882352 0.048763435
0.5109967 0.1096724 0.048758261
0.51102251 0.11052128 0.048753086
0.51104832 0.11137017 0.048747916
0.51107413 0.11221906 0.048742741
0.51109993 0.11306794 0.048737571
0.51112574 0.11391682 0.048732396
0.51115155 0.11476571 0.048727222
0.51117736 0.1156146 0.048722051
0.51120317 0.11646347 0.048716877
0.51122892 0.11731236 0.048711706
0.5104059 0.11834309 0.048170034
0.51043177 0.11919357 0.048164852
0.51045758 0.12004404 0.04815967
0.51048344 0.12089453 0.048154488
0.51050931 0.121745 0.048149303
0.51053512 0.12259548 0.048144121
0.51056099 0.12344596 0.048138939
0.51058686 0.12429643 0.048133757
0.50976419 0.1253415 0.047592007
0.50979012 0.12619357 0.047586814
0.50981599 0.12704563 0.047581621
0.50984192 0.12789769 0.047576427
0.50986785 0.12874977 0.047571234
0.50989372 0.12960185 0.047566045
0.50991964 0.13045391 0.047560852
0.5090974 0.13151172 0.047019016
0.50912333 0.13236538 0.047013815
0.50914925 0.13321905 0.047008611
0.50917524 0.13407271 0.047003411
0.50920117 0.13492636 0.046998207
0.50837922 0.13599372 0.046456322
0.50840521 0.13684897 0.04645111
0.5084312 0.13770424 0.046445899
0.50845724 0.13855949 0.046440687
0.50763547 0.13963482 0.045898713
0.50766152 0.14049166 0.04589349
0.50677198 0.09334448 0.04551756
0.50679803 0.094201334 0.045512337
0.50682408 0.09505818 0.045507114
0.50685012 0.095915027 0.045501895
0.50772536 0.096631467 0.046034183
0.50775135 0.097486727 0.046028972
0.50777733 0.098341979 0.04602376
0.50780332 0.099197239 0.046018548
0.50867826 0.099905729 0.046550848
0.50870419 0.10075939 0.046545647
0.50957894 0.1014631 0.047077972
0.50960487 0.10231517 0.047072783
0.50963074 0.10316724 0.04706759
0.51050532 0.10386459 0.047599964
0.51053119 0.10471506 0.047594782
0.510557 0.10556554 0.047589596
0.51058286 0.10641601 0.047584414
0.51060873 0.10726649 0.047579233
0.51063454 0.10811696 0.047574051
0.51066041 0.10896745 0.047568869
0.51068628 0.10981793 0.047563683
0.51071215 0.11066841 0.047558501
0.51073796 0.11151888 0.047553319
0.51076382 0.11236935 0.047548138
