# .PCD v0.7 - Point Cloud Data file format
VERSION 0.7
FIELDS x y z
SIZE 4 4 4
TYPE F F F
COUNT 1 1 1
WIDTH 1382
HEIGHT 1
VIEWPOINT 0 0 0 1 0 0 0
POINTS 1382
DATA ascii
0.47298992 0.059815962 0.030471876
0.473874 0.060659632 0.030997191
0.47390169 0.061570629 0.030991638
0.47392938 0.062481631 0.030986087
0.47481325 0.063318938 0.031511441
0.47484088 0.064228341 0.031505898
0.47572464 0.065060869 0.032031279
0.4757522 0.065968677 0.032025747
0.47663584 0.066796422 0.032551192
0.47666341 0.067702644 0.032545667
0.47754684 0.068525612 0.033071108
0.47757435 0.069430239 0.033065595
0.47845763 0.070248432 0.033591066
0.47848508 0.071151465 0.033585563
0.47936821 0.071964875 0.034111068
0.47939563 0.072866321 0.034105573
0.48027867 0.073674947 0.034631126
0.48030603 0.074574806 0.034625642
0.48033339 0.07547465 0.034620158
0.48121619 0.076276913 0.035145726
0.48124349 0.07717517 0.035140254
0.48212615 0.077972658 0.035665855
0.48215342 0.07886932 0.03566039
0.48303592 0.079662032 0.036186013
0.48306313 0.0805571 0.03618056
0.48309034 0.081452183 0.036175106
0.48311755 0.082347251 0.036169652
0.48314476 0.08324232 0.036164198
0.484027 0.08402548 0.036689878
0.48405415 0.084918953 0.036684435
0.4840813 0.085812435 0.036678988
0.48410845 0.086705908 0.036673546
0.48413563 0.087599389 0.036668099
0.48330799 0.08861275 0.036131471
0.4833352 0.089507826 0.036126018
0.48336241 0.090402894 0.036120564
0.48338962 0.091297969 0.036115106
0.48256221 0.092319287 0.03557843
0.48173496 0.093343794 0.035041727
0.48176226 0.094242051 0.035036251
0.4809351 0.095271342 0.034499526
0.48010802 0.096303828 0.033962753
0.48013541 0.097205266 0.033957258
0.47930852 0.098242521 0.033420477
0.47933596 0.099145554 0.033414975
0.47850922 0.10018758 0.032878168
0.45908368 0.03460462 0.021411994
0.4591122 0.035542693 0.021406278
0.45999739 0.036454886 0.02193244
0.46002585 0.037391368 0.021926735
0.46005431 0.03832785 0.021921027
0.46093926 0.039233673 0.022447197
0.46182412 0.040136315 0.022973385
0.46270886 0.041035768 0.023499591
0.46273717 0.04196747 0.023493914
0.4636218 0.042862147 0.02402015
0.46365008 0.043792259 0.024014482
0.46453458 0.044682156 0.024540775
0.46541896 0.045568869 0.025067059
0.46544713 0.046495792 0.025061412
0.46633133 0.047377728 0.025587726
0.46635947 0.04830306 0.025582086
0.46724355 0.049180217 0.026108431
0.46812752 0.050054193 0.026634794
0.46815556 0.050976336 0.026629174
0.46903944 0.051845528 0.027155597
0.46906742 0.052766085 0.027149988
0.46995112 0.053630501 0.027676409
0.46997905 0.054549459 0.02767081
0.4708626 0.0554091 0.028197259
0.47174603 0.056265552 0.028723722
0.47177386 0.057181329 0.028718142
0.47265723 0.058033001 0.029244673
0.47268501 0.058947183 0.029239103
0.47356817 0.05979408 0.02976563
0.47359592 0.060706671 0.029760068
0.47447893 0.061548788 0.030286627
0.47450662 0.062459789 0.030281074
0.4745343 0.063370787 0.030275524
0.47541711 0.064206541 0.03080212
0.47544476 0.065115944 0.030796578
0.47632742 0.065946914 0.031323202
0.47635502 0.06685473 0.03131767
0.47723761 0.067680918 0.031844355
0.47726515 0.068587132 0.031838834
0.47729269 0.069493353 0.03183331
0.47817501 0.070313178 0.032360002
0.47820252 0.071217805 0.032354493
0.4790847 0.072032847 0.032881208
0.47911215 0.072935887 0.032875706
0.47999421 0.073746152 0.033402454
0.4800216 0.074647598 0.033396963
0.48090357 0.07545308 0.033923775
0.48093089 0.076352932 0.033918291
0.48181266 0.077153638 0.0344451
0.48183995 0.078051895 0.034439627
0.48272157 0.078847826 0.034966465
0.48274881 0.079744488 0.034961
0.48277608 0.08064115 0.034955539
0.48365748 0.081430718 0.035482414
0.48368469 0.082325794 0.03547696
0.4837119 0.083220862 0.035471506
0.48373911 0.08411593 0.035466053
0.48462027 0.084897533 0.035992976
0.48464742 0.085791014 0.035987534
0.4846746 0.086684488 0.035982087
0.48384792 0.087696217 0.035444234
0.48387513 0.088591293 0.03543878
0.48390234 0.089486368 0.035433326
0.48392954 0.090381436 0.035427872
0.48395675 0.091276512 0.035422418
0.4831304 0.092297792 0.034884505
0.48315763 0.093194455 0.03487904
0.4823314 0.094220519 0.034341101
0.48150527 0.095249765 0.033803139
0.48067918 0.096282214 0.033265129
0.4807066 0.097183652 0.033259634
0.48073399 0.098085098 0.033254143
0.47990817 0.099123903 0.032716122
0.47993562 0.10002693 0.032710619
0.45882234 0.034604784 0.020152979
0.45885092 0.035544451 0.020147253
0.4597351 0.036458276 0.020674601
0.45976362 0.037396349 0.020668885
0.4606477 0.038305398 0.021196298
0.46067616 0.039241876 0.021190593
0.46156004 0.04014615 0.021718005
0.46244383 0.041047234 0.022245435
0.4624722 0.041980531 0.022239748
0.46335587 0.042876836 0.022767203
0.46338418 0.043808538 0.022761526
0.46426767 0.044700067 0.023289014
0.46515113 0.045588411 0.023816554
0.46603444 0.04647357 0.024344077
0.46606264 0.047400493 0.024338428
0.4669458 0.048280876 0.024865987
0.4669739 0.049206208 0.024860347
0.46785691 0.050081812 0.025387933
0.46873984 0.050954226 0.025915539
0.46876788 0.051876374 0.025909919
0.46965072 0.052744012 0.026437581
0.4696787 0.053664565 0.026431972
0.47056133 0.054527428 0.026959635
0.47058925 0.055446386 0.026954036
0.47147173 0.056304473 0.027481729
0.47149962 0.057221845 0.027476139
0.47238195 0.058075149 0.02800386
0.47326425 0.058925264 0.02853163
0.47329205 0.05983945 0.028526058
0.47331983 0.060753632 0.028520487
0.47420189 0.061597381 0.029048268
0.47422963 0.062509976 0.029042706
0.47511151 0.063348949 0.029570516
0.47513923 0.064259946 0.029564966
0.47602096 0.065094136 0.030092804
0.47604862 0.066003546 0.030087262
0.47607625 0.066912949 0.030081721
0.47695783 0.067740776 0.030609593
0.47698542 0.068648584 0.030604061
0.47786689 0.069471627 0.031132
0.47789443 0.070377849 0.031126477
0.47877571 0.071196117 0.031654414
0.47880322 0.072100744 0.0316489
0.47968435 0.072914235 0.032176863
0.4797118 0.073817268 0.032171361
0.48059279 0.074625984 0.03269935
0.48062018 0.075527422 0.032693855
0.48150107 0.076331355 0.033221912
0.48152843 0.077231199 0.033216428
0.48155576 0.07813105 0.033210944
0.48243642 0.07892862 0.033739008
0.48246372 0.079826869 0.033733532
0.48334423 0.080619656 0.034261625
0.48337147 0.081516325 0.03425616
0.48425183 0.082304329 0.034784276
0.48427904 0.083199404 0.034778822
0.48430625 0.084094472 0.034773365
0.48433346 0.084989548 0.034767911
0.48436067 0.085884616 0.034762457
0.48438787 0.086779684 0.034757003
0.48441508 0.087674759 0.034751549
0.48444226 0.088569835 0.034746096
0.48446947 0.089464903 0.034740642
0.48449668 0.090359978 0.034735184
0.48452389 0.091255046 0.03472973
0.48369852 0.09227629 0.034190591
0.48372579 0.09317296 0.034185126
0.48290056 0.094198979 0.033645954
0.48207545 0.095228195 0.033106759
0.48210278 0.096128047 0.033101276
0.48213014 0.09702789 0.033095792
0.48130518 0.098063484 0.03255653
0.48048034 0.099102251 0.032017283
0.48050779 0.10000528 0.032011781
0.45856303 0.03460487 0.018891485
0.45944631 0.035521921 0.019420052
0.45947486 0.036461588 0.019414326
0.45950344 0.037401255 0.0194086
0.46038651 0.038311932 0.0199372
0.46126953 0.039219424 0.020465858
0.46129799 0.040155906 0.020460151
0.46218082 0.041058622 0.0209888
0.46220925 0.04199351 0.020983104
0.46309194 0.04289145 0.021511788
0.46397454 0.043786202 0.02204049
0.46400285 0.044717904 0.022034813
0.46488529 0.04560788 0.022563539
0.46576768 0.046494666 0.023092324
0.46664995 0.047378272 0.023621088
0.46667811 0.048305195 0.02361544
0.46756023 0.049184021 0.02414424
0.46758837 0.050109357 0.024138601
0.46847031 0.050983403 0.024667431
0.46935219 0.051854268 0.025196275
0.4693802 0.052776415 0.025190655
0.47026199 0.053642496 0.025719564
0.47028995 0.054563049 0.025713956
0.47117153 0.055424355 0.026242862
0.47119945 0.056343321 0.026237262
0.47208089 0.057199851 0.026766192
0.47210878 0.058117218 0.026760602
0.47299007 0.058968969 0.027289568
0.4730179 0.059884746 0.027283987
0.4738991 0.060731713 0.027813008
0.47392687 0.061645899 0.027807437
0.47480786 0.062488094 0.028336462
0.4748356 0.063400686 0.0283309
0.47571644 0.064238101 0.028859952
0.47574413 0.065149099 0.028854402
0.47577184 0.066060096 0.028848849
0.47665247 0.066891149 0.029377935
0.47668013 0.067800552 0.029372394
0.47756064 0.068626821 0.029901514
0.47758824 0.069534637 0.029895982
0.47846866 0.070356123 0.030425157
0.47849619 0.071262345 0.030419637
0.47852373 0.072168559 0.030414114
0.47940391 0.072983682 0.030943302
0.48028398 0.073795617 0.031472512
0.48031142 0.074698657 0.031467006
0.48033887 0.07560169 0.031461503
0.48121876 0.076407254 0.031990744
0.48209858 0.077209629 0.032520045
0.48212594 0.07810948 0.032514561
0.4821533 0.079009324 0.032509077
0.48303288 0.079805337 0.033038374
0.48306018 0.080703594 0.033032902
0.48393962 0.081494823 0.033562236
0.48396689 0.082391493 0.033556771
0.48484617 0.083177947 0.034086134
0.48487338 0.084073015 0.03408068
0.48490059 0.08496809 0.034075227
0.4849278 0.085863158 0.034069773
0.48495501 0.086758226 0.034064319
0.48498222 0.087653302 0.034058865
0.4850094 0.088548377 0.034053408
0.48503661 0.089443445 0.034047954
0.48506382 0.090338513 0.0340425
0.48509103 0.091233589 0.034037046
0.48511824 0.092128657 0.034031592
0.48429394 0.093151458 0.033491205
0.48346972 0.094177447 0.032950796
0.48349702 0.095075704 0.032945324
0.48267296 0.09610647 0.032404892
0.48184896 0.097140431 0.031864405
0.48187634 0.098041877 0.03185891
0.48190376 0.098943308 0.031853415
0.48107997 0.099983633 0.031312928
0.48025629 0.10102714 0.030772412
0.44028881 0.032150134 0.0063992254
0.45403719 0.034717772 0.014949887
0.45918804 0.035523564 0.01815732
0.46007025 0.036439057 0.018687131
0.46009883 0.037378725 0.018681405
0.46012738 0.038318392 0.018675679
0.46100941 0.039227515 0.019205522
0.46189138 0.040133454 0.019735424
0.46191984 0.041069936 0.019729717
0.46280161 0.041971095 0.020259608
0.46283004 0.042905986 0.020253912
0.46371165 0.043802369 0.020783838
0.4645932 0.044695567 0.021313779
0.46462151 0.04562727 0.021308102
0.46550289 0.046515692 0.021838076
0.46638423 0.047400922 0.022368098
0.46726543 0.048282973 0.022898111
0.46729362 0.049209896 0.022892464
0.46817467 0.050087169 0.0234225
0.4682028 0.051012501 0.023416862
0.4690837 0.051884998 0.023946935
0.4699645 0.052754305 0.02447702
0.46999252 0.053676452 0.024471402
0.47087324 0.054540977 0.025001548
0.47090122 0.055461533 0.02499594
0.47178173 0.056321286 0.02552609
0.47180969 0.057240248 0.025520489
0.47269005 0.058095224 0.026050663
0.47271794 0.059012592 0.026045073
0.47359815 0.059862792 0.02657528
0.47362599 0.060778566 0.0265697
0.47450611 0.061623979 0.027099963
0.47453392 0.062538162 0.027094394
0.47456169 0.063452348 0.027088823
0.47544158 0.064291395 0.027619099
0.47632137 0.065127261 0.028149389
0.47634906 0.066038258 0.028143836
0.47637674 0.066949256 0.028138286
0.47725636 0.067778751 0.02866862
0.47728398 0.068688154 0.028663078
0.47816345 0.069512866 0.029193437
0.47819105 0.070420682 0.029187905
0.4790704 0.071240619 0.029718328
0.47909793 0.072146833 0.029712807
0.47912547 0.073053055 0.029707285
0.48000461 0.073866621 0.03023771
0.48003209 0.074771255 0.030232199
0.48091105 0.075580038 0.030762658
0.48093849 0.076483078 0.030757155
0.48181733 0.077287085 0.03128764
0.48184472 0.078188531 0.031282146
0.48272344 0.078987755 0.031812698
0.4827508 0.079887606 0.031807214
0.48362935 0.080682054 0.032337755
0.48365664 0.081580319 0.032332283
0.48453504 0.082369991 0.032862861
0.48456228 0.083266653 0.032857396
0.48544052 0.084051557 0.033387996
0.48546773 0.084946625 0.033382542
0.48549494 0.0858417 0.033377089
0.48552215 0.086736768 0.033371631
0.48554936 0.087631844 0.033366177
0.48557654 0.088526919 0.033360723
0.48560375 0.089421988 0.03335527
0.48563096 0.090317056 0.033349816
0.48565817 0.091212131 0.033344362
0.48568538 0.092107199 0.033338908
0.48486209 0.093129963 0.032797292
0.48488933 0.094026625 0.032791827
0.48406619 0.095054172 0.032250177
0.48324314 0.0960849 0.031708512
0.48327047 0.096984744 0.031703029
0.48329782 0.097884595 0.031697545
0.48247492 0.098921701 0.031155804
0.48165214 0.099961981 0.030614082
0.48082948 0.10100545 0.030072333
0.45122886 0.034785137 0.012066999
0.45807913 0.035549264 0.016355326
0.46066567 0.036416531 0.01795993
0.46069422 0.037356198 0.017954204
0.46072277 0.038295861 0.017948478
0.46160379 0.039205026 0.018479556
0.46163231 0.040143099 0.018473839
0.46251321 0.041047484 0.019004982
0.4625417 0.041983962 0.018999275
0.46342242 0.042883571 0.01953041
0.46345082 0.043818459 0.019524714
0.46433139 0.044713289 0.020055877
0.46521187 0.045604933 0.020587068
0.46524018 0.046536636 0.020581389
0.46612051 0.047423501 0.021112602
0.46700081 0.04830718 0.021643866
0.46788093 0.049187675 0.022175124
0.4679091 0.050114598 0.022169475
0.4687891 0.050990317 0.022700755
0.46881723 0.051915649 0.022695117
0.46969709 0.052786589 0.023226427
0.47057682 0.053654343 0.023757761
0.47060487 0.05457649 0.023752142
0.47148451 0.055439461 0.024283532
0.4715125 0.056360018 0.024277924
0.47239196 0.057218216 0.02480931
0.47241989 0.058137178 0.024803711
0.47329921 0.058990598 0.025335133
0.47332707 0.059907969 0.025329541
0.47420624 0.060756609 0.025860988
0.47423407 0.061672386 0.025855407
0.47511315 0.062516242 0.026386915
0.47514096 0.063430429 0.026381344
0.47516873 0.064344615 0.026375772
0.47604758 0.065182105 0.026907291
0.47607529 0.066094697 0.026901731
0.47695398 0.066927418 0.027433272
0.47698167 0.067838416 0.027427722
0.47700936 0.068749413 0.027422171
0.47788787 0.069575757 0.027953751
0.47876626 0.070398919 0.028485358
0.47879383 0.071306735 0.028479826
0.47967213 0.072125107 0.029011488
0.4796997 0.073031329 0.029005965
0.47972724 0.07393755 0.029000444
0.4806053 0.074749567 0.029532112
0.48063278 0.075654186 0.029526601
0.4815107 0.076461427 0.030058304
0.48153815 0.07736446 0.030052802
0.48241591 0.078166917 0.030584527
0.4824433 0.079068355 0.030579034
0.48332098 0.079866029 0.031110823
0.48334834 0.080765873 0.03110534
0.48422581 0.081558779 0.031637132
0.48425311 0.082457036 0.031631656
0.48513043 0.083245158 0.032163471
0.4851577 0.084141821 0.032158006
0.48603487 0.084925167 0.032689851
0.48606208 0.085820235 0.032684397
0.48608929 0.086715311 0.032678943
0.4861165 0.087610379 0.032673489
0.48614371 0.088505454 0.032668032
0.48617092 0.08940053 0.032662578
0.4861981 0.090295598 0.032657124
0.48622531 0.091190673 0.03265167
0.48625252 0.092085741 0.032646216
0.48543024 0.093108468 0.032103367
0.48545748 0.09400513 0.032097902
0.48463535 0.095032632 0.031555023
0.48466265 0.095930897 0.031549551
0.48384064 0.096963175 0.031006638
0.483868 0.097863026 0.031001154
0.48304611 0.098900087 0.030458186
0.48222435 0.09994033 0.02991523
0.4814027 0.10098376 0.029372249
0.48058113 0.10203037 0.028829254
0.4797596 0.10308018 0.028286207
0.47893825 0.10413317 0.027743168
0.47896588 0.10504258 0.027737627
0.44243711 0.034035005 0.0054142107
0.44672519 0.034897201 0.0080982475
0.45356771 0.035671186 0.01239641
0.45700309 0.036522437 0.014542663
0.45873496 0.037415508 0.015612922
0.46046671 0.038302206 0.016683251
0.46134675 0.039213002 0.017215557
0.4613753 0.040152665 0.017209832
0.46225521 0.041058682 0.017742161
0.46313506 0.04196151 0.018274542
0.46316352 0.042897992 0.018268835
0.4640432 0.043796044 0.018801212
0.4640716 0.044730932 0.018795516
0.46495113 0.045624208 0.019327924
0.46583053 0.046514295 0.019860355
0.46585885 0.047446001 0.019854678
0.46673813 0.048331313 0.020387134
0.46761736 0.049213436 0.020919641
0.46849644 0.050092377 0.021452134
0.46852461 0.0510193 0.021446487
0.46940354 0.051893465 0.02197901
0.46943167 0.052818798 0.021973372
0.47031045 0.05368818 0.02250593
0.47118914 0.05455438 0.023038503
0.47121719 0.055476528 0.023032883
0.47209579 0.056337949 0.023565516
0.47212377 0.057258502 0.023559906
0.47300217 0.058115143 0.024092536
0.47303009 0.059034105 0.024086937
0.47305802 0.059953067 0.024081336
0.47393623 0.060803343 0.024614006
0.47396412 0.06172071 0.024608416
0.47484219 0.062566206 0.02514112
0.47487003 0.063481987 0.025135539
0.47574797 0.064322695 0.025668299
0.47577578 0.065236881 0.025662728
0.47665355 0.066072822 0.026195485
0.47668129 0.066985413 0.026189923
0.47755891 0.06781657 0.026722709
0.4775866 0.068727568 0.026717158
0.47761428 0.069638565 0.026711607
0.47849172 0.070463359 0.02724443
0.47851935 0.07137277 0.027238889
0.47939664 0.072192781 0.027771749
0.47942424 0.073100589 0.027766217
0.48030144 0.073915824 0.02829913
0.48032898 0.074822046 0.02829361
0.48120597 0.075632498 0.02882652
0.48123348 0.076537132 0.028821008
0.48211032 0.077342808 0.029353948
0.48213777 0.078245841 0.029348446
0.48301449 0.079046741 0.029881416
0.48304188 0.079948187 0.029875923
0.48391849 0.080744304 0.03040896
0.48394585 0.081644155 0.030403476
0.48482227 0.082435504 0.030936506
0.48484957 0.083333753 0.030931031
0.48572585 0.084120326 0.031464089
0.48575309 0.085016988 0.031458624
0.48662922 0.085798778 0.031991713
0.48665643 0.086693846 0.031986255
0.48668364 0.087588921 0.031980801
0.48671085 0.088483997 0.031975348
0.48673806 0.089379065 0.031969894
0.48676527 0.09027414 0.03196444
0.48679245 0.091169208 0.031958986
0.48681965 0.092064284 0.031953532
0.48684686 0.092959352 0.031948075
0.48602563 0.093983628 0.031403985
0.4860529 0.094880298 0.03139852
0.48523182 0.095909357 0.030854398
0.48441082 0.096941598 0.030310258
0.48443818 0.097841449 0.030304775
0.48361728 0.098878473 0.029760567
0.48279652 0.099918678 0.029216377
0.48197588 0.10096207 0.02867217
0.48115534 0.10200865 0.02812794
0.48118287 0.10291487 0.028122419
0.47951448 0.10411137 0.027039388
0.4567818 0.037474588 0.013264276
0.46021262 0.038308471 0.015415563
0.46109173 0.039220899 0.015949087
0.46197072 0.040130138 0.016482631
0.46284959 0.041036192 0.017016193
0.46372846 0.041939057 0.017549807
0.46375692 0.04287554 0.0175441
0.46378538 0.043812018 0.017538395
0.46466398 0.044708516 0.018072015
0.4655425 0.04560183 0.018605655
0.46557084 0.046535127 0.018599968
0.4664492 0.047423661 0.019133644
0.46647751 0.048355363 0.019127967
0.46735573 0.049239121 0.019661665
0.46823391 0.050119691 0.020195415
0.46911192 0.050997078 0.020729152
0.46914011 0.051924001 0.020723505
0.47001797 0.052796613 0.02125727
0.4700461 0.053721942 0.021251632
0.47092384 0.054589774 0.021785427
0.47095191 0.055513512 0.021779798
0.4718295 0.056376569 0.022313623
0.47185755 0.057298712 0.022308005
0.47273502 0.058156986 0.022841889
0.472763 0.059077539 0.022836281
0.47364029 0.059931036 0.023370164
0.47366825 0.060849998 0.023364564
0.47454539 0.061698716 0.023898477
0.47457325 0.062616087 0.023892885
0.47545028 0.06346003 0.024426827
0.47547811 0.064375803 0.024421247
0.47635502 0.065214962 0.024955248
0.47638282 0.066129141 0.024949677
0.4764106 0.067043327 0.024944108
0.47728726 0.067876123 0.025478117
0.47731501 0.068788715 0.025472555
0.47819152 0.069616728 0.026006594
0.47821921 0.070527725 0.026001042
0.47909558 0.071350962 0.026535111
0.47912323 0.072260372 0.026529567
0.47999945 0.073078826 0.027063671
0.48002705 0.073986642 0.027058139
0.48090318 0.07480032 0.027592296
0.48093072 0.075706542 0.027586775
0.48180667 0.076515444 0.028120929
0.48183417 0.077420071 0.028115416
0.48270997 0.07822419 0.0286496
0.48273742 0.079127222 0.028644098
0.48361307 0.079926573 0.02917831
0.48448867 0.080722727 0.029712575
0.48451602 0.081622586 0.029707091
0.48454335 0.08252243 0.029701607
0.48541874 0.083312221 0.030235879
0.48544604 0.084210478 0.030230405
0.48632124 0.084995493 0.030764706
0.48634851 0.085892156 0.030759241
0.48722357 0.086672388 0.031293571
0.48725078 0.087567464 0.031288117
0.48727798 0.088462539 0.031282663
0.48730519 0.089357607 0.03127721
0.4873324 0.090252675 0.031271756
0.48735958 0.091147751 0.031266298
0.48738679 0.092042819 0.031260844
0.487414 0.092937894 0.03125539
0.48659378 0.093962133 0.030710066
0.48662105 0.094858795 0.030704603
0.48580095 0.095887825 0.030159246
0.484981 0.096920021 0.029613873
0.48500833 0.097819872 0.029608389
0.48418847 0.098856866 0.029062955
0.48336872 0.099897027 0.028517531
0.48254907 0.10094038 0.027972089
0.48172954 0.10198692 0.027426628
0.48091003 0.10303665 0.026881116
0.48009068 0.10408957 0.02633561
0.47927144 0.10514566 0.02579009
0.46083871 0.039228719 0.014680156
0.46171674 0.040139589 0.015214923
0.46259466 0.041047275 0.01574971
0.46347249 0.041951776 0.016284516
0.46435028 0.042853087 0.016819373
0.46437874 0.043789566 0.016813666
0.46525633 0.044686105 0.01734852
0.46528476 0.045620993 0.017342823
0.4661622 0.046512753 0.017877707
0.46619058 0.047446046 0.017872019
0.46706787 0.048333026 0.018406931
0.46709621 0.049264729 0.018401254
0.46797335 0.050146934 0.018936191
0.46885046 0.051025946 0.019471183
0.46887869 0.051954463 0.019465525
0.46975562 0.052828707 0.020000516
0.47063243 0.053699758 0.020535525
0.47066054 0.05462509 0.020529887
0.47153723 0.055491365 0.021064926
0.47156531 0.056415107 0.021059297
0.47244182 0.057276607 0.021594364
0.47246987 0.058198754 0.021588745
0.47334629 0.059055466 0.022123873
0.47337428 0.059976023 0.022118265
0.47425053 0.060827967 0.02265339
0.47427845 0.061746929 0.022647791
0.47430637 0.062665887 0.02264219
0.47518241 0.063511461 0.023177356
0.47521031 0.064428829 0.023171766
0.4760862 0.065269627 0.02370696
0.47611403 0.0661854 0.023701379
0.47698984 0.067021415 0.024236634
0.47701764 0.067935593 0.024231063
0.47789323 0.068766832 0.024766315
0.47792098 0.069679424 0.024760755
0.47879645 0.070505887 0.025296036
0.47882414 0.071416885 0.025290484
0.47969943 0.072238564 0.025825795
0.47972709 0.073147967 0.025820253
0.48060226 0.073964871 0.026355587
0.48062986 0.074872687 0.026350055
0.48150495 0.075684808 0.026885455
0.48153248 0.07659103 0.026879933
0.48240736 0.077398382 0.027415331
0.48243487 0.078303002 0.027409818
0.4833096 0.079105578 0.027945247
0.48333704 0.080008611 0.027939742
0.48421162 0.080806404 0.028475199
0.48508617 0.081601009 0.029010706
0.48511353 0.08250086 0.029005222
0.48514089 0.083400704 0.02899974
0.4860152 0.084188946 0.029535254
0.4860425 0.085087202 0.02952978
0.48691666 0.085870653 0.030065324
0.4869439 0.086767323 0.030059859
0.48697117 0.087663986 0.030054396
0.48699841 0.088560656 0.030048931
0.48702568 0.089457318 0.030043468
0.48789954 0.090231217 0.03057907
0.48792672 0.091126293 0.030573614
0.48795393 0.092021361 0.03056816
0.48798114 0.092916429 0.030562706
0.48716193 0.093940638 0.030016147
0.4871892 0.0948373 0.030010683
0.48637012 0.095866285 0.029464096
0.48555115 0.096898451 0.028917488
0.48557851 0.097798303 0.028912004
0.48475963 0.098835252 0.028365336
0.4839409 0.099875376 0.02781868
0.4822762 0.10105897 0.026730832
0.48230374 0.1019652 0.026725311
0.48148525 0.10301489 0.026178565
0.48066691 0.10406777 0.025631836
0.47984865 0.10512383 0.025085084
0.47987634 0.10603482 0.025079532
0.47905827 0.10709565 0.02453275
0.46061635 0.04018091 0.013402971
0.46234176 0.041058283 0.014480759
0.46321863 0.041964412 0.015016789
0.46409538 0.042867359 0.015552832
0.46497214 0.043767113 0.016088931
0.4650006 0.044703595 0.016083226
0.46587712 0.045598578 0.016619323
0.46590555 0.046533465 0.016613625
0.46678194 0.047423668 0.017149752
0.46681032 0.048356965 0.017144065
0.46768656 0.049242392 0.017680215
0.46771488 0.050174095 0.017674537
0.46859097 0.051054742 0.018210722
0.46946701 0.051932205 0.018746957
0.46949524 0.052860722 0.0187413
0.4703711 0.053733405 0.019277534
0.47124687 0.054602906 0.019813785
0.471275 0.055528238 0.019808147
0.47215062 0.05639296 0.020344423
0.4721787 0.057316698 0.020338794
0.47305417 0.058176644 0.020875106
0.47308218 0.059098788 0.020869486
0.47395757 0.059953954 0.021405857
0.47398555 0.060874507 0.021400249
0.47486073 0.061724894 0.021936618
0.47488865 0.062643856 0.021931017
0.47491658 0.063562818 0.021925418
0.47579157 0.064406835 0.022461826
0.47581947 0.065324202 0.022456234
0.47669429 0.066163443 0.022992667
0.47672212 0.067079224 0.022987086
0.47759688 0.067913674 0.023523584
0.47762465 0.06882786 0.023518013
0.4784992 0.069657549 0.024054509
0.47852695 0.070570134 0.024048947
0.47940135 0.07139504 0.024585472
0.47942907 0.072306037 0.02457992
0.48030332 0.073126167 0.025116473
0.48033094 0.07403557 0.025110932
0.48120508 0.074850924 0.02564751
0.48123267 0.07575874 0.025641978
0.48210669 0.076569304 0.026178621
0.48213422 0.077475525 0.026173098
0.48300806 0.078281321 0.026709739
0.48303556 0.079185948 0.026704228
0.48390922 0.07998696 0.027240897
0.48393667 0.080889992 0.027235394
0.4848102 0.081686236 0.027772093
0.48483762 0.082587682 0.0277666
0.48571107 0.083379127 0.028303355
0.4857384 0.084278978 0.028297871
0.48661166 0.085065663 0.028834628
0.48663896 0.08596392 0.028829154
0.48751205 0.086745821 0.02936594
0.48753929 0.087642483 0.029360477
0.48756656 0.088539153 0.029355014
0.4875938 0.089435816 0.029349549
0.48762107 0.090332486 0.029344086
0.48764831 0.091229148 0.029338621
0.48767558 0.092125811 0.029333157
0.48770282 0.093022473 0.029327692
0.48773009 0.093919136 0.029322229
0.48775735 0.094815798 0.029316764
0.48693928 0.095844753 0.028768944
0.48612133 0.096876875 0.028221102
0.48614869 0.097776726 0.028215619
0.48448563 0.098950699 0.027125336
0.48451307 0.099853732 0.027119834
0.4828504 0.10103725 0.02602952
0.48287794 0.10194347 0.026023997
0.48206046 0.10299312 0.025476018
0.48124313 0.10404596 0.024928058
0.48042589 0.10510198 0.024380071
0.48045358 0.10601297 0.02437452
0.47963649 0.10707378 0.023826504
0.47966424 0.10798637 0.023820942
0.43821597 0.03706992 -0.0019643989
0.46124348 0.041102711 0.012666321
0.46296677 0.041976973 0.013746595
0.46384257 0.042881548 0.014283862
0.46471828 0.043782942 0.014821153
0.46559396 0.044681143 0.015358496
0.4664695 0.045576163 0.015895821
0.46649793 0.046511054 0.015890125
0.46652633 0.047445942 0.015884427
0.46655476 0.048380829 0.015878731
0.46743003 0.049267884 0.01641611
0.46830523 0.050151758 0.016953504
0.46833354 0.05108346 0.016947825
0.46920857 0.051962554 0.017485254
0.46923685 0.052892666 0.017479585
0.47011179 0.053766977 0.018017074
0.4709866 0.054638106 0.018554544
0.47101477 0.055565033 0.018548897
0.47188944 0.056431387 0.019086402
0.47191757 0.057356719 0.019080764
0.47279206 0.058218293 0.019618297
0.47282013 0.059142031 0.019612668
0.4736945 0.059998829 0.020150226
0.47372255 0.060920976 0.020144606
0.4745968 0.061772991 0.020682232
0.47462478 0.062693544 0.020676622
0.47549886 0.063540787 0.021214243
0.47552678 0.064459749 0.021208644
0.47640073 0.065302208 0.021746289
0.4764286 0.066219576 0.021740699
0.4773024 0.067057267 0.02227838
0.47733024 0.06797304 0.022272799
0.47820392 0.06880594 0.022810539
0.4782317 0.069720127 0.022804968
0.4782595 0.070634313 0.022799399
0.47913295 0.071460851 0.023337141
0.48000628 0.072284199 0.023874907
0.48003396 0.073195197 0.023869356
0.48090717 0.07401377 0.024407152
0.48093483 0.07492318 0.024401611
0.48180789 0.075736977 0.024939431
0.48183548 0.076644786 0.024933899
0.48270842 0.0774538 0.025471786
0.48273599 0.078360014 0.025466263
0.48360875 0.079164259 0.026004147
0.48363623 0.080068879 0.025998635
0.48450887 0.080868341 0.026536543
0.48453632 0.081771381 0.026531039
0.48540878 0.082566068 0.027068982
0.4854362 0.083467506 0.027063489
0.48630857 0.084257409 0.027601492
0.48633593 0.085157253 0.027596008
0.4872081 0.085942388 0.028134003
0.48723543 0.086840637 0.028128529
0.48726273 0.087738894 0.028123055
0.48813471 0.088517658 0.028661095
0.48816195 0.089414321 0.02865563
0.48818922 0.090310983 0.028650166
0.48821646 0.091207646 0.028644701
0.48824373 0.092104316 0.028639238
0.48827097 0.093000978 0.028633773
0.48829824 0.093897641 0.02862831
0.48832548 0.094794303 0.028622847
0.48750845 0.095823213 0.028073791
0.48669147 0.096855305 0.027524723
0.48671883 0.097755156 0.027519239
0.48505783 0.098929048 0.026426485
0.48508528 0.09983208 0.026420983
0.4834246 0.10101552 0.025328208
0.48260808 0.10206354 0.024779005
0.4817917 0.10311475 0.024229819
0.48181936 0.10402416 0.024224278
0.48100314 0.10508014 0.023675058
0.48103082 0.10599113 0.023669507
0.48021474 0.10705189 0.023120258
0.48027021 0.10887707 0.023109136
0.46271691 0.041989457 0.012473935
0.46443796 0.042859022 0.013556667
0.46531269 0.043760449 0.014095186
0.46618736 0.044658691 0.014633763
0.46621582 0.045595173 0.014628056
0.46624428 0.046531651 0.014622349
0.46627274 0.047468133 0.014616643
0.46714711 0.048358414 0.01515523
0.46717554 0.049293302 0.015149533
0.46804976 0.050178807 0.015688155
0.46807814 0.0511121 0.015682468
0.46895221 0.051992826 0.016221114
0.46898052 0.052924529 0.016215436
0.46985447 0.053800475 0.016754117
0.47072834 0.054673232 0.017292848
0.47160211 0.055542808 0.017831562
0.47163028 0.056469735 0.017825913
0.47250387 0.057334535 0.018364662
0.472532 0.058259863 0.018359024
0.47340545 0.059119884 0.018897794
0.47343352 0.060043626 0.018892165
0.47430682 0.060898867 0.019430973
0.47433487 0.061821014 0.019425353
0.47520807 0.062671475 0.019964214
0.47523606 0.063592032 0.019958606
0.47610906 0.064437717 0.020497471
0.47613701 0.065356679 0.02049187
0.47616494 0.066275634 0.020486271
0.47703776 0.067114957 0.021025168
0.47706565 0.068032324 0.021019578
0.47793832 0.068866864 0.021558512
0.47881097 0.069698207 0.022097489
0.47883874 0.070612393 0.02209192
0.47886652 0.07152658 0.022086348
0.47973892 0.07235156 0.022625338
0.48061121 0.073173352 0.023164343
0.48063889 0.074084349 0.023158792
0.48151103 0.074901372 0.023697833
0.48153868 0.075810783 0.023692289
0.4824107 0.076623023 0.024231354
0.48243827 0.077530831 0.024225822
0.48331019 0.078338288 0.024764951
0.48333773 0.079244509 0.024759429
0.48420945 0.08004719 0.025298551
0.48423693 0.080951825 0.025293037
0.48510849 0.08174973 0.025832193
0.48513594 0.08265277 0.025826691
0.48600736 0.083445899 0.026365871
0.48603478 0.084347337 0.026360376
0.48690608 0.085135683 0.026899623
0.48693344 0.086035535 0.026894139
0.4869608 0.086935379 0.026888655
0.48783189 0.087717362 0.027427904
0.48785919 0.088615626 0.02742243
0.48788649 0.089513883 0.027416956
0.48791379 0.090412132 0.027411481
0.48794109 0.091310389 0.027406009
0.48881188 0.092082813 0.027945319
0.48883912 0.092979476 0.027939856
0.48886639 0.093876146 0.027934391
0.48805031 0.094903417 0.027384114
0.48807761 0.095801681 0.027378639
0.48726165 0.096833728 0.026828337
0.48728901 0.09773358 0.026822856
0.48563001 0.098907396 0.025727639
0.48565745 0.099810429 0.025722137
0.48399881 0.1009938 0.024626894
0.48318329 0.10204178 0.024076458
0.48321089 0.10294959 0.024070926
0.48155266 0.1041473 0.022975598
0.48158038 0.1050583 0.022970045
0.48160806 0.10596929 0.022964494
0.48163575 0.10688029 0.022958944
0.48082072 0.1079426 0.022408457
0.48084846 0.1088552 0.022402896
0.46162382 0.042036884 0.010653311
0.46418819 0.042873099 0.012283991
0.46590707 0.043737959 0.013369218
0.46593559 0.044676032 0.013363502
0.46596411 0.045614105 0.013357786
0.4659926 0.046552181 0.01335207
0.46686614 0.047445681 0.013891908
0.4668946 0.048382163 0.013886202
0.46776789 0.049270887 0.014426032
0.46779633 0.050205778 0.014420335
0.4686695 0.051089723 0.014960195
0.46869785 0.05202302 0.014954507
0.46957088 0.052902192 0.015494402
0.46959919 0.053833894 0.015488724
0.47047207 0.054708283 0.016028643
0.47134492 0.055579487 0.016568618
0.47137314 0.056508008 0.016562959
0.47224578 0.057374436 0.017102925
0.47311831 0.058237679 0.017642912
0.47314644 0.059163012 0.017637271
0.47401884 0.060021479 0.018177293
0.47404692 0.060945217 0.018171664
0.47491917 0.061798904 0.018711707
0.47494718 0.062721051 0.018706089
0.47581935 0.063569956 0.019246198
0.47584733 0.064490512 0.01924059
0.47671929 0.065334648 0.019780692
0.47674721 0.066253603 0.019775091
0.47677514 0.067172572 0.019769492
0.47764692 0.06801033 0.020309633
0.47767481 0.068927698 0.020304043
0.47854641 0.06976068 0.020844217
0.47857425 0.070676461 0.020838637
0.47944579 0.07150466 0.021378869
0.47947356 0.072418846 0.021373298
0.48034489 0.073242269 0.021913532
0.48121613 0.074062511 0.022453779
0.48124382 0.074973509 0.022448229
0.48211491 0.075788975 0.022988506
0.48214254 0.076698385 0.022982964
0.48301348 0.077509068 0.023523275
0.48304108 0.078416884 0.023517743
0.48391193 0.079222783 0.024058111
0.48393947 0.080129005 0.024052588
0.48481014 0.080930136 0.024592953
0.48483762 0.081834763 0.024587439
0.48570815 0.082631119 0.025127839
0.4857356 0.083534151 0.025122335
0.48660594 0.084325723 0.025662757
0.48663336 0.085227169 0.025657265
0.48750362 0.086013958 0.026197754
0.48753098 0.086913809 0.02619227
0.48755831 0.087813661 0.026186787
0.48758566 0.088713504 0.026181305
0.48845565 0.089492343 0.026721803
0.48848295 0.0903906 0.026716331
0.48851025 0.091288857 0.026710857
0.48853755 0.092187114 0.026705382
0.48940727 0.092957981 0.027245931
0.48943454 0.093854643 0.027240468
0.48861945 0.094881885 0.026688961
0.48864678 0.095780142 0.026683489
0.48783183 0.096812151 0.026131954
0.48785919 0.097712003 0.02612647
0.48620221 0.098885745 0.025028788
0.48622966 0.099788778 0.025023285
0.48541507 0.10083194 0.024471676
0.48460054 0.10187829 0.023920054
0.48378611 0.10292783 0.023368381
0.48297182 0.10398056 0.022816714
0.48215759 0.10503646 0.022265034
0.48218527 0.10594745 0.022259481
0.48137122 0.10700814 0.021707771
0.48139897 0.10792073 0.021702211
0.48142669 0.10883331 0.021696649
0.44271612 0.039870642 -0.002634974
0.46478459 0.042850532 0.011555563
0.46565732 0.043753628 0.012096539
0.4656859 0.044693295 0.012090813
0.46655849 0.045591615 0.012631824
0.46658701 0.046529688 0.012626108
0.4666155 0.047467761 0.012620391
0.46664402 0.048405837 0.012614675
0.46751642 0.049296189 0.013155761
0.46754488 0.050232671 0.013150055
0.46841711 0.051118251 0.013691138
0.46928921 0.052000646 0.014232246
0.46931759 0.052933939 0.014226559
0.47018954 0.053811554 0.014767691
0.47021788 0.054743256 0.014762012
0.47108969 0.055616096 0.015303173
0.47196147 0.056485746 0.015844386
0.47198969 0.057414263 0.015838727
0.47286126 0.058279138 0.016379943
0.47373274 0.059140824 0.016921172
0.47376087 0.06006616 0.016915532
0.47378901 0.060991492 0.016909894
0.47466031 0.061846808 0.017451162
0.47468838 0.062770545 0.017445533
0.4755595 0.063621089 0.017986828
0.47558755 0.06454324 0.017981209
0.47645858 0.065389 0.018522574
0.47648656 0.066309549 0.018516963
0.47735742 0.067150533 0.019058319
0.47738537 0.068069495 0.019052718
0.47825608 0.068905704 0.019594103
0.47828394 0.069823071 0.019588511
0.47915453 0.070654504 0.020129925
0.47918236 0.071570277 0.020124344
0.48005283 0.072396927 0.020665824
0.4800806 0.073311105 0.020660253
0.48095086 0.074132979 0.021201726
0.48182106 0.074951671 0.021743216
0.48184875 0.075862668 0.021737665
0.48271877 0.076676577 0.022279184
0.48274642 0.077585988 0.022273643
0.48361629 0.078395113 0.022815198
0.48364389 0.079302929 0.022809666
0.48451367 0.080107279 0.023351276
0.48454124 0.081013493 0.023345754
0.48541084 0.081813075 0.02388736
0.48543832 0.082717702 0.023881847
0.48630777 0.0835125 0.024423484
0.48633522 0.084415533 0.024417982
0.48636267 0.085318573 0.024412479
0.48723191 0.086107001 0.024954159
0.48725933 0.087008439 0.024948666
0.48812848 0.087792084 0.025490403
0.48815584 0.088691935 0.02548492
0.48818317 0.089591786 0.025479436
0.48821053 0.09049163 0.025473952
0.48907942 0.091267318 0.026015704
0.48910671 0.092165574 0.02601023
0.48913401 0.093063831 0.026004758
0.48916131 0.093962088 0.025999283
0.48918861 0.094860345 0.025993809
0.48921591 0.095758609 0.025988337
0.48840201 0.096790582 0.025435569
0.48842934 0.097690433 0.025430085
0.48761553 0.098727189 0.024877256
0.48680183 0.099767126 0.024324432
0.48598826 0.10081025 0.023771597
0.48517478 0.10185656 0.023218742
0.48436132 0.10290606 0.022665834
0.48354802 0.10395875 0.022112934
0.48273483 0.10501461 0.021560021
0.48276252 0.1059256 0.02155447
0.4827902 0.10683661 0.021548918
0.48281789 0.10774761 0.021543367
0.4636946 0.042901028 0.0097312313
0.46625271 0.043731101 0.011369344
0.46628129 0.044670768 0.011363618
0.46630985 0.045610432 0.011357892
0.4663384 0.046550099 0.011352166
0.46636698 0.047489766 0.01134644
0.46723843 0.048383344 0.011888708
0.46726692 0.049321417 0.011882992
0.46813828 0.050210219 0.01242532
0.46816674 0.051146697 0.012419614
0.46903789 0.052030724 0.012961945
0.46906629 0.052965615 0.012956249
0.46993732 0.053844858 0.013498604
0.47080821 0.05472092 0.014040979
0.47083655 0.055652622 0.014035301
0.47170731 0.056523908 0.014577704
0.47173557 0.057454016 0.014572036
0.47260624 0.058320519 0.015114502
0.47347677 0.05918384 0.015656954
0.47350493 0.060110766 0.015651306
0.47437531 0.060969308 0.016193787
0.47440344 0.061894637 0.016188148
0.47527367 0.062748402 0.016730659
0.47530174 0.06367214 0.01672503
0.47617185 0.064521126 0.01726757
0.47619987 0.06544327 0.01726195
0.47706985 0.06628748 0.017804557
0.47709784 0.067208037 0.017798947
0.47796765 0.068047464 0.018341545
0.47799557 0.068966426 0.018335946
0.4780235 0.069885388 0.018330345
0.4788931 0.070718445 0.018872982
0.47976261 0.07154832 0.019415637
0.47979045 0.072464094 0.019410057
0.48065984 0.073289193 0.019952774
0.48068765 0.074203372 0.019947205
0.48155686 0.075023696 0.020489918
0.48242599 0.075840831 0.021032652
0.48245367 0.076751828 0.021027101
0.48248136 0.077662826 0.021021549
0.48335028 0.07847359 0.021564322
0.4842191 0.079281166 0.022107119
0.4842467 0.080188975 0.022101587
0.48511544 0.080991767 0.02264444
0.48514298 0.081897996 0.022638919
0.48517051 0.08280421 0.022633396
0.48603901 0.08360064 0.023176257
0.48606652 0.084505267 0.023170743
0.48693484 0.085296921 0.023713632
0.48696229 0.086199954 0.023708129
0.48698974 0.087102987 0.023702627
0.48785791 0.087888271 0.024245555
0.4878853 0.088789716 0.024240062
0.48875335 0.089570209 0.024783051
0.48878071 0.090470061 0.024777567
0.48880807 0.091369912 0.024772083
0.48967588 0.092144042 0.02531508
0.48970318 0.093042292 0.025309606
0.48973048 0.093940556 0.025304131
0.48975778 0.094838813 0.025298659
0.48978508 0.09573707 0.025293184
0.48897216 0.096769005 0.024739183
0.48899952 0.097668856 0.0247337
0.48818669 0.098705575 0.024179637
0.48737401 0.099745475 0.023625586
0.48656145 0.10078856 0.023071518
0.48574898 0.10183483 0.022517428
0.48577651 0.10274106 0.022511907
0.48412424 0.10393695 0.021409156
0.4841519 0.10484635 0.021403613
0.48333976 0.10590377 0.020849457
0.4825277 0.10696437 0.020295281
0.48255545 0.10787697 0.020289719
0.48258319 0.10878956 0.020284159
0.46092439 0.04302435 0.0068036602
0.46432173 0.043822829 0.0089945812
0.46519256 0.044727594 0.0095380461
0.46606323 0.045629174 0.010081499
0.46609184 0.046570435 0.010075763
0.46696237 0.047467235 0.010619245
0.46699092 0.048406903 0.010613519
0.4670195 0.04934657 0.010607793
0.46788982 0.050237004 0.011151314
0.4687601 0.051124245 0.011694886
0.46878859 0.052060727 0.011689179
0.46965867 0.0529432 0.012232748
0.4696871 0.053878088 0.012227051
0.47055703 0.054755777 0.012770649
0.4714269 0.055630285 0.013314267
0.47145522 0.056561988 0.013308589
0.47232491 0.057431716 0.013852236
0.47235319 0.058361828 0.013846568
0.47322279 0.059226774 0.014390276
0.47409227 0.060088541 0.014933972
0.47412044 0.061015464 0.014928323
0.47498974 0.061872452 0.015472047
0.47501788 0.062797785 0.015466409
0.47588706 0.063649997 0.016010161
0.47591513 0.064573735 0.016004533
0.47678417 0.065421164 0.016548315
0.47681218 0.066343315 0.016542697
0.47684023 0.067265458 0.016537078
0.47770911 0.068106517 0.017080931
0.47857785 0.068944395 0.017624771
0.47860578 0.069863357 0.017619172
0.4786337 0.070782319 0.017613571
0.47950226 0.071613826 0.018157452
0.4803707 0.072442144 0.01870135
0.48039854 0.073357917 0.01869577
0.48126689 0.074181452 0.019239731
0.48129466 0.075095646 0.01923416
0.48216283 0.075914405 0.019778118
0.48303089 0.076729983 0.020322094
0.48305857 0.07764098 0.020316543
0.48308629 0.078551978 0.020310991
0.48395413 0.079361193 0.020855004
0.48398179 0.080270588 0.020849463
0.48484951 0.08107502 0.021393506
0.48487711 0.081982844 0.021387974
0.48574471 0.082782485 0.02193208
0.48577228 0.083688706 0.021926558
0.48663971 0.084483579 0.022470661
0.48666719 0.085388206 0.022465149
0.48753449 0.086178303 0.02300928
0.48756194 0.087081335 0.023003777
0.48758939 0.087984376 0.022998275
0.48845649 0.088768102 0.023542445
0.48848388 0.089669541 0.023536952
0.48851126 0.090570986 0.023531459
0.48937821 0.091348335 0.024075702
0.48940557 0.092248186 0.024070218
0.48943293 0.093148038 0.024064735
0.49029964 0.093919016 0.024608983
0.49032694 0.094817273 0.024603508
0.48951498 0.095847584 0.024048284
0.48954234 0.096747428 0.0240428
0.48956969 0.09764728 0.024037316
0.48875788 0.098683968 0.023482021
0.48794621 0.099723823 0.022926738
0.48797366 0.10062686 0.022921234
0.48716214 0.10167151 0.022365922
0.48635072 0.10271933 0.021810591
0.48553935 0.10377035 0.021255208
0.4847281 0.10482455 0.020699836
0.48391697 0.10588192 0.02014445
0.48310596 0.1069425 0.01958904
0.48313367 0.10785509 0.019583479
0.48316142 0.10876767 0.019577919
0.46239683 0.043914322 0.0066124499
0.46410781 0.044784267 0.0077075092
0.46497756 0.045689072 0.0082521755
0.46584728 0.04659069 0.008796894
0.46671686 0.047489125 0.0093415994
0.46758634 0.048384376 0.0098863179
0.46761489 0.049324039 0.0098805921
0.46764344 0.050263707 0.0098748663
0.46851271 0.051152587 0.01041963
0.46854123 0.05209066 0.010413913
0.46941042 0.052974757 0.010958738
0.47027946 0.053855672 0.01150355
0.47030789 0.05479056 0.011497853
0.47117677 0.055666696 0.012042695
0.47120515 0.056599993 0.012037007
0.47207388 0.057471354 0.012581877
0.47294253 0.058339529 0.013126762
0.47297081 0.059269637 0.013121094
0.47383934 0.060133033 0.013666045
0.47386757 0.06106155 0.013660386
0.47473595 0.061920166 0.014205335
0.47560421 0.062775597 0.014750302
0.47563231 0.063700937 0.014744664
0.47566044 0.064626262 0.014739024
0.47652853 0.065475322 0.015284031
0.4765566 0.066399068 0.015278402
0.47742453 0.067243353 0.015823435
0.47745255 0.068165496 0.015817815
0.47832039 0.069004998 0.016362911
0.47834834 0.069925554 0.016357303
0.47921598 0.070760287 0.016902396
0.47924393 0.071679249 0.016896795
0.48011142 0.072509199 0.017441919
0.48097879 0.073335961 0.017987058
0.48100662 0.074251741 0.017981477
0.48187393 0.075073726 0.018526681
0.48190171 0.075987905 0.01852111
0.4827688 0.076805115 0.01906631
0.48279655 0.077717707 0.01906075
0.4836635 0.07853014 0.019605976
0.48369119 0.079441138 0.019600425
0.48455802 0.080248788 0.020145683
0.48458564 0.081158191 0.020140141
0.48545232 0.08196108 0.020685429
0.48547992 0.082868889 0.020679897
0.48634648 0.08366698 0.021225246
0.48637402 0.084573202 0.021219723
0.48640156 0.085479416 0.0212142
0.48726788 0.086271144 0.021759555
0.48813412 0.087059692 0.02230493
0.48816156 0.087962724 0.022299426
0.48818901 0.088865764 0.022293923
0.48905504 0.089647934 0.022839338
0.48908246 0.090549372 0.022833845
0.48910984 0.091450818 0.02282835
0.48997575 0.09222661 0.023373835
0.49000308 0.093126461 0.023368351
0.49003044 0.094026305 0.023362869
0.4900578 0.094926156 0.023357386
0.49008515 0.095826007 0.023351902
0.49011248 0.096725859 0.023346419
0.49013984 0.09762571 0.023340935
0.4901672 0.098525561 0.023335451
0.48935646 0.0995638 0.022778913
0.48854584 0.10060521 0.022222387
0.48773533 0.10164982 0.021665841
0.48692492 0.1026976 0.021109277
0.48695245 0.10360382 0.021103757
0.48530433 0.10480274 0.019996058
0.48449421 0.10586008 0.019439435
0.4845219 0.10677108 0.019433882
0.48371193 0.10783321 0.018877232
0.48290205 0.10889851 0.01832056
0.48292983 0.1098127 0.018314991
0.48295763 0.11072688 0.01830942
0.46047795 0.044005591 0.0042228983
0.46218711 0.044880386 0.0053204214
0.46389601 0.045748815 0.0064179571
0.46560469 0.046610873 0.0075155254
0.46647337 0.047510937 0.0080614863
0.46734187 0.048407815 0.0086074295
0.46737048 0.049349073 0.0086016934
0.46823883 0.05024118 0.0091476711
0.46826741 0.051180843 0.0091419453
0.46913561 0.052068166 0.0096879518
0.46916413 0.053006243 0.0096822353
0.47003227 0.053888787 0.0102283
0.47090024 0.054768145 0.010774355
0.47092867 0.055703033 0.010768658
0.47179648 0.056577619 0.011314739
0.47182485 0.057510912 0.011309053
0.47269255 0.058380719 0.011855163
0.47272086 0.059312422 0.011849485
0.47358841 0.060177449 0.012395628
0.47445592 0.061039288 0.012941819
0.47448415 0.061967805 0.012936161
0.47535142 0.062824868 0.013482352
0.47621864 0.063678749 0.014028559
0.47624677 0.064604081 0.014022921
0.47627488 0.065529414 0.014017282
0.47714189 0.066376917 0.014563529
0.47716999 0.067300662 0.0145579
0.47803685 0.06814339 0.015104177
0.47806486 0.069065541 0.015098559
0.47893164 0.069903485 0.015644895
0.47895962 0.070824042 0.015639286
0.47982618 0.071657218 0.016185623
0.47985414 0.072576173 0.016180022
0.48072055 0.073404573 0.016726386
0.4815869 0.074229784 0.01727277
0.48161474 0.075145565 0.01726719
0.48248097 0.075965993 0.017813634
0.48250875 0.076880172 0.017808063
0.4833748 0.077695832 0.018354505
0.48340252 0.078608416 0.018348945
0.48426843 0.079419293 0.018895414
0.48429611 0.080330297 0.018889863
0.48516187 0.081136391 0.019436361
0.48518953 0.082045801 0.01943082
0.48605511 0.082847126 0.019977352
0.4860827 0.083754934 0.01997182
0.48694822 0.084551476 0.020518407
0.48697576 0.08545769 0.020512886
0.48700333 0.086363912 0.020507364
0.48786858 0.087154083 0.021053962
0.48789608 0.08805871 0.021048449
0.48876122 0.088844113 0.021595074
0.48878866 0.089747146 0.021589572
0.48881611 0.090650178 0.021584069
0.48968104 0.091429204 0.022130731
0.48970842 0.092330642 0.022125239
0.49057326 0.093104884 0.022671968
0.49060062 0.094004735 0.022666484
0.49062797 0.094904579 0.022661
0.4906553 0.095804438 0.022655517
0.49068266 0.096704282 0.022650033
0.49071002 0.097604133 0.02264455
0.49073738 0.098503985 0.022639066
0.48992762 0.099542186 0.022081293
0.48911804 0.10058356 0.021523537
0.48914549 0.10148659 0.021518035
0.48833603 0.10253275 0.020960249
0.48752666 0.1035821 0.020402441
0.48671737 0.10463464 0.019844584
0.48590821 0.10569034 0.019286737
0.48509914 0.10674924 0.018728873
0.48429015 0.10781133 0.01817099
0.4843179 0.10872392 0.01816543
0.48350909 0.10979079 0.017607514
0.48270032 0.11086083 0.017049551
0.46111143 0.04493672 0.0034787902
0.46281847 0.045808405 0.0045788023
0.46452525 0.046673726 0.0056788209
0.46623182 0.047532674 0.0067788754
0.46709943 0.048431184 0.0073260767
0.46796688 0.049326509 0.0078732651
0.46883425 0.050218649 0.008420473
0.4688628 0.051158313 0.0084147472
0.46889135 0.05209798 0.0084090214
0.46975854 0.052983753 0.0089562703
0.46978703 0.053921826 0.0089505548
0.4706541 0.054802813 0.0094978623
0.47068256 0.055739295 0.0094921552
0.47154945 0.056615509 0.010039461
0.47241622 0.057488538 0.010586785
0.47244459 0.058421832 0.010581098
0.47331122 0.059290081 0.011128452
0.47333953 0.060221788 0.011122773
0.47420603 0.061085261 0.011670156
0.47507247 0.061945543 0.012217593
0.4751007 0.062874056 0.012211936
0.47596693 0.063729569 0.012759366
0.47599509 0.064656496 0.012753718
0.47686121 0.065507226 0.013301178
0.47688934 0.066432558 0.01329554
0.47775528 0.067278512 0.013843029
0.47778335 0.06820225 0.0138374
0.47864917 0.069043428 0.014384919
0.47867718 0.069965579 0.014379299
0.47954291 0.070801973 0.014926879
0.4795709 0.071722522 0.014921269
0.48043641 0.072554141 0.015468849
0.48046434 0.073473103 0.015463249
0.48132971 0.074299946 0.016010854
0.48219499 0.075123608 0.01655848
0.48222283 0.076039381 0.016552899
0.48308802 0.076858252 0.017100586
0.48311579 0.077772439 0.017095014
0.48398077 0.078586541 0.017642699
0.48400852 0.079499125 0.017637137
0.48487335 0.080308452 0.01818485
0.48490104 0.08121945 0.018179299
0.48576573 0.082024001 0.01872704
0.48579338 0.082933404 0.018721499
0.48582101 0.083842807 0.018715957
0.48668551 0.08464098 0.019263741
0.48671311 0.085548796 0.019258209
0.48757753 0.086342186 0.01980605
0.48760507 0.087248407 0.019800529
0.48846927 0.088037021 0.020348366
0.48849678 0.088941656 0.020342855
0.48936084 0.089725494 0.020890722
0.48938829 0.090628527 0.02088522
