# .PCD v0.7 - Point Cloud Data file format
VERSION 0.7
FIELDS x y z
SIZE 4 4 4
TYPE F F F
COUNT 1 1 1
WIDTH 1399
HEIGHT 1
VIEWPOINT 0 0 0 1 0 0 0
POINTS 1399
DATA ascii
0.40936342 0.094679482 0.031870984
0.40850237 0.095789775 0.031378143
0.40853253 0.096781999 0.031372096
0.40856269 0.097774222 0.03136605
0.40859282 0.098766446 0.031360004
0.40862298 0.09975867 0.031353958
0.40865314 0.10075089 0.031347908
0.4086833 0.10174312 0.031341862
0.40871346 0.10273534 0.031335816
0.40874362 0.10372756 0.03132977
0.40877378 0.10471979 0.031323723
0.40880394 0.10571201 0.031317677
0.4088341 0.10670424 0.031311631
0.40886426 0.10769646 0.031305585
0.40889442 0.10868868 0.031299539
0.40892458 0.10968091 0.031293493
0.40895474 0.11067313 0.031287447
0.4089849 0.11166535 0.0312814
0.40901506 0.11265758 0.031275354
0.40815493 0.11379813 0.030782327
0.40818515 0.11479194 0.030776272
0.40821534 0.11578576 0.030770216
0.40824556 0.11677959 0.030764159
0.40738568 0.1179281 0.030271085
0.40741593 0.11892352 0.030265018
0.40744618 0.11991891 0.030258954
0.40747643 0.12091433 0.030252887
0.40661675 0.12207081 0.029759739
0.40664703 0.12306782 0.029753663
0.40667734 0.12406482 0.029747587
0.4058179 0.12522767 0.029254425
0.40495855 0.12639371 0.028761243
0.40498894 0.12739389 0.028755149
0.40324008 0.12873535 0.02777479
0.402381 0.12991093 0.027281551
0.40241155 0.13091591 0.027275426
0.40155265 0.13209626 0.026782157
0.4006938 0.13327983 0.026288869
0.40072447 0.13428798 0.026282726
0.39986578 0.13547631 0.025789408
0.39740396 0.062816098 0.024963269
0.39743468 0.063827433 0.024957107
0.39835718 0.06477011 0.025438698
0.39927951 0.065709598 0.025920283
0.40020177 0.066645898 0.026401887
0.40112391 0.067579016 0.026883511
0.40204597 0.068508953 0.027365154
0.40296796 0.069435693 0.027846841
0.40388983 0.07035926 0.028328523
0.40481159 0.071279638 0.028810225
0.40573326 0.072196826 0.029291945
0.40665486 0.073110834 0.02977371
0.40668511 0.074106239 0.029767646
0.40760654 0.07501547 0.030249415
0.40852788 0.075921513 0.030731203
0.40855804 0.076913737 0.030725157
0.4085882 0.07790596 0.030719111
0.40861836 0.078898184 0.030713065
0.40953943 0.079796262 0.031194901
0.40956953 0.080786899 0.031188864
0.40959966 0.081777528 0.031182827
0.40962976 0.082768157 0.031176791
0.40965986 0.083758794 0.031170754
0.40968999 0.084749423 0.031164717
0.40972009 0.085740052 0.03115868
0.40975019 0.086730681 0.031152645
0.40888977 0.087828197 0.030658647
0.40891993 0.08882042 0.030652601
0.40895009 0.089812644 0.030646553
0.40898025 0.090804867 0.030640507
0.40901041 0.091797091 0.030634461
0.40904057 0.092789315 0.030628415
0.40907073 0.093781538 0.030622369
0.40910089 0.094773762 0.030616323
0.40913105 0.095765986 0.030610276
0.4082711 0.09687943 0.030116182
0.40830132 0.097873248 0.030110124
0.40833151 0.098867059 0.030104069
0.40836173 0.099860877 0.030098014
0.40839195 0.10085469 0.030091958
0.40842214 0.10184851 0.030085901
0.40845236 0.10284232 0.030079845
0.40848255 0.10383614 0.03007379
0.40851277 0.10482996 0.030067733
0.40854299 0.10582378 0.030061677
0.40857318 0.1068176 0.030055622
0.4086034 0.10781141 0.030049564
0.40863359 0.10880522 0.030043509
0.40866381 0.10979903 0.030037453
0.40869403 0.11079285 0.030031396
0.40872422 0.11178667 0.030025341
0.40786511 0.11292719 0.02953108
0.40789536 0.1139226 0.029525016
0.40792561 0.11491801 0.029518949
0.40795588 0.11591341 0.029512884
0.40798613 0.11690883 0.029506817
0.40801638 0.11790423 0.029500753
0.40804663 0.11889965 0.029494686
0.40718785 0.12005291 0.029000323
0.40721816 0.12104992 0.028994247
0.40724847 0.12204691 0.028988171
0.40638992 0.12320654 0.028493796
0.40642026 0.12420513 0.02848771
0.40556189 0.12536955 0.027993307
0.40559229 0.12636973 0.02798721
0.40473405 0.1275389 0.027492777
0.40387583 0.1287113 0.026998296
0.40390632 0.12971465 0.026992183
0.40304834 0.13089181 0.026497699
0.40219042 0.13207214 0.026003197
0.40133262 0.13325566 0.025508676
0.40136325 0.13426381 0.025502533
0.40050557 0.13545211 0.025007982
0.39964795 0.1366436 0.024513384
0.39804476 0.062791854 0.024180604
0.39807549 0.063803189 0.024174441
0.39899698 0.064745896 0.024657266
0.39991832 0.065685429 0.025140084
0.40083954 0.066621765 0.025622921
0.40087014 0.067628324 0.025616787
0.40268174 0.068484895 0.026588649
0.40271223 0.069488272 0.026582535
0.40363318 0.070413455 0.027065465
0.40455398 0.071335465 0.027548391
0.40547466 0.072254293 0.028031334
0.40639529 0.073169924 0.028514298
0.40731585 0.074082375 0.028997308
0.4073461 0.075077787 0.028991241
0.40826645 0.075985461 0.029474247
0.40918672 0.076889947 0.02995728
0.40921688 0.077882171 0.029951233
0.40924704 0.078874394 0.029945187
0.4092772 0.079866618 0.029939141
0.40930736 0.080858849 0.029933093
0.40933752 0.081851065 0.029927047
0.40936768 0.082843289 0.029921001
0.40939784 0.083835512 0.029914955
0.409428 0.084827736 0.029908909
0.40945816 0.08581996 0.029902862
0.40948832 0.086812183 0.029896816
0.40951848 0.087804407 0.02989077
0.40865916 0.088905074 0.029395519
0.40868938 0.089898884 0.029389463
0.40871957 0.090892702 0.029383408
0.40874979 0.09188652 0.029377351
0.40878001 0.092880338 0.029371295
0.4088102 0.093874149 0.02936524
0.40884042 0.094867967 0.029359182
0.40798149 0.095981367 0.02886386
0.40801173 0.096976787 0.028857796
0.40804198 0.097972192 0.028851729
0.40807223 0.098967597 0.028845664
0.40810248 0.099963009 0.028839597
0.40813276 0.10095841 0.028833533
0.40816301 0.10195383 0.028827466
0.40819326 0.10294924 0.028821401
0.40822351 0.10394464 0.028815335
0.40825379 0.10494006 0.02880927
0.40828404 0.10593546 0.028803203
0.40831429 0.10693087 0.028797138
0.40834454 0.10792628 0.028791072
0.40837479 0.10892168 0.028785007
0.40840507 0.1099171 0.02877894
0.40843531 0.1109125 0.028772876
0.40846556 0.11190791 0.028766809
0.40849581 0.11290333 0.028760742
0.40852606 0.11389874 0.028754678
0.40766805 0.115044 0.028259128
0.40769836 0.116041 0.028253054
0.40772867 0.117038 0.028246978
0.40775898 0.118035 0.028240902
0.40778929 0.11903201 0.028234826
0.40781957 0.12002901 0.028228752
0.40696195 0.12118541 0.027733162
0.40699232 0.122184 0.027727077
0.40702266 0.12318259 0.027720992
0.40616524 0.12434537 0.027225362
0.40619564 0.12534556 0.027219268
0.40533835 0.12651312 0.02672361
0.40448111 0.12768386 0.026227906
0.4045116 0.12868723 0.026221791
0.40365455 0.12986274 0.025726091
0.40279761 0.13104145 0.025230365
0.40282819 0.132048 0.025224231
0.40285879 0.13305457 0.025218097
0.40200204 0.13423964 0.024722334
0.40203267 0.13524778 0.024716191
0.40028876 0.13661936 0.023730719
0.39865482 0.061756272 0.023404114
0.39868554 0.06276761 0.02339795
0.3987163 0.063778944 0.023391787
0.39963678 0.064721689 0.023875846
0.4005571 0.065661259 0.024359891
0.40058774 0.066669405 0.024353748
0.40150791 0.067604192 0.024837829
0.402428 0.068535797 0.025321921
0.40334797 0.069464214 0.025806041
0.40426794 0.070389442 0.026290206
0.40518773 0.071311489 0.026774364
0.4061074 0.072230354 0.027258536
0.40613776 0.07322894 0.027252451
0.40705732 0.074143022 0.027736658
0.40797681 0.075053923 0.028220909
0.40800706 0.076049328 0.028214844
0.40892637 0.076955453 0.028699093
0.40895659 0.077949263 0.028693037
0.40898681 0.078943081 0.028686982
0.409017 0.079936899 0.028680924
0.40904722 0.080930717 0.028674869
0.40907741 0.081924535 0.028668813
0.40910763 0.082918346 0.028662756
0.40913785 0.083912164 0.028656701
0.40916803 0.084905975 0.028650645
0.40919825 0.085899793 0.028644588
0.40922844 0.086893611 0.028638532
0.40837014 0.087994233 0.028142055
0.40840039 0.088989645 0.028135989
0.40843067 0.089985058 0.028129924
0.40846092 0.090980463 0.028123857
0.40849116 0.091975868 0.028117793
0.40852141 0.09297128 0.028111726
0.40855166 0.093966693 0.028105659
0.40858194 0.094962098 0.028099595
0.40861219 0.095957503 0.028093528
0.40864244 0.096952923 0.028087463
0.40867269 0.097948328 0.028081397
0.40870294 0.098943733 0.028075332
0.40873322 0.099939145 0.028069265
0.40876347 0.10093455 0.0280632
0.40879372 0.10192996 0.028057134
0.40882397 0.10292537 0.028051069
0.40796643 0.10405307 0.027554393
0.40799674 0.10505009 0.027548319
0.40802705 0.10604708 0.027542243
0.40805736 0.10704409 0.027536167
0.40808764 0.10804109 0.027530093
0.40811795 0.10903808 0.027524017
0.40814826 0.11003508 0.027517941
0.40817857 0.11103209 0.027511865
0.40820888 0.11202909 0.027505791
0.40823919 0.11302609 0.027499715
0.40826946 0.1140231 0.027493639
0.40829977 0.1150201 0.027487563
0.40833008 0.1160171 0.027481489
0.40747327 0.11716709 0.026984703
0.40750363 0.11816569 0.026978619
0.40753397 0.11916428 0.026972534
0.40756434 0.12016287 0.026966449
0.40759468 0.12116148 0.026960364
0.40762505 0.12216005 0.026954278
0.40676856 0.12332121 0.026457431
0.40679896 0.12432139 0.026451336
0.40594265 0.12548731 0.025954455
0.40597311 0.1264891 0.025948351
0.40511686 0.1276598 0.025451414
0.40514734 0.12866318 0.025445299
0.40429133 0.12983866 0.024948359
0.40343538 0.13101731 0.024451407
0.40346599 0.13202387 0.024445273
0.40349656 0.13303044 0.024439139
0.40264082 0.13421547 0.023942141
0.40178517 0.13540368 0.023445129
0.40181586 0.13641343 0.023438975
0.39929563 0.061732024 0.022621447
0.39932635 0.062743358 0.022615286
0.40024588 0.063687734 0.023100566
0.40027657 0.064697482 0.023094414
0.40119588 0.065637082 0.023579692
0.40122652 0.066645235 0.023573549
0.40214571 0.067580059 0.024058858
0.40306476 0.068511702 0.024544191
0.40398374 0.069440156 0.025029536
0.40490267 0.070365421 0.025514934
0.40582147 0.071287505 0.026000326
0.40585187 0.072287694 0.025994232
0.4067705 0.073205002 0.026479647
0.40768903 0.074119121 0.026965085
0.40771934 0.07511612 0.026959011
0.40863779 0.076025464 0.027444506
0.40866804 0.077020876 0.027438439
0.40869829 0.078016281 0.027432375
0.40872857 0.079011694 0.027426308
0.40875882 0.080007099 0.027420243
0.40878907 0.081002511 0.027414177
0.40881932 0.081997916 0.027408112
0.40884957 0.082993329 0.027402045
0.40887985 0.083988734 0.02739598
0.4089101 0.084984146 0.027389914
0.40894035 0.085979551 0.027383849
0.40897059 0.086974964 0.027377782
0.40900084 0.087970369 0.027371718
0.40903112 0.088965781 0.027365651
0.40817392 0.090071157 0.02686788
0.4082042 0.091068156 0.026861804
0.40823451 0.092065156 0.026855728
0.40826482 0.093062155 0.026849652
0.40829512 0.094059154 0.026843578
0.40832543 0.095056161 0.026837502
0.40835574 0.096053161 0.026831426
0.40838602 0.097050168 0.02682535
0.40841633 0.098047167 0.026819276
0.40844664 0.099044167 0.0268132
0.40847695 0.10004117 0.026807124
0.40850726 0.10103817 0.026801048
0.40853757 0.10203516 0.026794974
0.40856785 0.10303217 0.026788898
0.40859815 0.10402917 0.026782822
0.40862846 0.10502618 0.026776748
0.40865877 0.10602318 0.026770672
0.40868908 0.10702018 0.026764596
0.40871939 0.10801718 0.02675852
0.40874967 0.10901418 0.026752446
0.40789354 0.11015299 0.026254496
0.40792391 0.11115158 0.02624841
0.40795425 0.11215018 0.026242325
0.40798461 0.11314877 0.02623624
0.40801495 0.11414737 0.026230155
0.40804532 0.11514596 0.026224069
0.40807566 0.11614455 0.026217984
0.40810603 0.11714315 0.026211899
0.40813637 0.11814174 0.026205814
0.40816671 0.11914034 0.026199728
0.40731111 0.12029666 0.025701677
0.40734151 0.12129686 0.025695583
0.40737191 0.12229703 0.025689488
0.40740231 0.12329723 0.025683394
0.40654695 0.12446152 0.025185289
0.40657741 0.12546329 0.025179183
0.40572214 0.12663238 0.024681022
0.40575263 0.12763575 0.024674909
0.40489754 0.1288096 0.024176752
0.40492809 0.12981457 0.024170628
0.40407318 0.13099319 0.023672435
0.40410376 0.13199975 0.023666302
0.40324897 0.13318315 0.023168085
0.40327963 0.1341913 0.023161942
0.40331027 0.13519944 0.023155799
0.40245566 0.13638923 0.022657543
0.40248635 0.13739896 0.022651391
0.39993644 0.06170778 0.021838782
0.39996719 0.062719114 0.021832621
0.40088567 0.063663527 0.022319134
0.40091637 0.064673275 0.022312982
0.40183467 0.065612912 0.022799494
0.40186533 0.066621065 0.022793351
0.40278348 0.067555927 0.023279892
0.40370154 0.068487607 0.023766452
0.40461951 0.069416098 0.024253039
0.40465 0.070419475 0.024246924
0.40556788 0.071343184 0.024733566
0.40648562 0.072263718 0.025220193
0.40740323 0.073181055 0.025706843
0.4074336 0.074179657 0.025700757
0.40835106 0.075092219 0.026187433
0.40838137 0.076089226 0.026181359
0.40841168 0.077086225 0.026175283
0.40844199 0.078083225 0.026169207
0.40935928 0.078987829 0.026655965
0.40938953 0.079983234 0.0266499
0.40941978 0.080978647 0.026643833
0.40945005 0.081974052 0.026637768
0.40859351 0.083068237 0.026138829
0.40862381 0.084065236 0.026132755
0.40865412 0.085062236 0.026126679
0.40868443 0.086059235 0.026120603
0.40871471 0.087056242 0.026114529
0.40874502 0.088053241 0.026108453
0.40877533 0.089050248 0.026102377
0.40880564 0.090047248 0.026096301
0.40883595 0.091044255 0.026090227
0.40886626 0.092041254 0.026084151
0.4080103 0.093152948 0.025585139
0.40804064 0.094151542 0.025579054
0.40807098 0.095150135 0.025572969
0.40810135 0.096148729 0.025566883
0.40813169 0.097147323 0.025560798
0.40816206 0.098145917 0.025554713
0.4081924 0.099144511 0.025548628
0.40822276 0.1001431 0.025542542
0.4082531 0.10114171 0.025536457
0.40828347 0.10214029 0.025530372
0.40831381 0.10313889 0.025524287
0.40834418 0.10413748 0.025518201
0.40837452 0.10513608 0.025512116
0.40840489 0.10613468 0.025506031
0.40843523 0.10713326 0.025499946
0.40846556 0.10813186 0.02549386
0.40849593 0.10913046 0.025487775
0.40852627 0.11012904 0.025481692
0.40855664 0.11112764 0.025475606
0.40858698 0.11212623 0.025469521
0.40773204 0.11327138 0.024970304
0.40776244 0.11427157 0.02496421
0.40779287 0.11527175 0.024958115
0.40782326 0.11627194 0.024952019
0.40785366 0.11727213 0.024945924
0.40788406 0.11827231 0.024939829
0.40791446 0.1192725 0.024933735
0.40794486 0.12027269 0.02492764
0.40797526 0.12127288 0.024921546
0.40712079 0.12243394 0.024422232
0.40715125 0.12343572 0.024416128
0.40718171 0.1244375 0.024410022
0.4063274 0.12560494 0.023910638
0.40635788 0.12660833 0.023904525
0.40638837 0.1276117 0.02389841
0.40553433 0.12878551 0.023399014
0.40556487 0.12979047 0.02339289
0.40471095 0.13096905 0.02289347
0.40474156 0.13197561 0.022887336
0.40388778 0.13315898 0.022387886
0.40391842 0.13416713 0.022381743
0.40394905 0.13517527 0.0223756
0.40397969 0.13618343 0.022369456
0.40312615 0.13737476 0.021869959
0.40057725 0.061683532 0.021056123
0.4014948 0.06262958 0.021543862
0.40152547 0.06363932 0.021537708
0.40244281 0.064580597 0.022025444
0.40247348 0.065588742 0.022019301
0.40339068 0.066525243 0.022507066
0.40342125 0.067531794 0.022500932
0.40433833 0.068463519 0.022988725
0.40525529 0.069392048 0.023476539
0.40528578 0.070395418 0.023470426
0.40620264 0.07131917 0.023958299
0.40711936 0.072239734 0.024446161
0.40714976 0.073239923 0.024440067
0.40806633 0.074155711 0.024927957
0.40809667 0.075154305 0.024921872
0.40812704 0.076152898 0.024915786
0.4090434 0.077062324 0.025403723
0.40907371 0.078059323 0.025397647
0.40910402 0.079056323 0.025391571
0.4091343 0.080053322 0.025385497
0.40916461 0.081050329 0.025379421
0.40919492 0.082047328 0.025373345
0.40922523 0.083044335 0.025367269
0.40925553 0.084041335 0.025361195
0.40840021 0.085140251 0.024861021
0.40843055 0.086138844 0.024854936
0.40846092 0.087137438 0.02484885
0.40849125 0.088136032 0.024842765
0.40852162 0.089134626 0.02483668
0.40855196 0.090133227 0.024830595
0.40858233 0.091131821 0.024824509
0.40861267 0.092130408 0.024818424
0.40864304 0.093129002 0.024812339
0.40867338 0.094127595 0.024806254
0.40870371 0.095126197 0.024800168
0.40873408 0.096124783 0.024794085
0.40876442 0.097123384 0.024788
0.40879479 0.098121978 0.024781914
0.40794018 0.099244788 0.0242816
0.40797058 0.10024497 0.024275506
0.40800098 0.10124516 0.024269411
0.40803137 0.10224534 0.024263315
0.40806177 0.10324553 0.02425722
0.40809217 0.10424571 0.024251126
0.4081226 0.10524591 0.024245031
0.408153 0.10624609 0.024238937
0.4081834 0.10724628 0.024232842
0.40821379 0.10824646 0.024226746
0.40824419 0.10924666 0.024220651
0.40827459 0.11024684 0.024214556
0.40830499 0.11124703 0.024208462
0.40833539 0.11224721 0.024202367
0.40836579 0.1132474 0.024196273
0.40839618 0.11424758 0.024190176
0.40842658 0.11524777 0.024184082
0.40757287 0.11639924 0.023683595
0.40760332 0.11740103 0.023677489
0.40763375 0.11840281 0.023671385
0.40766421 0.11940458 0.023665281
0.40769467 0.12040637 0.023659175
0.4077251 0.12140815 0.023653071
0.40775555 0.12240992 0.023646966
0.40690216 0.12357415 0.023146369
0.40693265 0.12457751 0.023140253
0.40696314 0.12558089 0.02313414
0.40699366 0.12658428 0.023128025
0.40614054 0.12775643 0.022627411
0.40617108 0.12876141 0.022621287
0.40620163 0.12976637 0.022615163
0.40534872 0.13094492 0.02211451
0.40537933 0.13195148 0.022108376
0.4054099 0.13295804 0.022102242
0.40544051 0.1339646 0.022096109
0.40458784 0.1351511 0.021595407
0.40461847 0.13615926 0.021589264
0.40464914 0.13716741 0.021583119
0.40033227 0.061722938 0.019778365
0.4021346 0.062605374 0.020762431
0.40305096 0.063548274 0.02125139
0.40308163 0.064556427 0.021245245
0.40311226 0.065564573 0.021239102
0.40402845 0.066501111 0.0217281
0.40494454 0.067434452 0.022217117
0.40497509 0.068439424 0.022210995
0.40589103 0.06936799 0.02270004
0.40592155 0.07037136 0.022693926
0.4068374 0.07129515 0.023183029
0.40686783 0.072296925 0.023176923
0.40778351 0.073215939 0.023666028
0.40781391 0.074216127 0.023659933
0.4087294 0.075130366 0.024149068
0.40875977 0.07612896 0.024142982
0.40879011 0.077127554 0.024136897
0.40882048 0.078126147 0.024130812
0.40885082 0.079124741 0.024124727
0.40888119 0.080123335 0.024118641
0.40891153 0.081121936 0.024112556
0.40894189 0.08212053 0.024106471
0.40897223 0.083119124 0.024100387
0.40900257 0.084117711 0.024094302
0.40903294 0.085116312 0.024088217
0.40906328 0.086114906 0.024082132
0.40909365 0.087113492 0.024076046
0.40912399 0.088112086 0.024069961
0.40826991 0.089218937 0.023568511
0.40830031 0.090219118 0.023562416
0.40833071 0.091219306 0.023556322
0.40836111 0.092219494 0.023550225
0.40839151 0.093219683 0.023544131
0.40842193 0.094219871 0.023538036
0.40845233 0.095220059 0.023531942
0.40848273 0.09622024 0.023525847
0.40851313 0.097220436 0.023519753
0.40854353 0.098220617 0.023513658
0.40857393 0.099220805 0.023507562
0.40860432 0.10022099 0.023501467
0.40863472 0.10122117 0.023495372
0.40866512 0.10222136 0.023489278
0.40869552 0.10322155 0.023483183
0.40872592 0.10422174 0.023477089
0.40875635 0.10522193 0.023470992
0.40878674 0.10622212 0.023464898
0.40793356 0.10735922 0.022963263
0.40796402 0.10836099 0.022957159
0.40799448 0.10936277 0.022951055
0.40802491 0.11036455 0.02294495
0.40805537 0.11136632 0.022938846
0.40808582 0.11236811 0.022932742
0.40811628 0.11336989 0.022926636
0.40814671 0.11437167 0.022920532
0.40817717 0.11537345 0.022914426
0.40732443 0.11652648 0.022412669
0.40735492 0.11752987 0.022406556
0.40738544 0.11853323 0.022400441
0.40741593 0.11953661 0.022394327
0.40744641 0.12053997 0.022388212
0.40747693 0.12154336 0.022382097
0.40750742 0.12254672 0.022375984
0.40753791 0.12355009 0.022369869
0.40756842 0.12455346 0.022363756
0.40671623 0.12572242 0.021861928
0.40674677 0.12672739 0.021855803
0.40677732 0.12773235 0.021849679
0.40680787 0.12873732 0.021843554
0.40595591 0.12991422 0.021341678
0.40598652 0.13092078 0.021335544
0.40601709 0.13192734 0.02132941
0.40516534 0.13311064 0.020827495
0.40519598 0.1341188 0.020821352
0.40522662 0.13512693 0.020815209
0.40525728 0.13613509 0.020809066
0.40528792 0.13714324 0.020802921
0.40443644 0.13833608 0.020300947
0.39655012 0.062016737 0.01651282
0.40188959 0.062646374 0.019484641
0.40280509 0.063590899 0.01997485
0.40283576 0.064600646 0.019968698
0.40375105 0.065540403 0.020458909
0.40466622 0.066476978 0.02094914
0.4055813 0.067410357 0.021439392
0.40561184 0.068415329 0.021433268
0.4065268 0.069343932 0.021923542
0.40655729 0.070347302 0.021917427
0.40658778 0.071350679 0.021911314
0.40750259 0.072272912 0.022401664
0.40753305 0.073274694 0.022395559
0.40844765 0.074192151 0.022885907
0.40847805 0.075192332 0.022879813
0.40850845 0.076192521 0.022873718
0.40853885 0.077192709 0.022867624
0.40856925 0.078192897 0.022861527
0.40859964 0.079193085 0.022855433
0.40863004 0.080193266 0.022849338
0.40866044 0.081193462 0.022843244
0.40869084 0.082193643 0.022837149
0.40872124 0.083193831 0.022831054
0.40875164 0.084194019 0.022824958
0.40878206 0.085194208 0.022818863
0.40881246 0.086194389 0.022812769
0.40884286 0.087194577 0.022806674
0.40887326 0.088194765 0.02280058
0.40890366 0.089194953 0.022794485
0.40893406 0.090195142 0.022788391
0.40896446 0.09119533 0.022782294
0.40899485 0.092195518 0.0227762
0.40902525 0.093195707 0.022770105
0.40817249 0.094312057 0.022267364
0.40820292 0.09531384 0.022261258
0.40823337 0.096315622 0.022255154
0.40826383 0.097317405 0.02224905
0.40829426 0.09831918 0.022242945
0.40832472 0.099320963 0.022236841
0.40835518 0.10032274 0.022230737
0.40838563 0.10132452 0.022224631
0.40841606 0.1023263 0.022218527
0.40844652 0.10332807 0.022212423
0.40847698 0.10432985 0.022206318
0.40850741 0.10533164 0.022200214
0.40765521 0.10646871 0.021697314
0.40768573 0.10747208 0.021691199
0.40771621 0.10847545 0.021685084
0.4077467 0.10947882 0.021678971
0.40777722 0.1104822 0.021672856
0.40780771 0.11148557 0.021666743
0.4078382 0.11248894 0.021660628
0.40786871 0.11349232 0.021654515
0.4078992 0.11449569 0.0216484
0.40792969 0.11549906 0.021642284
0.40796021 0.11650243 0.021636171
0.40799069 0.11750581 0.021630056
0.40802118 0.11850917 0.021623943
0.4080517 0.11951255 0.021617828
0.40808219 0.12051592 0.021611713
0.40811267 0.1215193 0.0216056
0.40726134 0.12268343 0.021102572
0.40729189 0.12368839 0.021096449
0.40732244 0.12469336 0.021090325
0.40735298 0.12569833 0.021084201
0.40738353 0.12670329 0.021078076
0.40741408 0.12770826 0.021071952
0.4065631 0.12888354 0.020568851
0.40659368 0.1298901 0.020562718
0.40662429 0.13089666 0.020556584
0.40665486 0.13190322 0.02055045
0.40580413 0.13308647 0.020047301
0.40583476 0.13409463 0.020041158
0.40586543 0.13510276 0.020035015
0.40589607 0.13611092 0.020028872
0.40504557 0.13730213 0.019525675
0.40595734 0.13812722 0.020016585
0.40510693 0.13932161 0.019513369
0.3927781 0.062310152 0.013234936
0.4025304 0.062622122 0.018701976
0.40344489 0.063566692 0.019193418
0.40435919 0.06450808 0.019684853
0.40438983 0.065516233 0.01967871
0.40530401 0.066452846 0.020170169
0.40621808 0.067386262 0.020661654
0.40624863 0.068391234 0.02065553
0.40716255 0.069319874 0.021147043
0.40719306 0.070323251 0.021140929
0.40722355 0.071326621 0.021134814
0.40725404 0.072329998 0.021128701
0.40816781 0.073250674 0.021620288
0.40819824 0.074252456 0.021614185
0.4091118 0.075168356 0.022105774
0.4091422 0.076168545 0.022099679
0.40917259 0.077168733 0.022093585
0.40920299 0.078168914 0.02208749
0.40923339 0.079169102 0.022081396
0.40926379 0.08016929 0.022075301
0.40929419 0.081169479 0.022069205
0.40932459 0.082169667 0.02206311
0.40935498 0.083169855 0.022057015
0.40938538 0.084170036 0.022050921
0.40853319 0.085272029 0.021547034
0.40856364 0.086273804 0.021540929
0.4085941 0.087275587 0.021534825
0.40862453 0.088277362 0.021528719
0.40865499 0.089279145 0.021522615
0.40868545 0.090280928 0.021516511
0.40871587 0.091282703 0.021510405
0.40874633 0.092284486 0.021504302
0.40877679 0.093286261 0.021498198
0.40880725 0.094288044 0.021492092
0.40883768 0.095289826 0.021485988
0.40798602 0.09641093 0.020981958
0.4080165 0.0974143 0.020975843
0.40804699 0.098417677 0.02096973
0.40807751 0.099421047 0.020963615
0.408108 0.10042442 0.0209575
0.40813848 0.10142779 0.020951387
0.408169 0.10243116 0.020945271
0.40819949 0.10343453 0.020939158
0.40822998 0.1044379 0.020933043
0.40826049 0.10544128 0.02092693
0.40829098 0.10644466 0.020920815
0.40832147 0.10744803 0.0209147
0.40835199 0.1084514 0.020908587
0.40838248 0.10945477 0.020902472
0.40841296 0.11045814 0.020896358
0.40844348 0.11146151 0.020890243
0.40847397 0.11246489 0.020884128
0.4076232 0.11361466 0.020379951
0.40765375 0.11461962 0.020373827
0.4076843 0.11562458 0.020367702
0.40771484 0.11662955 0.020361578
0.40774539 0.11763451 0.020355456
0.40777594 0.11863948 0.020349331
0.40780649 0.11964445 0.020343207
0.40783703 0.1206494 0.020337082
0.40786758 0.12165437 0.020330958
0.40789813 0.12265933 0.020324836
0.40792868 0.1236643 0.020318711
0.40795922 0.12466926 0.020312587
0.40798977 0.12567423 0.020306462
0.40713969 0.1268463 0.019802148
0.4071703 0.12785286 0.019796014
0.40720087 0.12885942 0.01978988
0.40723148 0.12986596 0.019783746
0.40726206 0.13087252 0.019777613
0.40729266 0.13187908 0.019771479
0.40644291 0.13306229 0.019267103
0.40647358 0.13407044 0.01926096
0.40650421 0.13507859 0.019254817
0.40653485 0.13608675 0.019248674
0.40568537 0.13727792 0.018744241
0.40571606 0.13828766 0.018738089
0.40574673 0.13929741 0.018731937
0.40577742 0.14030714 0.018725783
0.3898989 0.062539645 0.010443529
0.39964032 0.06285841 0.015924085
0.40320197 0.063609213 0.017913153
0.40499797 0.064483911 0.018904662
0.40502861 0.065492064 0.018898517
0.40594178 0.066428714 0.019391211
0.40685487 0.067362174 0.019883927
0.40688539 0.068367139 0.019877803
0.40779832 0.069295824 0.02037055
0.40782881 0.070299193 0.020364435
0.40785933 0.071302563 0.020358322
0.40788981 0.07230594 0.020352207
0.4079203 0.07330931 0.020346092
0.408833 0.074228436 0.020838924
0.40886346 0.075230211 0.02083282
0.40889388 0.076231994 0.020826714
0.40892434 0.077233776 0.02082061
0.4089548 0.078235552 0.020814506
0.40898523 0.079237327 0.020808401
0.40901569 0.08023911 0.020802297
0.40904614 0.081240892 0.020796193
0.4090766 0.082242675 0.020790087
0.40910703 0.08324445 0.020783983
0.40913749 0.084246233 0.020777879
0.40916795 0.085248008 0.020771774
0.40919837 0.086249791 0.02076567
0.40922883 0.087251566 0.020759564
0.40837777 0.088359892 0.020254379
0.40840828 0.08936327 0.020248264
0.40843877 0.090366639 0.020242151
0.40846926 0.091370009 0.020236036
0.40849978 0.092373386 0.020229923
0.40853027 0.093376756 0.020223808
0.40856075 0.094380125 0.020217692
0.40859127 0.095383503 0.020211579
0.40862176 0.096386872 0.020205464
0.40865225 0.097390249 0.020199351
0.40868276 0.098393619 0.020193236
0.40871325 0.099396989 0.020187121
0.40874374 0.10040036 0.020181008
0.40877426 0.10140373 0.020174893
0.40880474 0.10240711 0.020168779
0.40883523 0.10341047 0.020162664
0.40886575 0.10441384 0.020156551
0.40889624 0.10541723 0.020150436
0.40804616 0.1065558 0.019645093
0.4080767 0.10756077 0.019638969
0.40810725 0.10856573 0.019632844
0.4081378 0.1095707 0.01962672
0.40816835 0.11057566 0.019620595
0.40819889 0.11158063 0.019614473
0.40822944 0.11258559 0.019608349
0.40825999 0.11359056 0.019602224
0.40829054 0.11459552 0.0195961
0.40832108 0.11560048 0.019589975
0.40835163 0.11660545 0.019583853
0.40838218 0.11761042 0.019577729
0.40841272 0.11861538 0.019571604
0.40844327 0.11962035 0.01956548
0.40759391 0.12078281 0.019059991
0.40762448 0.12178937 0.019053858
0.40765509 0.12279592 0.019047724
0.4076857 0.12380249 0.01904159
0.40771627 0.12480904 0.019035457
0.40774688 0.1258156 0.019029323
0.40777746 0.12682216 0.019023189
0.40780807 0.12782872 0.019017056
0.40783867 0.12883528 0.019010922
0.40786925 0.12984183 0.019004788
0.40702042 0.13102183 0.018499197
0.40705106 0.13202997 0.018493054
0.40708172 0.13303812 0.01848691
0.40711236 0.13404627 0.018480767
0.407143 0.13505442 0.018474624
0.40717363 0.13606258 0.018468481
0.40632516 0.13725372 0.017962815
0.40635586 0.13826345 0.017956663
0.40638652 0.1392732 0.017950511
0.40641722 0.14028294 0.017944356
0.40293211 0.14205012 0.015939943
0.39058632 0.063550048 0.0096360669
0.39590776 0.06418515 0.012630047
0.40478587 0.065537766 0.017618254
0.40569806 0.06647604 0.018112175
0.40661016 0.067411132 0.018606111
0.40752217 0.068343043 0.019100066
0.40755272 0.069348007 0.019093942
0.40846458 0.070275135 0.019587932
0.40849507 0.071278512 0.019581817
0.40852559 0.072281882 0.019575702
0.40855607 0.073285259 0.019569589
0.40858656 0.074288622 0.019563474
0.40861708 0.075291999 0.019557361
0.40864757 0.076295376 0.019551245
0.40867805 0.077298746 0.01954513
0.40870857 0.078302115 0.019539017
0.40873906 0.079305485 0.019532902
0.40876955 0.080308862 0.019526789
0.40880007 0.081312239 0.019520674
0.40883055 0.082315609 0.019514561
0.40886104 0.083318979 0.019508446
0.40889156 0.084322348 0.019502331
0.40892205 0.085325725 0.019496217
0.40895256 0.086329095 0.019490102
0.40898305 0.087332465 0.019483989
0.40901354 0.088335834 0.019477874
0.40904406 0.089339212 0.019471761
0.40907454 0.090342581 0.019465646
0.40910503 0.091345958 0.019459531
0.40913555 0.092349328 0.019453418
0.40916604 0.093352698 0.019447302
0.40919653 0.094356075 0.019441189
0.40922704 0.095359445 0.019435074
0.40925753 0.096362814 0.019428961
0.40928802 0.097366191 0.019422846
0.40931854 0.098369561 0.019416731
0.40934902 0.099372931 0.019410618
0.40937951 0.1003763 0.019404503
0.40853021 0.10150688 0.018897975
0.40856075 0.10251185 0.01889185
0.4085913 0.10351682 0.018885726
0.40862185 0.10452178 0.018879602
0.4086524 0.10552675 0.018873477
0.40868294 0.10653171 0.018867355
0.40871349 0.10753668 0.01886123
0.40874404 0.10854164 0.018855106
0.40877458 0.1095466 0.018848982
0.40792572 0.11069311 0.018342363
0.40795633 0.11169966 0.018336229
0.40798694 0.11270622 0.018330095
0.40801752 0.11371278 0.018323962
0.40804812 0.11471934 0.018317828
0.4080787 0.11572589 0.018311694
0.40810931 0.11673246 0.018305561
0.40813991 0.11773902 0.018299427
0.40817049 0.11874557 0.018293293
0.4082011 0.11975213 0.01828716
0.40823168 0.12075868 0.018281026
0.40826228 0.12176524 0.018274892
0.40829286 0.12277179 0.018268758
0.40832347 0.12377836 0.018262625
0.40835407 0.12478491 0.018256491
0.40838465 0.12579148 0.018250357
0.40753666 0.12696506 0.017743573
0.40756729 0.1279732 0.017737428
0.40759793 0.12898135 0.017731285
0.40762857 0.1299895 0.017725142
0.4076592 0.13099766 0.017718999
0.40768987 0.1320058 0.017712856
0.40772051 0.13301395 0.017706711
0.40775114 0.1340221 0.017700568
0.40778178 0.13503025 0.017694425
0.40693426 0.13621975 0.017187538
0.40696496 0.1372295 0.017181383
0.40699565 0.13823925 0.017175231
0.40702635 0.13924898 0.017169077
0.40705702 0.14025873 0.017162925
0.40445387 0.14183643 0.015654372
0.39485931 0.14598306 0.010133048
0.37356326 0.062692203 -0.0011774979
0.39215437 0.064493805 0.0093298899
0.39746946 0.065117985 0.012331358
0.40633684 0.06645187 0.017331982
0.40636748 0.067460023 0.017325839
0.40815896 0.068318948 0.018322339
0.40818948 0.069323912 0.018316215
0.40910035 0.070251085 0.018811438
0.40913084 0.071254455 0.018805323
0.40916133 0.072257832 0.01879921
0.40919185 0.073261201 0.018793095
0.40922233 0.074264571 0.018786982
0.40925282 0.075267941 0.018780867
0.40928334 0.076271318 0.018774753
0.40931383 0.077274688 0.018768638
0.40934432 0.078278057 0.018762523
0.40937483 0.079281434 0.01875641
0.40940532 0.080284804 0.018750295
0.40943581 0.081288181 0.018744182
0.40946633 0.082291551 0.018738067
0.40949681 0.083294921 0.018731952
0.4095273 0.084298298 0.018725839
0.40867823 0.085403353 0.018218232
0.40870878 0.086408317 0.018212108
0.40873933 0.087413281 0.018205984
0.40876988 0.088418245 0.018199859
0.40880042 0.089423217 0.018193735
0.40883097 0.090428181 0.018187612
0.40886152 0.091433138 0.018181488
0.40889207 0.092438109 0.018175364
0.40892261 0.093443073 0.018169239
0.40895316 0.094448037 0.018163117
0.40898371 0.095453002 0.018156992
0.40901423 0.096457966 0.018150868
0.40904477 0.097462937 0.018144744
0.40907532 0.098467894 0.018138619
0.40910587 0.099472858 0.018132497
0.40913641 0.10047782 0.018126372
0.40916696 0.10148279 0.018120248
0.40919751 0.10248776 0.018114123
0.40922806 0.10349272 0.018107999
0.4092586 0.10449769 0.018101877
0.40928915 0.10550265 0.018095752
0.40844113 0.10664275 0.017587937
0.40847173 0.10764931 0.017581804
0.40850231 0.10865586 0.01757567
0.40853292 0.10966242 0.017569536
0.40856352 0.11066898 0.017563403
0.4085941 0.11167553 0.017557269
0.40862471 0.11268209 0.017551135
0.40865529 0.11368865 0.017545002
0.40780771 0.11484309 0.017037099
0.40783834 0.11585123 0.017030956
0.40786901 0.11685938 0.017024813
0.40789965 0.11786754 0.01701867
0.40793028 0.11887568 0.017012525
0.40796092 0.11988384 0.017006382
0.40799156 0.12089198 0.017000239
0.40802222 0.12190013 0.016994096
0.40805286 0.12290828 0.016987953
0.4080835 0.12391643 0.016981808
0.40811414 0.12492458 0.016975665
0.4081448 0.12593274 0.016969522
0.40817544 0.12694089 0.016963379
0.40820608 0.12794903 0.016957236
0.40823671 0.12895718 0.016951092
0.40826735 0.12996534 0.016944949
0.40829802 0.13097349 0.016938806
0.4074513 0.13215658 0.016430723
0.407482 0.13316631 0.01642457
0.40751266 0.13417606 0.016418416
0.40754336 0.13518581 0.016412264
0.40757406 0.13619556 0.016406111
0.40672758 0.13738821 0.015897945
0.40763545 0.13821504 0.016393805
0.40766615 0.13922478 0.016387651
0.40681982 0.14042222 0.015879456
0.40509671 0.14181212 0.014869251
0.40162 0.14359015 0.01285491
0.37365752 0.15291376 -0.0032299224
0.4052166 0.066570483 0.015546675
0.40524733 0.067581818 0.015540512
0.40791631 0.068369426 0.017042052
0.40882626 0.069299817 0.017538482
0.40885681 0.070304781 0.01753236
0.40888736 0.071309753 0.017526235
0.4089179 0.072314717 0.017520111
0.40894845 0.073319681 0.017513987
0.408979 0.074324645 0.017507864
0.40900955 0.075329609 0.01750174
0.40904009 0.076334573 0.017495615
0.40907064 0.077339537 0.017489491
0.40910119 0.078344502 0.017483367
0.40913174 0.079349466 0.017477244
0.40916228 0.08035443 0.01747112
0.40919283 0.081359401 0.017464995
0.40922338 0.082364365 0.017458871
0.40925393 0.08336933 0.017452747
0.40928444 0.084374294 0.017446624
0.40931499 0.085379258 0.0174405
0.40934554 0.086384222 0.017434375
0.40937608 0.087389186 0.017428251
0.40940663 0.08839415 0.017422128
0.40943718 0.089399122 0.017416004
0.40946773 0.090404086 0.01740988
0.40949827 0.09140905 0.017403755
0.40952882 0.092414014 0.017397631
0.40955937 0.093418978 0.017391508
0.40958992 0.094423942 0.017385384
0.40962046 0.095428906 0.01737926
0.40965101 0.09643387 0.017373135
0.40968156 0.097438842 0.017367011
0.40971211 0.098443806 0.017360888
0.40974265 0.099448763 0.017354764
0.4097732 0.10045373 0.01734864
0.40892595 0.10158583 0.01683964
0.40895653 0.10259238 0.016833507
0.40898713 0.10359894 0.016827373
0.40901774 0.1046055 0.016821239
0.40904832 0.10561205 0.016815105
0.40907893 0.10661862 0.016808972
0.4091095 0.10762518 0.016802838
0.40914011 0.10863173 0.016796704
0.40829331 0.10977815 0.016287612
0.40832394 0.1107863 0.016281469
0.40835458 0.11179446 0.016275326
0.40838522 0.1128026 0.016269183
0.40841585 0.11381076 0.016263038
0.40844652 0.11481891 0.016256895
0.40847716 0.11582705 0.016250752
0.40850779 0.11683521 0.016244609
0.40766141 0.11799598 0.015735434
0.4076921 0.11900571 0.015729282
0.4077228 0.12001546 0.015723128
0.4077535 0.1210252 0.015716976
0.40778419 0.12203494 0.015710821
0.40781486 0.12304468 0.015704669
0.40784556 0.12405443 0.015698517
0.40787625 0.12506416 0.015692363
0.40790695 0.12607391 0.01568621
0.40793765 0.12708366 0.015680056
0.40796834 0.12809341 0.015673904
0.40799901 0.12910315 0.01566775
0.40802971 0.13011289 0.015661597
0.4080604 0.13112263 0.015655445
0.4080911 0.13213237 0.015649291
0.40812179 0.13314211 0.015643138
0.40815249 0.13415186 0.015636984
0.40818316 0.13516159 0.015630832
0.40733767 0.13635264 0.015121441
0.40736839 0.13736397 0.015115279
0.40739915 0.13837531 0.015109115
0.40830594 0.13920057 0.01560622
0.40746063 0.14039798 0.01509679
0.40486363 0.14197703 0.013580866
0.40226686 0.14356567 0.012064851
0.39528418 0.066371992 0.0087250024
0.39970797 0.067045689 0.0112376
0.40325284 0.067776397 0.01324651
0.40679732 0.068494365 0.015255504
0.40858471 0.069351852 0.016256947
0.4094936 0.070280686 0.016754622
0.40952414 0.071285658 0.016748497
0.40955469 0.072290622 0.016742373
0.40958524 0.073295586 0.016736249
0.40961578 0.07430055 0.016730126
0.4096463 0.075305514 0.016724002
0.40967685 0.076310478 0.016717877
0.4097074 0.077315442 0.016711753
0.40973794 0.078320406 0.01670563
0.40976849 0.07932537 0.016699506
0.40979904 0.080330335 0.016693382
0.40982959 0.081335306 0.016687257
0.40898243 0.082437105 0.016177209
0.40901303 0.083443657 0.016171075
0.40904361 0.084450215 0.016164942
0.40907422 0.085456774 0.016158808
0.40910482 0.086463332 0.016152674
0.4091354 0.087469891 0.016146541
0.40916601 0.088476442 0.016140407
0.40919659 0.089483008 0.016134273
0.40922719 0.090489559 0.01612814
0.40925777 0.091496125 0.016122006
0.40928838 0.092502676 0.016115872
0.40931898 0.093509234 0.016109738
0.40934956 0.094515793 0.016103605
0.40938017 0.095522344 0.016097471
0.40941074 0.096528903 0.016091337
0.40944135 0.097535469 0.016085204
0.40947196 0.09854202 0.01607907
0.40950254 0.099548578 0.016072936
0.40953314 0.10055514 0.016066803
0.40956372 0.1015617 0.016060669
0.40959433 0.10256825 0.016054535
0.40962493 0.1035748 0.016048402
0.40965551 0.10458136 0.016042268
0.40880951 0.10572138 0.015531987
0.40884015 0.10672954 0.015525844
0.40887079 0.10773768 0.0155197
0.40890145 0.10874584 0.015513557
0.40893209 0.10975398 0.015507413
0.40808639 0.11090356 0.014997074
0.40811706 0.11191331 0.014990921
0.40814775 0.11292305 0.014984768
0.40817845 0.11393279 0.014978615
0.40820915 0.11494254 0.014972461
0.40736365 0.11610167 0.014462038
0.40739441 0.11711301 0.014455875
0.40742514 0.11812435 0.014449712
0.40745589 0.11913569 0.014443549
0.40748662 0.12014702 0.014437387
0.40751737 0.12115835 0.014431224
0.4075481 0.12216969 0.014425061
0.40757886 0.12318102 0.014418898
0.40760958 0.12419236 0.014412736
0.40764034 0.12520368 0.014406573
0.40767106 0.12621503 0.01440041
0.40770182 0.12722637 0.014394247
0.40773255 0.12823769 0.014388084
0.40776327 0.12924904 0.014381921
0.40779403 0.13026038 0.014375758
0.40782475 0.13127171 0.014369596
0.40785551 0.13228303 0.014363433
0.40788624 0.13329437 0.01435727
0.40791699 0.13430572 0.014351107
0.40794772 0.13531706 0.014344945
0.40797848 0.1363284 0.014338782
0.4080092 0.13733971 0.014332619
0.40891504 0.13816662 0.01483094
0.40807068 0.13936239 0.014320293
0.40810144 0.14037374 0.014314131
0.40638238 0.14176346 0.013298987
0.4037886 0.14335039 0.011779289
0.40032029 0.14513926 0.0097550191
0.38551247 0.15051542 0.0011654806
0.3785471 0.15314552 -0.0028772841
0.37744421 0.065683618 -0.0026644666
0.39067188 0.066765606 0.0048975409
0.40480494 0.068693653 0.012958987
0.40746781 0.069479898 0.014467925
0.40925306 0.070334278 0.015471854
0.40928367 0.071340837 0.015465721
0.40931427 0.072347395 0.015459587
0.41022199 0.073271491 0.015958523
0.40937546 0.074360505 0.015447319
0.40940604 0.075367063 0.015441186
0.40943664 0.076373622 0.015435052
0.40946725 0.07738018 0.015428918
0.40949783 0.078386739 0.015422785
0.40952843 0.079393297 0.015416651
0.40955901 0.080399849 0.015410517
0.40958962 0.081406415 0.015404384
0.4096202 0.082412973 0.01539825
0.4096508 0.083419524 0.015392116
0.40968141 0.084426083 0.015385983
0.40971199 0.085432641 0.015379849
0.40974259 0.0864392 0.015373715
0.40977317 0.087445758 0.015367582
0.40980378 0.088452309 0.015361448
0.40983438 0.089458875 0.015355314
0.40986496 0.090465426 0.01534918
0.40989557 0.091471992 0.015343047
0.40992615 0.092478544 0.015336913
0.40995675 0.093485102 0.015330779
0.40998736 0.094491661 0.015324646
0.41001794 0.095498212 0.015318512
0.41004854 0.09650477 0.015312378
0.41007912 0.097511336 0.015306245
0.41010973 0.098517887 0.015300111
0.41014031 0.099524446 0.015293977
0.40929508 0.10065646 0.014782511
0.40932572 0.10166461 0.014776368
0.40935639 0.10267276 0.014770225
0.40938702 0.10368092 0.014764081
0.40941766 0.10468906 0.014757938
0.4094483 0.10569721 0.014751794
0.4086034 0.10684039 0.01424026
0.4086341 0.10785013 0.014234107
0.40866479 0.10885987 0.014227954
0.40869549 0.10986961 0.0142218
0.40785077 0.11102075 0.013710192
0.40788153 0.11203209 0.01370403
0.40791225 0.11304342 0.013697866
0.40794298 0.11405475 0.013691704
0.40797374 0.1150661 0.013685541
0.40800446 0.11607742 0.013679379
0.40803522 0.11708876 0.013673215
0.40806594 0.11810011 0.013667053
0.4080967 0.11911143 0.01366089
0.40812743 0.12012278 0.013654727
0.40815818 0.1211341 0.013648564
0.40818891 0.12214544 0.013642401
0.40821967 0.12315677 0.013636239
0.40825039 0.12416811 0.013630075
0.40828112 0.12517944 0.013623913
0.40831187 0.12619078 0.01361775
0.4083426 0.12720212 0.013611588
0.40837336 0.12821345 0.013605424
0.40840408 0.12922479 0.013599262
0.40843484 0.13023613 0.013593099
0.40846556 0.13124746 0.013586937
0.40849632 0.13225879 0.013580773
0.40852705 0.13327013 0.01357461
0.4085578 0.13428147 0.013568448
0.40858853 0.1352928 0.013562285
0.40861928 0.13630414 0.013556122
0.40865001 0.13731547 0.013549959
0.40868074 0.13832681 0.013543797
0.40783751 0.13952412 0.013031933
0.40874222 0.14034948 0.013531471
0.40702519 0.14173914 0.012513868
0.40443444 0.14332595 0.010990468
0.40184405 0.14492232 0.0094670374
0.40369499 0.068818249 0.011161318
0.40635493 0.069607794 0.012673937
0.4081383 0.070465431 0.01368034
0.40992144 0.071316704 0.014686755
0.40995204 0.072323263 0.014680621
0.40998265 0.073329821 0.014674488
0.41001323 0.074336372 0.014668354
0.41004384 0.075342931 0.01466222
0.40919843 0.076436691 0.014149753
0.4092291 0.077444844 0.01414361
0.40925974 0.078452989 0.014137467
0.40929037 0.079461142 0.014131323
0.40932101 0.080469288 0.01412518
0.40935165 0.081477441 0.014119036
0.40938231 0.082485594 0.014112893
0.40941295 0.083493747 0.01410675
0.40944359 0.084501892 0.014100607
0.40947422 0.085510045 0.014094464
0.40950486 0.086518191 0.01408832
0.40953553 0.087526344 0.014082177
0.40956616 0.088534489 0.014076033
0.4095968 0.089542642 0.01406989
0.40962744 0.090550795 0.014063747
0.4096581 0.091558948 0.014057603
0.40968874 0.092567094 0.01405146
0.40971938 0.093575247 0.014045316
0.40975001 0.094583392 0.014039173
0.40978065 0.095591545 0.014033029
0.40981132 0.096599691 0.014026886
0.40984195 0.097607844 0.014020743
0.40987259 0.098615997 0.014014599
0.40990323 0.099624142 0.014008456
0.40993387 0.1006323 0.014002312
0.40996453 0.10164044 0.013996169
0.40912044 0.10277721 0.013483441
0.40915114 0.10378695 0.013477287
0.40918183 0.10479669 0.013471134
0.40921253 0.10580643 0.013464982
0.40836862 0.10695116 0.012952178
0.40839937 0.1079625 0.012946015
0.4084301 0.10897383 0.012939853
0.40846086 0.10998517 0.01293369
0.40849158 0.11099651 0.012927527
0.40852234 0.11200783 0.012921364
0.40767884 0.11316371 0.012408519
0.40770963 0.11417664 0.012402346
0.40774041 0.11518956 0.012396174
0.4077712 0.11620249 0.012390002
0.40780199 0.11721542 0.012383829
0.40783277 0.11822836 0.012377657
0.40786356 0.11924127 0.012371484
0.40789434 0.12025421 0.012365311
0.40792513 0.12126713 0.01235914
0.40795591 0.12228006 0.012352967
0.4079867 0.12329299 0.012346794
0.40801749 0.12430592 0.012340622
0.4080483 0.12531884 0.012334449
0.40807909 0.12633178 0.012328276
0.40810987 0.12734471 0.012322105
0.40814066 0.12835763 0.012315932
0.40817145 0.12937057 0.012309759
0.40820223 0.13038348 0.012303587
0.40823302 0.13139641 0.012297414
0.4082638 0.13240935 0.012291241
0.40829459 0.13342227 0.012285069
0.40832537 0.13443521 0.012278897
0.40835616 0.13544813 0.012272724
0.40838695 0.13646106 0.012266551
0.40841776 0.13747399 0.012260379
0.40844855 0.13848692 0.012254206
0.4093523 0.13931389 0.012754968
0.40851012 0.14051276 0.012241862
0.40766802 0.14171483 0.011728736
0.40595314 0.1431108 0.010708599
0.4033657 0.14470546 0.0091814846
0.39903304 0.14669748 0.0066403127
0.39643016 0.068431601 0.0058126161
0.40524614 0.069735534 0.010875054
0.40702754 0.070596442 0.011883877
0.409684 0.071371771 0.013400278
0.40971467 0.072379924 0.013394134
0.40974531 0.07338807 0.013387991
0.40977594 0.074396223 0.013381847
0.40980658 0.075404368 0.013375704
0.40983722 0.076412521 0.013369561
0.40986788 0.077420674 0.013363417
0.40989852 0.07842882 0.013357274
0.40992916 0.079436973 0.01335113
0.40995979 0.080445118 0.013344987
0.4091157 0.0815484 0.012831235
0.4091464 0.08255814 0.012825082
0.40917709 0.08356788 0.012818929
0.40920779 0.084577627 0.012812776
0.40923849 0.085587367 0.012806622
0.40926918 0.086597107 0.01280047
0.40929985 0.087606847 0.012794317
0.40933055 0.088616595 0.012788163
0.40936124 0.089626342 0.01278201
0.40939194 0.090636082 0.012775857
0.41029689 0.091534778 0.01327741
0.41032752 0.092542924 0.013271267
0.41035816 0.093551077 0.013265124
0.4095147 0.094675049 0.012751245
0.40954539 0.095684797 0.012745092
0.40957609 0.096694537 0.012738938
0.40960678 0.097704284 0.012732785
0.40963748 0.098714024 0.012726633
0.40966815 0.099723764 0.01272048
0.40969884 0.10073351 0.012714326
0.40972954 0.10174325 0.012708173
0.40888646 0.10288157 0.01219417
0.40891722 0.10389291 0.012188007
0.40894794 0.10490423 0.012181845
0.4089787 0.10591558 0.012175681
0.40900943 0.10692692 0.012169519
0.40904018 0.10793825 0.012163356
0.40907091 0.10894959 0.012157192
0.40822828 0.11010064 0.01164315
0.40825906 0.11111356 0.011636977
0.40828985 0.11212649 0.011630804
0.40832064 0.11313943 0.011624632
0.40835142 0.11415235 0.01161846
0.40838221 0.11516528 0.011612287
0.40841299 0.11617821 0.011606115
0.40757075 0.117342 0.011091988
0.40760159 0.11835653 0.011085805
0.40763244 0.11937104 0.011079623
0.40766326 0.12038557 0.011073441
0.4076941 0.12140008 0.011067259
0.40772495 0.12241461 0.011061077
0.40775579 0.12342912 0.011054895
0.40778661 0.12444365 0.011048713
0.40781745 0.12545817 0.011042531
0.4078483 0.1264727 0.011036348
0.40787911 0.12748721 0.011030165
0.40790996 0.12850173 0.011023983
0.4079408 0.12951626 0.011017801
0.40884405 0.1303592 0.011519699
0.40887484 0.13137214 0.011513527
0.40890563 0.13238506 0.011507355
0.40893641 0.13339798 0.011501182
0.4089672 0.13441092 0.011495009
0.40899798 0.13542384 0.011488837
0.40902877 0.13643678 0.011482664
0.40905955 0.1374497 0.011476492
0.40909034 0.13846263 0.01147032
0.40912113 0.13947555 0.011464147
0.40828001 0.14067599 0.010949797
0.40831083 0.14169049 0.010943615
0.40659797 0.1430864 0.0099210124
0.40488535 0.14448866 0.0088984035
0.40142941 0.14628503 0.0068592974
0.39623052 0.14848508 0.0038036613
0.39358646 0.068698019 0.0029790606
0.39886418 0.069290131 0.0060250717
0.40592083 0.070727289 0.010082502
0.40857434 0.071505919 0.011602551
0.40947929 0.072436504 0.012105181
0.40950999 0.073446244 0.012099028
0.40954068 0.074455991 0.012092874
0.40957138 0.075465724 0.012086722
0.40960205 0.076475471 0.012080569
0.40963274 0.077485219 0.012074416
0.40966344 0.078494959 0.012068262
0.40882027 0.079596609 0.011553248
0.408851 0.080607943 0.011547086
0.40888175 0.081619278 0.011540923
0.40891248 0.082630619 0.011534761
0.40894324 0.083641946 0.011528597
0.40897396 0.084653288 0.011522435
0.40900472 0.085664622 0.011516272
0.40903544 0.086675957 0.01151011
0.4090662 0.087687291 0.011503946
0.40909693 0.088698626 0.011497783
0.40912765 0.089709967 0.011491621
0.40915841 0.090721302 0.011485458
0.40918913 0.091732636 0.011479295
0.40921989 0.09274397 0.011473132
0.40925062 0.093755305 0.01146697
0.40928137 0.094766639 0.011460807
0.4093121 0.095777974 0.011454644
0.40934286 0.096789308 0.011448481
0.40937358 0.09780065 0.011442319
0.40940434 0.098811984 0.011436156
0.40943506 0.099823318 0.011429993
0.40946579 0.10083465 0.01142383
0.40949655 0.10184599 0.011417667
0.40952727 0.10285733 0.011411504
0.40955803 0.10386866 0.011405341
0.40871614 0.10501172 0.010890113
0.40874696 0.10602465 0.010883941
0.40877774 0.10703757 0.010877769
0.40880853 0.1080505 0.010871596
0.40883932 0.10906342 0.010865424
0.4088701 0.11007635 0.010859251
0.40802857 0.11123056 0.010343949
0.40805942 0.11224508 0.010337767
0.40809023 0.1132596 0.010331585
0.40812108 0.11427411 0.010325403
0.40815192 0.11528864 0.01031922
0.40818274 0.11630316 0.010313038
0.40821359 0.11731768 0.010306856
