# .PCD v0.7 - Point Cloud Data file format
VERSION 0.7
FIELDS x y z
SIZE 4 4 4
TYPE F F F
COUNT 1 1 1
WIDTH 1338
HEIGHT 1
VIEWPOINT 0 0 0 1 0 0 0
POINTS 1338
DATA ascii
0.45197934 -0.017451102 0.061603583
0.45200685 -0.016546469 0.061598074
0.45203435 -0.015641846 0.06159256
0.45296261 -0.014673878 0.062067803
0.45299006 -0.013770844 0.062062301
0.4530175 -0.012867813 0.062056798
0.45304495 -0.011964778 0.062051296
0.4530724 -0.011061743 0.06204579
0.45309985 -0.010158708 0.062040288
0.45312729 -0.00925567 0.062034786
0.45315474 -0.0083526354 0.062029283
0.45318219 -0.0074496004 0.062023781
0.45320964 -0.0065465658 0.062018279
0.45323709 -0.0056435312 0.062012773
0.45326453 -0.0047404962 0.062007271
0.45329198 -0.0038374614 0.062001768
0.45331943 -0.0029344268 0.061996266
0.45334688 -0.0020313882 0.061990764
0.4524743 -0.0011678016 0.06150436
0.45250177 -0.00026317319 0.061498847
0.45252928 0.00064145151 0.061493333
0.45255679 0.00154608 0.06148782
0.45258427 0.0024507083 0.06148231
0.45261177 0.0033553368 0.061476797
0.45173952 0.0042300713 0.060990319
0.45176706 0.0051362915 0.060984794
0.45179462 0.0060425117 0.060979273
0.45182216 0.0069487318 0.060973752
0.45095009 0.007831431 0.0604872
0.45097768 0.0087392433 0.060481668
0.45010582 0.0096267192 0.059995115
0.45013347 0.010536127 0.059989575
0.44926175 0.01142838 0.059502989
0.44928944 0.01233938 0.059497438
0.44931713 0.013250379 0.059491888
0.44844562 0.014149004 0.059005268
0.44847333 0.015061595 0.05899971
0.45137721 -0.026603147 0.060476761
0.45140475 -0.025696924 0.06047124
0.45143229 -0.024790706 0.060465716
0.45145983 -0.023884481 0.060460195
0.45148739 -0.022978263 0.060454674
0.45151493 -0.022072043 0.060449149
0.45154247 -0.021165822 0.060443629
0.45157 -0.020259604 0.060438108
0.45159757 -0.019353384 0.060432583
0.45162511 -0.018447163 0.060427062
0.45255256 -0.017472791 0.060903501
0.45258003 -0.016568158 0.060897987
0.45260754 -0.015663534 0.060892474
0.45263505 -0.014758905 0.06088696
0.45356223 -0.013792494 0.061363447
0.45358968 -0.012889463 0.061357945
0.45361713 -0.011986429 0.061352443
0.45364457 -0.011083393 0.061346941
0.45367202 -0.010180359 0.061341438
0.45369947 -0.0092773205 0.061335932
0.45372695 -0.0083742859 0.06133043
0.4537544 -0.0074712508 0.061324928
0.45378184 -0.0065682163 0.061319426
0.45380929 -0.0056651817 0.061313923
0.45293751 -0.004808004 0.060826324
0.45296499 -0.0039033755 0.06082081
0.4529925 -0.0029987472 0.060815297
0.45302001 -0.0020941186 0.060809787
0.45304748 -0.0011894903 0.060804274
0.45307499 -0.00028486186 0.060798761
0.45310247 0.00061976281 0.060793247
0.45312998 0.0015243912 0.060787737
0.45225865 0.0023959042 0.060300048
0.45228618 0.0033021262 0.060294528
0.45231372 0.0042083445 0.060289007
0.45234129 0.0051145647 0.060283482
0.45236883 0.0060207853 0.060277961
0.45149773 0.0069018519 0.059790183
0.4515253 0.007809666 0.059784651
0.45065442 0.0086955102 0.059296872
0.45068204 0.009604916 0.059291333
0.44981131 0.010495542 0.058803529
0.449839 0.011406539 0.058797978
0.44986668 0.012317538 0.058792427
0.44989437 0.013228538 0.058786876
0.44902384 0.014127124 0.058299024
0.44905159 0.015039716 0.058293462
0.45015261 -0.026793115 0.058809221
0.45018026 -0.025883708 0.058803678
0.45110717 -0.02489337 0.059281252
0.45113477 -0.023985554 0.05927572
0.45116237 -0.023077741 0.059270188
0.45208913 -0.022093771 0.059747834
0.45211667 -0.021187549 0.059742309
0.45214424 -0.02028133 0.059736788
0.45217177 -0.019375112 0.059731267
0.45219931 -0.01846889 0.059725743
0.45222685 -0.017562671 0.059720222
0.45225441 -0.016656445 0.059714697
0.45318073 -0.015685223 0.060192391
0.45320824 -0.014780594 0.060186878
0.45323575 -0.013875966 0.060181364
0.45326322 -0.012971341 0.060175851
0.45418933 -0.012008079 0.06065359
0.45421678 -0.011105045 0.060648087
0.45424423 -0.010202009 0.060642585
0.45337322 -0.0093528274 0.060153801
0.4534007 -0.0084481994 0.060148288
0.45342821 -0.0075435741 0.060142778
0.45345572 -0.006638946 0.060137264
0.45348319 -0.0057343175 0.060131751
0.4535107 -0.0048296927 0.060126238
0.45353821 -0.0039250641 0.060120728
0.45356569 -0.0030204358 0.060115214
0.45359319 -0.0021158075 0.060109701
0.45272267 -0.0012507036 0.05962082
0.45275021 -0.00034448149 0.059615299
0.45277774 0.00056173687 0.059609775
0.45280531 0.0014679552 0.059604254
0.45283285 0.0023741773 0.059598733
0.45286039 0.0032803994 0.059593208
0.45288792 0.0041866177 0.059587687
0.45201775 0.0050644609 0.059098698
0.45204535 0.0059722732 0.059093166
0.45207295 0.0068800868 0.059087634
0.45120299 0.0077643036 0.058598634
0.45123065 0.008673707 0.058593094
0.45125827 0.0095831128 0.058587551
0.45038852 0.0104737 0.058098517
0.45041621 0.011384698 0.058092967
0.45044392 0.012295697 0.058087412
0.45047161 0.013206697 0.058081862
0.4496021 0.014105245 0.057592772
0.44962984 0.015017836 0.05758721
0.44803375 -0.027067384 0.056652449
0.44895986 -0.026070636 0.05713122
0.44988585 -0.025077075 0.057610009
0.44991353 -0.024166076 0.057604454
0.4508394 -0.02317729 0.058083273
0.45086706 -0.022267886 0.05807773
0.45179275 -0.021283882 0.058556583
0.45182034 -0.020376069 0.058551051
0.45184794 -0.019468253 0.058545519
0.45277351 -0.018490616 0.059024431
0.45280105 -0.017584398 0.05901891
0.45282862 -0.016678173 0.059013385
0.45285615 -0.015771953 0.059007864
0.45288369 -0.014865736 0.059002344
0.45380893 -0.013897655 0.059481286
0.45383641 -0.012993029 0.059475772
0.45386392 -0.012088401 0.059470259
0.45389143 -0.011183773 0.059464749
0.4539189 -0.010279148 0.059459236
0.45394641 -0.0093745161 0.059453722
0.45397392 -0.0084698871 0.059448209
0.4540014 -0.0075652627 0.059442699
0.4540289 -0.0066606342 0.059437186
0.45315915 -0.0058035334 0.05894712
0.45318669 -0.0048973113 0.058941595
0.45321423 -0.003991093 0.058936074
0.4532418 -0.0030848745 0.058930553
0.45326933 -0.0021786487 0.058925029
0.45329687 -0.0012724303 0.058919508
0.45332441 -0.00036620823 0.058913987
0.45335197 0.00054001011 0.058908463
0.45337951 0.0014462285 0.058902942
0.45251018 0.0023192565 0.058412753
0.45253778 0.0032270723 0.058407221
0.45256537 0.0041348841 0.058401689
0.45259297 0.0050426964 0.058396157
0.45262057 0.0059505082 0.058390625
0.45175159 0.0068330946 0.057900399
0.45177922 0.0077425004 0.057894856
0.45180687 0.0086519038 0.057889316
0.4518345 0.0095613096 0.057883773
0.45096576 0.010451859 0.057393502
0.45099345 0.011362856 0.057387952
0.45102113 0.012273856 0.057382401
0.45015261 0.013170776 0.056892093
0.45018035 0.014083365 0.056886531
0.45020807 0.014995957 0.05688097
0.44681823 -0.02725769 0.054973818
0.44774342 -0.026257725 0.055453803
0.44866857 -0.025260936 0.055933829
0.44869635 -0.024346745 0.05592826
0.44962129 -0.023354739 0.05640829
0.45054615 -0.022365922 0.056888342
0.45147091 -0.021380283 0.057368409
0.45149854 -0.020470876 0.057362869
0.45242316 -0.01949002 0.057842966
0.45245075 -0.018582208 0.057837434
0.45337528 -0.017606124 0.058317591
0.45340282 -0.016699899 0.05831207
0.45343035 -0.015793681 0.058306545
0.45345789 -0.014887462 0.058301024
0.45348546 -0.013981241 0.0582955
0.453513 -0.013075022 0.058289979
0.45354053 -0.0121688 0.058284458
0.45356807 -0.011262582 0.058278933
0.45359564 -0.010356363 0.058273412
0.45362318 -0.0094501376 0.058267891
0.45365071 -0.0085439188 0.058262367
0.45367825 -0.0076376968 0.058256846
0.45370582 -0.0067314785 0.058251321
0.45373335 -0.0058252602 0.0582458
0.45376089 -0.0049190382 0.05824028
0.45378843 -0.0040128198 0.058234755
0.453816 -0.0031066013 0.058229234
0.45384353 -0.0022003755 0.058223713
0.45297503 -0.0013337604 0.057732329
0.45300263 -0.00042594469 0.057726797
0.4530302 0.00048186735 0.057721265
0.4530578 0.0013896794 0.057715733
0.45308539 0.0022974913 0.057710201
0.45311299 0.0032053071 0.057704668
0.45314059 0.0041131191 0.057699136
0.45316818 0.0050209314 0.057693604
0.45230016 0.0059018838 0.05720216
0.45232779 0.0068112914 0.057196617
0.45235544 0.0077206972 0.057191078
0.45238307 0.0086301006 0.057185534
0.45151532 0.0095190182 0.056694042
0.451543 0.010430017 0.056688491
0.45157069 0.011341015 0.056682941
0.45070311 0.012236304 0.056191407
0.45073083 0.013148896 0.056185845
0.45075858 0.014061485 0.056180287
0.44989118 0.014963144 0.055688716
0.44745526 -0.025444949 0.054252699
0.44837934 -0.024448123 0.054733936
0.44930339 -0.02345448 0.055215213
0.45022729 -0.022464029 0.055696487
0.45115107 -0.021476762 0.056177784
0.45117876 -0.020565763 0.056172229
0.45210242 -0.019583277 0.056653555
0.45213005 -0.018673873 0.056648012
0.45305356 -0.017696161 0.057129357
0.45308116 -0.016788345 0.057123825
0.45400456 -0.015815407 0.05760524
0.45403209 -0.014909189 0.057599716
0.45405966 -0.014002967 0.057594195
0.4540872 -0.013096749 0.05758867
0.45411474 -0.012190526 0.05758315
0.45414227 -0.011284309 0.057577629
0.45416984 -0.01037809 0.057572104
0.45419738 -0.0094718635 0.057566583
0.45422491 -0.0085656457 0.057561062
0.45425245 -0.0076594236 0.057555538
0.45338467 -0.006802401 0.057062976
0.45341226 -0.0058945892 0.057057444
0.45343986 -0.004986777 0.057051912
0.45346746 -0.0040789652 0.05704638
0.45349506 -0.0031711531 0.057040848
0.45352265 -0.0022633374 0.057035316
0.45355025 -0.0013555253 0.057029784
0.45357782 -0.00044770961 0.057024252
0.45271054 0.00042364697 0.056531638
0.45273817 0.0013330526 0.056526095
0.45276582 0.0022424583 0.056520555
0.45279345 0.0031518678 0.056515012
0.45282111 0.0040612714 0.056509469
0.45284873 0.0049706753 0.056503929
0.45287639 0.0058800811 0.056498386
0.45290402 0.0067894887 0.056492846
0.45203716 0.0076751825 0.05600014
0.45206484 0.0085861795 0.055994589
0.45209253 0.0094971769 0.055989034
0.45212021 0.010408177 0.055983484
0.45125359 0.011301833 0.055490728
0.45038709 0.012198674 0.054997955
0.45041487 0.01311286 0.054992385
0.45044264 0.014027042 0.054986812
0.44957626 0.014930255 0.054493971
0.44437128 -0.028562503 0.051607423
0.44529471 -0.027554499 0.052089825
0.44532272 -0.026632352 0.052084204
0.44624606 -0.025629114 0.052566662
0.44716921 -0.024629066 0.053049102
0.44898745 -0.023554303 0.054019641
0.44991043 -0.022562215 0.054502163
0.44993821 -0.021648033 0.054496594
0.45086101 -0.020660726 0.054979119
0.45178369 -0.019676609 0.05546166
0.45181137 -0.01876561 0.055456109
0.45273393 -0.01778627 0.055938683
0.45365638 -0.01681011 0.05642128
0.45368394 -0.015902298 0.056415748
0.45371154 -0.014994485 0.056410216
0.45373914 -0.014086673 0.056404684
0.45376673 -0.013178858 0.056399152
0.45379433 -0.012271046 0.05639362
0.45382193 -0.011363233 0.056388088
0.45384952 -0.010455422 0.056382556
0.45387712 -0.0095476061 0.056377023
0.45390472 -0.0086397938 0.056371491
0.45393229 -0.007731982 0.056365959
0.45395988 -0.006824166 0.056360427
0.45398748 -0.0059163542 0.056354895
0.45312092 -0.0050545903 0.055861101
0.45314854 -0.0041451845 0.055855561
0.4531762 -0.003235779 0.055850018
0.45320383 -0.0023263698 0.055844478
0.45323148 -0.001416964 0.055838935
0.45325911 -0.00050755829 0.055833392
0.45328677 0.00040184363 0.055827852
0.45331439 0.0013112493 0.055822309
0.45334205 0.0022206551 0.05581677
0.45336968 0.0031300643 0.055811226
0.45339733 0.0040394682 0.055805687
0.45253131 0.0049203448 0.055311773
0.45255902 0.0058313422 0.055306222
0.45258671 0.0067423433 0.055300672
0.4526144 0.0076533407 0.055295121
0.45264208 0.0085643381 0.05528957
0.45266977 0.0094753355 0.055284016
0.4518041 0.010367365 0.054790046
0.45183185 0.011279954 0.054784484
0.45096633 0.012176757 0.054290473
0.4509941 0.013090942 0.054284904
0.4501287 0.013992523 0.053790841
0.45015654 0.014908299 0.053785261
0.44929129 0.015814658 0.053291194
0.44132248 -0.030788479 0.048946857
0.44313967 -0.029683381 0.049919702
0.4440622 -0.028670551 0.050403304
0.44409034 -0.027745225 0.050397664
0.44501275 -0.026737174 0.050881296
0.44593504 -0.025732312 0.051364947
0.44596308 -0.024810161 0.051359326
0.44777942 -0.023732133 0.052332338
0.44870144 -0.022736829 0.052816041
0.44962338 -0.021744709 0.053299773
0.45054525 -0.020755766 0.053783551
0.45146698 -0.019770017 0.054267321
0.45238861 -0.018787451 0.054751102
0.4524163 -0.017876456 0.054745551
0.45333779 -0.016898664 0.05522937
0.45336542 -0.015989257 0.05522383
0.45339307 -0.015079852 0.055218287
0.45431435 -0.014108438 0.055702139
0.45434195 -0.013200623 0.055696607
0.45436954 -0.012292811 0.055691075
0.45350364 -0.011442233 0.055196121
0.45353127 -0.010532827 0.055190578
0.45355892 -0.0096234176 0.055185035
0.45358655 -0.0087140128 0.055179495
0.45361421 -0.0078046066 0.055173952
0.45364183 -0.0068952008 0.055168413
0.45366949 -0.0059857992 0.055162869
0.45369712 -0.0050763935 0.05515733
0.45283166 -0.0042114807 0.05466228
0.45285934 -0.0033004812 0.054656729
0.45288703 -0.002389482 0.054651178
0.45291471 -0.0014784826 0.054645628
0.4529424 -0.00056748325 0.054640077
0.45297009 0.00034351237 0.054634523
0.45299777 0.0012545116 0.054628972
0.45302549 0.0021655073 0.054623421
0.45305318 0.0030765065 0.054617871
0.45308086 0.003987506 0.05461232
0.45310855 0.0048985034 0.054606769
0.45313624 0.0058095008 0.054601215
0.45316392 0.0067205019 0.054595664
0.45319161 0.0076314998 0.054590113
0.45232686 0.0085203005 0.054094926
0.45235461 0.0094328923 0.054089364
0.45149001 0.010326474 0.053594142
0.45151779 0.011240656 0.053588573
0.45065328 0.012139014 0.053093296
0.45068112 0.013054792 0.053087715
0.44981679 0.013957927 0.052592434
0.44984469 0.014875295 0.052586846
0.44898051 0.015783209 0.052091543
0.44283357 -0.029793132 0.048711888
0.44375515 -0.028778676 0.049196716
0.44467667 -0.027767409 0.049681555
0.44470477 -0.026842074 0.049675919
0.44562614 -0.025835585 0.050160788
0.44654739 -0.024832269 0.050645687
0.44836172 -0.023754166 0.051621158
0.44838965 -0.022835206 0.051615559
0.45020363 -0.021766664 0.052591059
0.45112449 -0.020777684 0.05307607
0.45115229 -0.019863501 0.0530705
0.45207295 -0.018879307 0.053555507
0.45299354 -0.017898297 0.05404054
0.45302123 -0.016987294 0.054034989
0.45304891 -0.016076295 0.054029435
0.4539693 -0.015101655 0.054514501
0.45399693 -0.01419225 0.054508962
0.45402458 -0.013282848 0.054503419
0.45405221 -0.012373442 0.054497875
0.45407987 -0.011464036 0.054492336
0.45410749 -0.010554631 0.054486793
0.45324275 -0.0096993065 0.053990576
0.45327044 -0.0087883109 0.053985026
0.45329812 -0.0078773117 0.053979475
0.45332581 -0.0069663161 0.053973924
0.45335349 -0.0060553169 0.05396837
0.45338118 -0.0051443176 0.053962819
0.45340887 -0.0042333221 0.053957269
0.45343658 -0.0033223226 0.053951718
0.45346427 -0.0024113234 0.053946167
0.45349196 -0.001500324 0.053940613
0.45351964 -0.00058932463 0.053935062
0.45354733 0.00032167102 0.053929511
0.45357502 0.0012326704 0.053923961
0.45271096 0.0021102831 0.053427603
0.45273867 0.0030228761 0.053422041
0.45276642 0.003935467 0.053416479
0.45279416 0.0048480583 0.053410918
0.45282191 0.0057606474 0.053405359
0.45284963 0.0066732406 0.053399798
0.45287737 0.0075858319 0.053394236
0.45290512 0.0084984209 0.053388674
0.45204148 0.0093903709 0.052892234
0.45206925 0.010304556 0.052886665
0.4512057 0.011201281 0.052390162
0.45123354 0.012117058 0.052384581
0.45037019 0.013018564 0.051888086
0.44950694 0.013923256 0.051391561
0.44953486 0.014842216 0.051385961
0.44867176 0.015751684 0.050889414
0.44869974 0.016672241 0.050883804
0.4434219 -0.029815393 0.047993314
0.44434249 -0.028800899 0.048479374
0.44437066 -0.027873978 0.048473727
0.4452911 -0.026864259 0.04895981
0.44531924 -0.025938928 0.048954174
0.4462395 -0.024933986 0.049440287
0.44805187 -0.023854215 0.050418217
0.44897193 -0.022857238 0.050904386
0.44989187 -0.021863448 0.051390566
0.45081174 -0.020872844 0.051876768
0.45173153 -0.019885419 0.052363019
0.45175934 -0.018971236 0.05235745
0.45267895 -0.017988598 0.052843701
0.45359844 -0.017009135 0.053329974
0.45362616 -0.016098136 0.053324424
0.45365384 -0.015187141 0.053318873
0.45368153 -0.014276141 0.053313322
0.45370921 -0.013365146 0.053307768
0.4537369 -0.012454147 0.053302217
0.45376459 -0.011543151 0.053296667
0.45379227 -0.010632151 0.053291116
0.45381996 -0.0097211478 0.053285565
0.45384768 -0.0088101523 0.053280015
0.45387536 -0.007899153 0.05327446
0.45390305 -0.0069881575 0.053268909
0.45393074 -0.0060771583 0.053263359
0.45306727 -0.0052123219 0.052765846
0.45309502 -0.0042997324 0.052760284
0.45312276 -0.0033871396 0.052754723
0.45315048 -0.0024745467 0.052749161
0.45317823 -0.0015619573 0.052743599
0.45320597 -0.00064936437 0.052738041
0.45323372 0.00026322494 0.052732479
0.45326144 0.0011758142 0.052726917
0.45328918 0.0020884036 0.052721355
0.45331693 0.0030009965 0.052715797
0.45334467 0.0039135874 0.052710235
0.45337239 0.0048261788 0.052704673
0.45340014 0.0057387678 0.052699111
0.45253736 0.0066259047 0.052201468
0.45256513 0.0075400877 0.052195895
0.45259294 0.0084542707 0.052190326
0.45262071 0.0093684532 0.052184757
0.45175812 0.01026355 0.051687032
0.45178595 0.011179325 0.051681451
0.45092356 0.0120792 0.05118373
0.45006126 0.012982261 0.050685987
0.45008922 0.013901223 0.050680388
0.44922706 0.014809061 0.050182611
0.44836494 0.015720082 0.049684789
0.44839299 0.016642231 0.049679171
0.44753107 0.017558031 0.049181353
0.44401023 -0.029837653 0.047274753
0.44492981 -0.028823122 0.04776204
0.44495797 -0.027896201 0.047756393
0.4458774 -0.026886445 0.048243713
0.44590554 -0.025961112 0.048238073
0.44682482 -0.024956133 0.048725419
0.44774401 -0.023954339 0.049212787
0.44866315 -0.022955732 0.049700204
0.44958213 -0.021960309 0.05018761
0.45050102 -0.020968074 0.050675035
0.45141983 -0.019979024 0.051162481
0.45233858 -0.018993154 0.051649977
0.45236635 -0.018078972 0.051644407
0.45328492 -0.017097881 0.052131899
0.45331267 -0.016185291 0.052126337
0.45423105 -0.015208982 0.052613858
0.45425874 -0.014297983 0.052608307
0.45428646 -0.013386987 0.052602757
0.45431414 -0.012475988 0.052597206
0.45434183 -0.011564992 0.052591655
0.45436952 -0.010653992 0.052586105
0.45350683 -0.0097971549 0.052087411
0.45353457 -0.0088845622 0.052081849
0.45356229 -0.0079719732 0.052076288
0.45359004 -0.0070593837 0.052070726
0.45361778 -0.0061467905 0.052065168
0.45364553 -0.0052342014 0.052059606
0.45367324 -0.004321612 0.052054044
0.45370099 -0.003409019 0.052048482
0.45283875 -0.0025378498 0.051549703
0.45286652 -0.0016236668 0.05154413
0.4528943 -0.00070948014 0.051538561
0.45292211 0.00020470278 0.051532991
0.45294988 0.0011188857 0.051527418
0.45297769 0.0020330686 0.051521849
0.45300546 0.0029472515 0.051516276
0.45303324 0.0038614345 0.051510707
0.45306104 0.0047756173 0.051505137
0.45308882 0.0056898003 0.051499564
0.4531166 0.006603987 0.051493995
0.4531444 0.0075181699 0.051488422
0.45228273 0.0084100412 0.050989486
0.45231056 0.0093258163 0.050983906
0.45144907 0.010222469 0.05048497
0.45147696 0.011139837 0.050479379
0.45061561 0.012041268 0.049980413
0.45064354 0.01296023 0.049974814
0.44978237 0.013866437 0.049475823
0.4489212 0.014775828 0.048976775
0.44894925 0.015697973 0.048971158
0.44808829 0.016612146 0.048472114
0.44811636 0.017535884 0.048466485
0.44548896 -0.029772274 0.047050349
0.44640747 -0.028759291 0.04753888
0.4464356 -0.027833965 0.047533244
0.44646373 -0.026908629 0.047527604
0.44649184 -0.025983298 0.047521964
0.44741014 -0.02497828 0.048010547
0.44832829 -0.023976449 0.048499148
0.44924644 -0.022977803 0.048987791
0.45016441 -0.021982342 0.04947643
0.45108229 -0.020990068 0.049965091
0.45200008 -0.020000979 0.050453767
0.45202792 -0.019085202 0.050448187
0.45294562 -0.018100889 0.050936926
0.4529734 -0.017186701 0.050931357
0.45389089 -0.016207172 0.051420093
0.45391864 -0.015294578 0.051414531
0.45394638 -0.014381989 0.051408969
0.4539741 -0.013469399 0.051403407
0.45400184 -0.01255681 0.051397849
0.45402959 -0.011644217 0.051392287
0.45405734 -0.010731627 0.051386725
0.45408505 -0.0098190345 0.051381163
0.4532235 -0.0089590522 0.050881218
0.45325127 -0.0080448687 0.050875649
0.45327905 -0.0071306857 0.050870076
0.45330685 -0.0062165027 0.050864507
0.45333463 -0.0053023202 0.050858937
0.45336241 -0.0043881373 0.050853364
0.45339021 -0.0034739543 0.050847795
0.45341799 -0.0025597676 0.050842222
0.45344579 -0.0016455846 0.050836653
0.45347357 -0.00073139794 0.050831083
0.45350134 0.00018278501 0.05082551
0.45352915 0.001096968 0.050819941
0.45355693 0.0020111508 0.050814368
0.4535847 0.0029253338 0.050808799
0.45361251 0.0038395168 0.050803229
0.45364028 0.0047536995 0.050797656
0.45366809 0.0056678825 0.050792087
0.45280731 0.0065565342 0.050291933
0.45283514 0.0074723088 0.050286353
0.45286298 0.0083880853 0.050280772
0.45200247 0.0092831049 0.049780615
0.45203033 0.010200474 0.049775023
0.45116997 0.011100273 0.049274836
0.45119789 0.012019235 0.049269237
0.45033768 0.012923812 0.04876902
0.44947749 0.013831574 0.048268754
0.44950551 0.014753719 0.048263136
0.44864553 0.015666259 0.047762871
0.44778565 0.016581984 0.047262583
0.44781375 0.017507317 0.047256947
0.44784188 0.018432649 0.047251306
0.44696566 -0.029706812 0.046828419
0.4469938 -0.028781475 0.046822783
0.4470219 -0.027856149 0.046817143
0.44705003 -0.026930815 0.046811502
0.44796735 -0.02592417 0.047301307
0.44799542 -0.025000427 0.047295678
0.44891259 -0.023998557 0.047785506
0.44982973 -0.022999873 0.048275393
0.45074669 -0.022004373 0.048765264
0.45077461 -0.021085413 0.048759665
0.45169145 -0.020094693 0.049249567
0.45260817 -0.019107159 0.049739487
0.452636 -0.018191386 0.049733907
0.45355263 -0.017208619 0.050223883
0.45358044 -0.016294437 0.05021831
0.45360821 -0.015380254 0.050212741
0.45363602 -0.014466071 0.050207172
0.4536638 -0.013551888 0.050201599
0.45369157 -0.012637705 0.050196029
0.45371938 -0.011723522 0.050190456
0.45374715 -0.010809339 0.050184887
0.45377493 -0.0098951524 0.050179318
0.45380273 -0.008980969 0.050173745
0.45383051 -0.0080667865 0.050168175
0.45385832 -0.0071526035 0.050162602
0.45388609 -0.0062384205 0.050157033
0.45391387 -0.0053242375 0.050151464
0.45394167 -0.0044100545 0.050145891
0.45396945 -0.0034958718 0.050140321
0.4531092 -0.0026231837 0.049639039
0.45313704 -0.0017074072 0.049633458
0.45316488 -0.00079163053 0.049627878
0.45319271 0.00012414233 0.049622297
0.45322055 0.0010399189 0.049616717
0.45324838 0.0019556955 0.049611136
0.45327622 0.0028714722 0.049605556
0.45330405 0.0037872486 0.049599975
0.45333189 0.0047030235 0.049594395
0.45335972 0.0056187999 0.049588814
0.45338756 0.0065345783 0.049583234
0.45252794 0.0074263741 0.049081858
0.45255584 0.0083437422 0.04907627
0.45258373 0.0092611108 0.049070679
0.45172432 0.010159281 0.048569266
0.45175225 0.011078241 0.048563667
0.45089298 0.011981186 0.048062228
0.45092097 0.012901742 0.048056617
0.45006177 0.013809465 0.047555115
0.44920275 0.014720373 0.047053631
0.44923082 0.015644113 0.047048002
0.44837195 0.0165598 0.046546485
0.44840008 0.017485131 0.046540845
0.44842821 0.018410463 0.046535205
0.44756952 0.019332521 0.046033647
0.44752386 -0.030654324 0.04611795
0.44844034 -0.029641273 0.046608943
0.44846842 -0.028717531 0.046603315
0.44849649 -0.027793797 0.046597686
0.44852459 -0.026870055 0.046592057
0.44944084 -0.025864964 0.047083106
0.44946885 -0.024942813 0.047077484
0.45038503 -0.023942497 0.047568589
0.45041302 -0.023021944 0.047562979
0.45132896 -0.022026407 0.048054084
0.45135689 -0.021107446 0.048048485
0.45227271 -0.020116687 0.04853962
0.45230061 -0.019199321 0.048534028
0.45321625 -0.018213341 0.049025193
0.45324409 -0.017297562 0.049019612
0.45415968 -0.016316354 0.049510833
0.45418748 -0.015402172 0.04950526
0.45421526 -0.014487988 0.049499691
0.45424303 -0.013573806 0.049494121
0.45427084 -0.012659622 0.049488548
0.45429862 -0.01174544 0.049482979
0.45432642 -0.010831256 0.049477406
0.45346677 -0.0099713486 0.048974968
0.45349461 -0.0090555763 0.048969388
0.45352244 -0.0081397993 0.048963808
0.45355028 -0.0072240229 0.048958227
0.45357811 -0.0063082459 0.048952647
0.45360595 -0.0053924695 0.048947066
0.45363379 -0.0044766967 0.048941486
0.45366162 -0.00356092 0.048935905
0.45368946 -0.0026451398 0.048930325
0.45371729 -0.0017293631 0.048924744
0.45374513 -0.00081358652 0.048919164
0.45377296 0.00010218635 0.048913583
0.4538008 0.0010179629 0.048908003
0.45382863 0.0019337395 0.048902422
0.45296982 0.002817536 0.048399866
0.45299768 0.0037349062 0.048394274
0.45302558 0.0046522729 0.048388686
0.45305344 0.005569641 0.048383094
0.45308134 0.0064870114 0.048377503
0.45310923 0.00740438 0.048371915
0.45225072 0.0082993247 0.047869287
0.45227867 0.0092182849 0.047863688
0.4523066 0.010137249 0.047858089
0.45144829 0.011038562 0.047355425
0.45147628 0.011959116 0.047349814
0.45061806 0.012865208 0.046847094
0.45064607 0.013787356 0.046841476
0.44978806 0.014698226 0.046338752
0.44893014 0.015612282 0.045836017
0.44895828 0.016537614 0.045830376
0.44898638 0.017462946 0.045824736
0.44812867 0.018383373 0.045321956
0.44815683 0.019310297 0.045316309
0.44729927 0.020235501 0.044813499
0.44896948 -0.031510901 0.045905337
0.44899756 -0.030587159 0.045899708
0.449913 -0.029575655 0.046391949
0.44994104 -0.028653516 0.046386328
0.44996905 -0.027731368 0.04638071
0.4499971 -0.026809221 0.046375088
0.45002511 -0.025887072 0.046369471
0.45005316 -0.024964921 0.046363853
0.4509683 -0.023964567 0.046856187
0.45099628 -0.023044012 0.046850577
0.45191124 -0.022048438 0.047342919
0.45193917 -0.021129478 0.047337316
0.45196709 -0.020210518 0.047331717
0.45288187 -0.019221315 0.047824088
0.45290974 -0.018303944 0.047818501
0.45382437 -0.017319517 0.048310906
0.45385221 -0.01640374 0.048305325
0.45388004 -0.015487964 0.048299745
0.45390788 -0.014572187 0.048294164
0.45393571 -0.013656415 0.048288584
0.45396355 -0.012740638 0.048283003
0.45399138 -0.011824861 0.048277423
0.45401922 -0.010909085 0.048271842
0.45404705 -0.0099933045 0.048266262
0.45407489 -0.0090775313 0.048260681
0.45410272 -0.0081617553 0.048255101
0.45324436 -0.0072955159 0.047751416
0.45327222 -0.0063781491 0.047745828
0.45330012 -0.0054607792 0.047740236
0.45332801 -0.0045434125 0.047734648
0.45335588 -0.0036260423 0.047729056
0.45338377 -0.0027086721 0.047723465
0.45341167 -0.0017913018 0.047717877
0.45343953 -0.00087393529 0.047712285
0.45346743 4.3434957e-05 0.047706697
0.45349529 0.0009608015 0.047701105
0.45352319 0.0018781717 0.047695514
0.45355108 0.0027955419 0.047689926
0.45357895 0.0037129123 0.047684334
0.45272127 0.004601446 0.047180519
0.45274919 0.0055204062 0.047174919
0.45277715 0.0064393701 0.04716932
0.45280507 0.0073583303 0.047163721
0.452833 0.0082772924 0.047158122
0.45286092 0.0091962526 0.047152519
0.4520036 0.010095938 0.046648633
0.45203155 0.011016492 0.046643022
0.45117432 0.011920952 0.04613908
0.45120233 0.0128431 0.046133459
0.45034528 0.01375234 0.045629513
0.45037335 0.014676079 0.045623884
0.44951645 0.015590097 0.045119915
0.44954458 0.01651543 0.045114275
0.44957271 0.017440761 0.045108639
0.44871598 0.018361149 0.044604622
0.44874415 0.019288074 0.044598974
0.4478876 0.020213241 0.044094931
0.44791582 0.021141758 0.044089273
0.45044124 -0.031442057 0.045689542
0.45046929 -0.030519912 0.04568392
0.4504973 -0.029597765 0.045678303
0.45052534 -0.028675623 0.045672685
0.45055336 -0.027753476 0.045667063
0.45146766 -0.026748303 0.046160605
0.45060942 -0.025909182 0.045655824
0.4515236 -0.024907192 0.046149384
0.45155159 -0.023986638 0.046143774
0.45157957 -0.023066085 0.046138167
0.45249352 -0.022070471 0.046631739
0.45252144 -0.021151511 0.046626139
0.4525494 -0.020232551 0.046620537
0.45346314 -0.019243309 0.047114145
0.45349103 -0.018325938 0.047108553
0.4535189 -0.017408568 0.047102962
0.45354679 -0.016491197 0.047097374
0.45357466 -0.015573831 0.047091782
0.45360255 -0.014656461 0.047086194
0.45363045 -0.013739094 0.047080602
0.45365831 -0.012821724 0.047075011
0.45368621 -0.011904358 0.047069423
0.4537141 -0.010986988 0.047063831
0.45374197 -0.010069617 0.047058243
0.45376986 -0.0091522466 0.047052652
0.45379773 -0.0082348799 0.04704706
0.45382562 -0.00731751 0.047041472
0.45385352 -0.0064001437 0.04703588
0.45388138 -0.0054827733 0.047030292
0.45390928 -0.0045654066 0.047024701
0.45393717 -0.0036480364 0.047019109
0.45396504 -0.0027306662 0.047013521
0.45310801 -0.0018533169 0.046508539
0.45313597 -0.00093435677 0.04650294
0.45316389 -1.5392854e-05 0.046497341
0.45319182 0.00090356736 0.046491742
0.45321974 0.0018225275 0.046486139
0.4532477 0.0027414914 0.04648054
0.45327562 0.0036604516 0.046474941
0.45330355 0.0045794137 0.046469342
0.45333147 0.0054983739 0.046463739
0.45335943 0.0064173378 0.04645814
0.45338735 0.007336298 0.046452541
0.45253092 0.0082327584 0.04594744
0.4525589 0.0091533121 0.04594183
0.45258689 0.010073868 0.045936219
0.45173058 0.010976696 0.045431051
0.45175862 0.011898844 0.045425434
0.45178664 0.012820991 0.045419812
0.4509306 0.013730193 0.04491464
0.45095867 0.014653932 0.044909012
0.45010278 0.015567912 0.044403803
0.45013091 0.016493244 0.044398163
0.45015901 0.017418576 0.044392526
0.4493033 0.018338926 0.043887284
0.44933149 0.019265851 0.043881636
0.44847593 0.020190978 0.043376356
0.44850415 0.021119496 0.043370698
0.44764867 0.022049401 0.042865366
0.45102555 -0.031464167 0.044975907
0.45193902 -0.030452589 0.04547064
0.4510816 -0.029619873 0.044964667
0.45110962 -0.028697733 0.04495905
0.45113766 -0.027775586 0.044953428
0.45116568 -0.026853438 0.04494781
0.45207891 -0.025849819 0.045442592
0.45210689 -0.024929263 0.045436982
0.45213488 -0.024008708 0.045431376
0.45304787 -0.023011463 0.045926165
0.4530758 -0.022092503 0.045920566
0.45310372 -0.021173542 0.045914963
0.45313165 -0.020254582 0.045909364
0.4531596 -0.019335618 0.045903765
0.45318753 -0.018416658 0.045898166
0.45321545 -0.017497694 0.045892566
0.45412806 -0.016513191 0.046387438
0.45415592 -0.015595825 0.04638185
0.45418382 -0.014678455 0.046376258
0.45332718 -0.013821851 0.045870166
0.4533551 -0.01290289 0.045864567
0.45338306 -0.011983926 0.045858964
0.45341098 -0.011064966 0.045853365
0.45343891 -0.010146002 0.045847766
0.45346683 -0.0092270421 0.045842167
0.45349479 -0.0083080782 0.045836568
0.45352271 -0.0073891175 0.045830965
0.45355064 -0.0064701578 0.045825366
0.45357856 -0.0055511976 0.045819767
0.45360652 -0.0046322374 0.045814168
0.45363444 -0.0037132732 0.045808565
0.45366237 -0.0027943093 0.045802966
0.45369029 -0.0018753492 0.045797367
0.45371825 -0.00095638895 0.045791768
0.45374617 -3.7425063e-05 0.045786168
0.45377409 0.00088153512 0.045780566
0.45380202 0.0018004953 0.045774966
0.45382997 0.0027194591 0.045769367
0.4538579 0.0036384193 0.045763768
0.45388582 0.0045573814 0.045758169
0.45391375 0.0054763416 0.045752566
0.45305824 0.00636958 0.045246258
0.45308623 0.0072901337 0.045240648
0.45311421 0.0082106879 0.045235038
0.45314217 0.0091312416 0.045229428
0.45228684 0.010032442 0.044723038
0.45231488 0.010954588 0.04471742
0.4523429 0.011876735 0.044711798
0.45148781 0.012784307 0.044205401
0.45151588 0.013708047 0.044199772
0.45066094 0.014620394 0.043693341
0.45068908 0.015545727 0.043687701
0.45071721 0.01647106 0.043682061
0.45074534 0.01739639 0.043676425
0.44989064 0.018316703 0.043169949
0.44991881 0.019243628 0.043164302
0.44906425 0.020168718 0.042657796
0.44909248 0.021097235 0.042652138
0.44823802 0.022027101 0.042145573
0.4482663 0.022957213 0.042139903
0.45160985 -0.031486277 0.044262268
0.45163786 -0.030564129 0.044256646
0.45166591 -0.02964198 0.044251028
0.45257828 -0.028633552 0.04474701
0.45260626 -0.027712997 0.0447414
0.45263422 -0.026792444 0.044735789
0.4526622 -0.02587189 0.044730183
0.45269018 -0.024951333 0.044724572
0.45271817 -0.024030779 0.044718962
0.45363015 -0.023033496 0.045214992
0.45365807 -0.022114536 0.045209393
0.453686 -0.021195576 0.04520379
0.45371392 -0.020276615 0.045198191
0.45374188 -0.019357651 0.045192592
0.4537698 -0.018438691 0.045186993
0.45379773 -0.017519727 0.04518139
0.45382565 -0.016600767 0.045175791
0.45385361 -0.015681803 0.045170192
0.45388153 -0.014762843 0.045164593
0.45390946 -0.013843883 0.045158993
0.45393738 -0.012924923 0.045153391
0.45396534 -0.012005959 0.045147792
0.45399326 -0.011086999 0.045142192
0.45402119 -0.010168035 0.045136593
0.45404911 -0.0092490744 0.045130994
0.45407706 -0.0083301105 0.045125391
0.45410499 -0.0074111498 0.045119792
0.45413291 -0.0064921896 0.045114193
0.45416084 -0.0055732294 0.045108594
0.45418879 -0.0046542692 0.045102995
0.45421672 -0.0037353055 0.045097392
0.45424464 -0.0028163416 0.045091793
0.45427257 -0.0018973814 0.045086194
0.45341769 -0.0010169251 0.04457872
0.45344567 -9.6371223e-05 0.044573113
0.45347366 0.00082418264 0.044567503
0.45350161 0.0017447365 0.044561893
0.4535296 0.0026652941 0.044556282
0.45355758 0.0035858478 0.044550672
0.45358557 0.0045063999 0.044545066
0.45361355 0.0054269535 0.044539455
0.45364153 0.0063475096 0.044533845
0.45278704 0.0072438926 0.044026256
0.45281509 0.0081660384 0.044020638
0.4528431 0.0090881838 0.044015016
0.45287114 0.010010334 0.044009399
0.45289916 0.010932479 0.044003777
0.45204505 0.011838419 0.043496151
0.45207313 0.01276216 0.043490522
0.4521012 0.0136859 0.043484893
0.45124727 0.014598208 0.042977232
0.45127541 0.015523542 0.042971596
0.45130351 0.016448874 0.042965956
0.45044979 0.017367555 0.042458259
0.45047796 0.01829448 0.042452607
0.45050612 0.019221405 0.04244696
0.44965258 0.020146456 0.041939221
0.44879907 0.021074694 0.041431434
0.44882736 0.022004802 0.041425765
0.44797406 0.022937817 0.040917978
0.45219415 -0.031508386 0.043548621
0.45222217 -0.030586237 0.043543
0.45225021 -0.02966409 0.043537382
0.45316157 -0.028655622 0.044034604
0.45318952 -0.027735068 0.044028994
0.45321751 -0.026814515 0.044023383
0.45324549 -0.02589396 0.044017773
0.45327348 -0.024973404 0.044012163
0.45330146 -0.024052849 0.044006556
0.45332944 -0.023132294 0.044000946
0.45335743 -0.022211742 0.043995336
0.45338541 -0.021291187 0.043989725
0.45341337 -0.020370634 0.043984115
0.45344135 -0.01945008 0.043978509
0.45346934 -0.018529527 0.043972898
0.45349732 -0.017608969 0.043967288
0.4535253 -0.016688414 0.043961678
0.45355329 -0.015767861 0.043956067
0.45358127 -0.014847307 0.043950461
0.45360923 -0.013926753 0.043944851
0.45363721 -0.013006199 0.04393924
0.4536652 -0.012085645 0.04393363
0.45369318 -0.011165092 0.04392802
0.45372117 -0.010244534 0.043922409
0.45374915 -0.0093239797 0.043916803
0.45377713 -0.008403426 0.043911193
0.45380512 -0.0074828723 0.043905582
0.45383307 -0.0065623187 0.043899972
0.45386106 -0.0056417645 0.043894362
0.45388904 -0.0047212108 0.043888755
0.45391703 -0.0038006608 0.043883145
0.45394501 -0.0028800995 0.043877535
0.453973 -0.0019595493 0.043871924
0.45400098 -0.0010389955 0.043866314
0.45402896 -0.00011844164 0.043860704
0.45405692 0.00080211222 0.043855097
0.4540849 0.0017226661 0.043849487
0.45411289 0.0026432236 0.043843877
0.45325923 0.0035331941 0.043335088
0.45328727 0.0044553415 0.043329466
0.45331529 0.0053774891 0.043323848
0.45334333 0.0062996363 0.043318231
0.45337135 0.007221784 0.043312609
0.45339939 0.0081439298 0.043306991
0.4534274 0.0090660751 0.04330137
0.45257419 0.009968794 0.042792536
0.45260227 0.010892533 0.042786907
0.45263037 0.011816273 0.042781278
0.45265844 0.012740013 0.04277565
0.45180547 0.013650693 0.042266764
0.45183358 0.014576023 0.042261127
0.45186171 0.015501357 0.042255487
0.45188984 0.01642669 0.042249851
0.45103711 0.017345332 0.041740917
0.45106527 0.018272256 0.041735269
0.45021269 0.019195678 0.041226309
0.45024091 0.020124195 0.04122065
0.44938844 0.021052394 0.040711626
0.4494167 0.021982502 0.04070596
0.44944498 0.022912614 0.04070029
0.44859272 0.023847183 0.040191263
0.45277843 -0.031530492 0.042834986
0.45280647 -0.030608347 0.042829368
0.45283449 -0.029686198 0.042823747
0.45286253 -0.028764058 0.042818129
0.45289055 -0.027841911 0.042812508
0.45291859 -0.026919764 0.04280689
0.4529466 -0.025997616 0.042801272
0.45385677 -0.024995472 0.043299764
0.45388475 -0.02407492 0.043294154
0.45391271 -0.023154365 0.043288544
0.45394069 -0.022233812 0.043282934
0.45396867 -0.021313258 0.043277327
0.45399666 -0.020392705 0.043271717
0.45402464 -0.01947215 0.043266106
0.45405263 -0.018551596 0.043260496
0.45408061 -0.017631039 0.043254886
0.4541086 -0.016710484 0.043249276
0.45413655 -0.015789932 0.043243669
0.45416453 -0.014869377 0.043238059
0.45419252 -0.013948823 0.043232448
0.4542205 -0.01302827 0.043226838
0.45336705 -0.01216541 0.04271698
0.45339507 -0.011243267 0.042711362
0.45342311 -0.010321116 0.042705741
0.45345113 -0.009398968 0.042700123
0.45347917 -0.0084768208 0.042694505
0.45350718 -0.0075546768 0.042688884
0.45353523 -0.0066325297 0.042683266
0.45356324 -0.005710382 0.042677645
0.45359129 -0.0047882381 0.042672027
0.4536193 -0.0038660907 0.042666409
0.45364732 -0.0029439395 0.042660788
0.45367536 -0.0020217921 0.04265517
0.45370337 -0.0010996482 0.042649549
0.45373142 -0.00017750073 0.042643931
0.45375943 0.00074464676 0.042638309
0.45378748 0.0016667943 0.042632692
0.45381549 0.0025889417 0.042627074
0.45384353 0.0035110856 0.042621452
0.45387155 0.0044332333 0.042615835
0.45389959 0.0053553805 0.042610213
0.45304719 0.00625169 0.042100184
0.45307526 0.0071754293 0.042094555
0.45310333 0.0080991667 0.042088926
0.45313144 0.0090229055 0.042083297
0.45315951 0.0099466471 0.042077668
0.45318758 0.010870386 0.042072039
0.45321566 0.011794126 0.04206641
0.45236364 0.012703177 0.041556302
0.45239177 0.013628508 0.041550666
0.45241991 0.014553838 0.041545026
0.45244801 0.015479172 0.041539386
0.45159626 0.016396185 0.04102923
0.45162442 0.017323108 0.041023582
0.45077282 0.018244898 0.040513396
0.45080104 0.019173415 0.040507741
0.4499495 0.020099984 0.039997499
0.44997776 0.021030094 0.039991833
0.44912642 0.021961439 0.039481588
0.44915476 0.022893142 0.03947591
0.44918308 0.023824845 0.039470233
0.44833192 0.024762562 0.03895995
0.45154366 -0.033585623 0.041122131
0.45245326 -0.032567516 0.04162173
0.45248133 -0.031643782 0.041616101
0.4525094 -0.03072004 0.041610472
0.45253748 -0.029796299 0.041604843
0.45256555 -0.028872557 0.041599214
0.45347485 -0.02786402 0.042098869
0.45350286 -0.026941871 0.042093251
0.45353091 -0.026019724 0.042087629
0.45355892 -0.025097573 0.042082012
0.45358697 -0.024175426 0.04207639
0.45361498 -0.023253283 0.042070772
0.45364302 -0.022331135 0.042065155
0.45367104 -0.021408986 0.042059533
0.45369908 -0.020486843 0.042053916
0.4537271 -0.019564696 0.042048294
0.45375514 -0.018642548 0.042042676
0.45378315 -0.017720398 0.042037059
0.4538112 -0.016798254 0.042031437
0.45383921 -0.015876105 0.042025819
0.45386726 -0.014953958 0.042020198
0.45389527 -0.014031814 0.04201458
0.45392331 -0.013109667 0.042008959
0.45395133 -0.012187519 0.042003341
0.45397937 -0.011265376 0.041997723
0.45400739 -0.010343225 0.041992102
0.45403543 -0.0094210766 0.041986484
0.45406345 -0.0084989294 0.041980863
0.45321134 -0.0076265521 0.041469745
0.4541195 -0.0066546383 0.041969623
0.45414755 -0.0057324907 0.041964006
0.45329556 -0.0048553324 0.041452859
0.45332366 -0.003931595 0.04144723
0.45335174 -0.0030078501 0.041441601
0.45337981 -0.0020841127 0.041435972
0.45340788 -0.0011603752 0.041430343
0.45343596 -0.00023663402 0.041424714
0.45346403 0.00068710343 0.041419085
0.45349211 0.0016108446 0.041413456
0.45352018 0.0025345858 0.041407827
0.45354828 0.0034583232 0.041402198
0.45357636 0.0043820627 0.041396569
0.45360443 0.005305802 0.041390941
0.4536325 0.0062295431 0.041385312
0.45366058 0.0071532824 0.041379683
0.45368865 0.0080770198 0.041374054
0.45283747 0.0089796595 0.04086275
0.4528656 0.0099049946 0.040857114
0.4528937 0.010830326 0.040851474
0.45292184 0.011755656 0.040845834
0.45294997 0.012680992 0.040840197
0.4529781 0.013606323 0.040834557
0.45212725 0.014520111 0.040323187
0.45215541 0.015447035 0.040317539
0.45218357 0.016373962 0.040311892
0.45133293 0.01729412 0.039800484
0.45136115 0.018222636 0.039794825
0.45051056 0.019147573 0.039283361
0.45053884 0.020077685 0.039277691
0.44968846 0.0210074 0.038766228
0.44971678 0.021939103 0.03876055
0.44974512 0.022870805 0.038754873
0.44977343 0.023802508 0.038749192
0.44892329 0.024740186 0.03823768
0.45212999 -0.033607807 0.040406033
0.45215812 -0.032682475 0.040400393
0.45218623 -0.031757139 0.040394753
0.45221436 -0.030831803 0.040389117
0.45312279 -0.029818445 0.040889975
0.45315087 -0.028894704 0.040884346
0.45317894 -0.027970972 0.040878717
0.45320702 -0.02704723 0.040873088
0.45323509 -0.026123492 0.040867459
0.45414323 -0.025119683 0.041368373
0.45417127 -0.024197534 0.041362751
0.45419928 -0.02327539 0.041357134
0.45422733 -0.022353243 0.041351512
0.45425534 -0.021431096 0.041345894
0.45428339 -0.020508952 0.041340277
0.4543114 -0.019586805 0.041334655
0.45433944 -0.018664656 0.041329037
0.45436746 -0.017742505 0.041323416
0.45351586 -0.016886093 0.04081117
0.45354393 -0.015962355 0.040805541
0.45357203 -0.015038613 0.040799912
0.45360011 -0.014114875 0.040794283
0.45362818 -0.013191135 0.040788654
0.45365626 -0.012267397 0.040783025
0.45368433 -0.01134366 0.040777396
0.4537124 -0.010419914 0.040771767
0.45374048 -0.0094961775 0.040766139
0.45376855 -0.0085724359 0.04076051
0.45379665 -0.007648699 0.040754877
0.45382473 -0.0067249578 0.040749248
0.4538528 -0.0058012204 0.040743619
0.45388088 -0.0048774788 0.04073799
0.45390895 -0.0039537414 0.040732361
0.45393702 -0.0030299968 0.040726732
0.4539651 -0.0021062593 0.040721104
0.45399317 -0.0011825218 0.040715475
0.45402125 -0.00025878067 0.040709846
0.45404935 0.00066495675 0.040704217
0.45319876 0.0015548186 0.040191762
0.45322689 0.0024801535 0.040186122
0.45325503 0.0034054846 0.040180482
0.45328313 0.0043308157 0.040174846
0.45331126 0.0052561467 0.040169206
0.4533394 0.0061814799 0.040163565
0.45336753 0.0071068127 0.040157929
0.45339563 0.008032144 0.040152289
0.45342377 0.0089574745 0.040146649
0.4534519 0.0098828096 0.040141013
0.45348004 0.010808141 0.040135372
0.45350814 0.011733471 0.040129736
0.45265821 0.012644039 0.039617151
0.45268637 0.013570963 0.039611503
0.45271456 0.014497887 0.039605852
0.45274273 0.015424812 0.039600205
0.45189303 0.016343342 0.039087579
0.45192125 0.017271858 0.03908192
0.45194948 0.018200375 0.039076261
0.4510999 0.019125275 0.038563561
0.45025051 0.020053359 0.038050875
0.45027882 0.020985061 0.038045198
0.45030713 0.021916764 0.03803952
0.44945791 0.022851219 0.03752679
0.44948629 0.023784515 0.037521105
0.44951466 0.02471781 0.037515417
0.44866565 0.025658635 0.037002649
0.45186499 -0.0327975 0.039176583
0.45189318 -0.03187057 0.039170936
0.45192134 -0.030943651 0.039165288
0.45194951 -0.03001673 0.039159637
0.45285693 -0.029003326 0.039661732
0.45288506 -0.028077999 0.039656091
0.45291319 -0.027152663 0.039650455
0.4529413 -0.026227333 0.039644815
0.45384848 -0.025221894 0.040146951
0.45387655 -0.024298158 0.040141322
0.45390463 -0.023374416 0.040135693
0.4539327 -0.022450678 0.040130064
0.45396078 -0.021526936 0.040124435
0.45398888 -0.0206032 0.040118806
0.45401695 -0.019679459 0.040113177
0.45404503 -0.018755721 0.040107548
0.4540731 -0.017831976 0.040101919
0.45410118 -0.01690824 0.04009629
0.45412925 -0.015984502 0.040090661
0.45415732 -0.01506076 0.040085033
0.45330694 -0.014198014 0.039571512
0.45333508 -0.013272682 0.039565872
0.45336318 -0.012347352 0.039560236
0.45339131 -0.01142202 0.039554596
0.45341945 -0.010496682 0.039548956
0.45344758 -0.0095713511 0.039543319
0.45347568 -0.0086460197 0.039537679
0.45350382 -0.0077206884 0.039532039
0.45353195 -0.0067953574 0.039526403
0.45356008 -0.0058700228 0.039520763
0.45358819 -0.0049446914 0.039515126
0.45361632 -0.0040193605 0.039509486
0.45364445 -0.0030940257 0.039503846
0.45367259 -0.0021686945 0.03949821
0.45370069 -0.0012433634 0.03949257
0.45372882 -0.00031802859 0.03948693
0.45375696 0.00060730247 0.039481293
0.45378509 0.0015326336 0.039475653
0.4538132 0.0024579684 0.039470013
0.45384133 0.0033832996 0.039464377
0.45386946 0.0043086307 0.039458737
0.4538976 0.0052339616 0.0394531
0.4539257 0.0061592949 0.03944746
0.45395383 0.0070846276 0.03944182
0.45310467 0.0079871891 0.038928054
0.45313284 0.008914114 0.038922403
0.453161 0.0098410407 0.038916755
0.45318919 0.010767966 0.038911108
0.45321736 0.011694889 0.03890546
0.45324552 0.012621815 0.038899809
0.45239669 0.013535527 0.03838598
0.45242491 0.014464044 0.038380321
0.45245314 0.015392562 0.038374662
0.45248136 0.01632108 0.038369007
0.45250958 0.017249597 0.038363349
0.45166099 0.018172864 0.037849426
0.45168924 0.019102976 0.03784376
0.45084086 0.02003102 0.037329834
0.45086917 0.020962724 0.037324157
0.45089749 0.021894427 0.037318479
0.45004928 0.022828843 0.036804523
0.45007765 0.023762139 0.036798835
0.4492296 0.024701333 0.036284845
0.449258 0.02563622 0.036279149
0.45154566 -0.033841126 0.037955977
0.45157388 -0.032912605 0.037950318
0.4516021 -0.031984087 0.03794466
0.45250866 -0.030965874 0.038447954
0.45165855 -0.030127052 0.037933346
0.45256501 -0.029112024 0.038436655
0.45259318 -0.028185103 0.038431007
0.45262137 -0.027258178 0.03842536
0.45352763 -0.026249519 0.038928714
0.45355573 -0.025324183 0.038923077
0.45358387 -0.024398852 0.038917437
0.453612 -0.02347352 0.038911797
0.45364013 -0.022548186 0.038906161
0.45366824 -0.021622855 0.038900521
0.45369637 -0.020697523 0.038894881
0.4537245 -0.019772192 0.038889244
0.45375264 -0.018846862 0.038883604
0.45378074 -0.017921526 0.038877968
0.45380887 -0.016996192 0.038872328
0.45383701 -0.016070861 0.038866688
0.45386514 -0.01514553 0.038861051
0.45389324 -0.014220199 0.038855411
0.45392138 -0.013294867 0.038849771
0.45394951 -0.012369537 0.038844135
0.45397764 -0.011444205 0.038838495
0.45400575 -0.010518867 0.038832854
0.45403388 -0.0095935352 0.038827218
0.45406201 -0.0086682048 0.038821578
0.45409015 -0.0077428734 0.038815942
0.45411825 -0.0068175425 0.038810302
0.45414639 -0.0058922074 0.038804661
0.45417452 -0.0049668765 0.038799025
0.45420265 -0.0040415451 0.038793385
0.45423076 -0.0031162105 0.038787745
0.45338207 -0.002231206 0.03827285
0.45341024 -0.0013042813 0.038267203
0.4534384 -0.00037735648 0.038261555
0.45346659 0.00054956827 0.038255908
0.45349476 0.0014764931 0.038250256
0.45352295 0.0024034178 0.038244609
0.45355111 0.0033303425 0.038238961
0.45357928 0.0042572673 0.038233314
0.45360747 0.0051841922 0.038227662
0.45363563 0.0061111185 0.038222015
0.4536638 0.0070380433 0.038216367
0.45369199 0.0079649659 0.03821072
0.45372015 0.0088918908 0.038205069
0.45287213 0.0097991955 0.037690043
0.45290035 0.010727714 0.037684388
0.45292857 0.01165623 0.03767873
0.4529568 0.01258475 0.037673071
0.45298502 0.013513266 0.037667412
0.45301324 0.014441783 0.037661754
0.45216551 0.015360234 0.037146628
0.45219377 0.016290344 0.037140962
0.45222205 0.017220454 0.037135296
0.45225033 0.018150566 0.037129626
0.45140287 0.019076981 0.036614485
0.45143119 0.020008683 0.036608808
0.45145953 0.020940388 0.03660313
0.45148784 0.021872088 0.036597453
0.45064065 0.022806467 0.036082257
0.45066902 0.023739763 0.036076568
0.44982195 0.024678919 0.035561349
0.44985038 0.025613807 0.035555653
0.45037901 -0.034052417 0.036217064
0.45128477 -0.033027787 0.03672155
0.45131302 -0.032097679 0.036715884
0.4513413 -0.031167572 0.036710214
0.45136958 -0.030237464 0.036704548
0.45227513 -0.029220799 0.037209112
0.45230335 -0.028292283 0.037203457
0.45233157 -0.027363764 0.037197798
0.45323685 -0.026353477 0.03770237
0.45326504 -0.025426548 0.037696723
0.4532932 -0.024499623 0.037691075
0.4533214 -0.023572698 0.037685424
0.45334956 -0.022645773 0.037679777
0.45337772 -0.021718848 0.037674129
0.45340592 -0.020791924 0.037668481
0.45343408 -0.019864999 0.03766283
0.45346224 -0.018938079 0.037657183
0.45349044 -0.018011151 0.037651535
0.4535186 -0.017084226 0.037645888
0.45354679 -0.016157301 0.037640236
0.45357496 -0.015230376 0.037634589
0.45360312 -0.014303451 0.037628941
0.45363131 -0.013376527 0.037623294
0.45365947 -0.012449602 0.037617642
0.45368764 -0.011522681 0.037611995
0.45371583 -0.010595748 0.037606347
0.45374399 -0.0096688271 0.0376007
0.45377219 -0.0087419022 0.037595052
0.45380035 -0.0078149773 0.037589401
0.45382851 -0.0068880529 0.037583753
0.45385671 -0.005961128 0.037578106
0.45388487 -0.0050342036 0.037572458
