# .PCD v0.7 - Point Cloud Data file format
VERSION 0.7
FIELDS x y z
SIZE 4 4 4
TYPE F F F
COUNT 1 1 1
WIDTH 1406
HEIGHT 1
VIEWPOINT 0 0 0 1 0 0 0
POINTS 1406
DATA ascii
0.40877277 0.14278945 0.029349109
0.40791515 0.14398095 0.028854512
0.40705767 0.14517562 0.028359924
0.40620029 0.14637347 0.027865313
0.40623072 0.14737365 0.027859218
0.40537348 0.14857629 0.02736458
0.40451628 0.14978211 0.026869897
0.4045468 0.15078548 0.026863782
0.4036898 0.15199608 0.026369097
0.40387678 0.078427695 0.027016629
0.40390721 0.07942947 0.027010525
0.40393767 0.080431253 0.027004421
0.40396813 0.081433035 0.026998315
0.40488839 0.082337521 0.027481347
0.40491879 0.083337709 0.027475253
0.40494919 0.084337898 0.027469158
0.40586925 0.085236013 0.027952228
0.40589961 0.086234614 0.027946142
0.40681955 0.087127946 0.028429242
0.40684983 0.088124953 0.028423166
0.40776968 0.089013509 0.028906321
0.40868938 0.089898884 0.029389463
0.40960896 0.090781085 0.02987263
0.40963912 0.091773309 0.029866584
0.40966928 0.092765525 0.029860537
0.41058868 0.093641348 0.030343745
0.41061878 0.094631977 0.030337708
0.41064888 0.095622607 0.030331671
0.41067901 0.096613243 0.030325634
0.41070911 0.097603872 0.030319598
0.41073921 0.098594509 0.030313561
0.41076934 0.099585131 0.030307524
0.41079944 0.10057577 0.030301487
0.41082954 0.1015664 0.03029545
0.41085967 0.10255703 0.030289415
0.41088977 0.10354766 0.030283378
0.41091987 0.10453829 0.030277342
0.41095001 0.10552892 0.030271305
0.41009149 0.10665666 0.02977589
0.41012165 0.10764888 0.029769843
0.41015181 0.10864111 0.029763797
0.41018197 0.10963333 0.029757749
0.41021213 0.11062556 0.029751703
0.41024229 0.11161778 0.029745657
0.41027245 0.11261 0.029739611
0.41030261 0.11360223 0.029733565
0.41033277 0.11459444 0.029727519
0.41036293 0.11558668 0.029721472
0.41039309 0.1165789 0.029715426
0.41042325 0.11757112 0.02970938
0.41045341 0.11856335 0.029703334
0.41048357 0.11955556 0.029697286
0.41051373 0.12054779 0.02969124
0.41054389 0.12154001 0.029685194
0.41057405 0.12253224 0.029679148
0.41060421 0.12352446 0.029673101
0.41063437 0.12451669 0.029667055
0.41066453 0.1255089 0.029661009
0.41069469 0.12650113 0.029654963
0.41072485 0.12749335 0.029648917
0.41075501 0.12848558 0.029642871
0.41078517 0.12947781 0.029636823
0.41081533 0.13047002 0.029630776
0.41084549 0.13146225 0.02962473
0.41087565 0.13245448 0.029618684
0.41090581 0.13344669 0.029612638
0.41093597 0.13443893 0.029606592
0.41096613 0.13543114 0.029600546
0.41099629 0.13642338 0.0295945
0.41013932 0.13760206 0.029098773
0.41016954 0.13859589 0.029092718
0.40931273 0.13977936 0.028596967
0.40934297 0.14077477 0.028590903
0.40848628 0.14196305 0.028095093
0.40851659 0.14296004 0.028089017
0.40766007 0.14415309 0.027593203
0.40769041 0.14515167 0.027587118
0.40683407 0.14634949 0.027091276
0.40597779 0.14755048 0.026595414
0.40512156 0.14875467 0.026099507
0.40515205 0.14975806 0.026093392
0.40429601 0.15096702 0.025597489
0.40432656 0.15197198 0.025591364
0.4034707 0.15318573 0.025095424
0.40350127 0.15419228 0.02508929
0.40451151 0.078403674 0.02624137
0.40454197 0.079405457 0.026235266
0.40546131 0.080313168 0.026719511
0.40549171 0.081313357 0.026713416
0.40552214 0.082313545 0.026707321
0.40555254 0.083313733 0.026701225
0.40558293 0.084313914 0.02669513
0.40650198 0.085212074 0.027179429
0.40653235 0.086210668 0.027173344
0.40745127 0.087104045 0.027657676
0.40837014 0.087994233 0.028142055
0.40840039 0.088989645 0.028135989
0.40931907 0.089875057 0.028620364
0.41023764 0.090757295 0.029104766
0.4102678 0.091749519 0.029098719
0.41029796 0.092741735 0.029092673
0.41032812 0.093733959 0.029086625
0.41035828 0.094726183 0.029080579
0.41038844 0.095718406 0.029074533
0.4104186 0.096710637 0.029068487
0.41044876 0.097702861 0.029062441
0.41047892 0.098695077 0.029056394
0.41050908 0.099687301 0.029050348
0.41053924 0.10067952 0.029044302
0.4105694 0.10167175 0.029038256
0.41059956 0.10266398 0.02903221
0.41062972 0.1036562 0.029026162
0.41065988 0.10464843 0.029020116
0.41069004 0.10564065 0.02901407
0.4107202 0.10663287 0.029008023
0.41075036 0.1076251 0.029001977
0.41078052 0.10861732 0.028995931
0.41081068 0.10960954 0.028989885
0.41084084 0.11060177 0.028983839
0.410871 0.11159399 0.028977793
0.41090116 0.11258622 0.028971747
0.41093132 0.11357844 0.028965699
0.41096148 0.11457065 0.028959652
0.41099164 0.11556289 0.028953606
0.4110218 0.11655511 0.02894756
0.41105196 0.11754733 0.028941514
0.41108212 0.11853956 0.028935468
0.41111228 0.11953177 0.028929422
0.41114244 0.120524 0.028923376
0.41117257 0.12151622 0.028917329
0.41120273 0.12250845 0.028911281
0.41123289 0.12350067 0.028905235
0.41126305 0.1244929 0.028899189
0.41129321 0.12548512 0.028893143
0.41132337 0.12647735 0.028887097
0.41135353 0.12746957 0.028881051
0.41138369 0.12846179 0.028875005
0.41141385 0.12945402 0.028868958
0.41144401 0.13044624 0.028862912
0.41058779 0.13161534 0.028366011
0.41061801 0.13260916 0.028359955
0.4106482 0.13360298 0.028353898
0.41067842 0.13459679 0.028347842
0.41070861 0.13559061 0.028341787
0.41073883 0.13658443 0.02833573
0.40988293 0.13776468 0.027838767
0.40991318 0.13876009 0.027832702
0.40994343 0.13975549 0.027826635
0.40908769 0.14094214 0.027329601
0.409118 0.14193915 0.027323527
0.40826243 0.14313054 0.02682649
0.4082928 0.14412914 0.026820404
0.40743738 0.14532532 0.026323345
0.40658209 0.1465247 0.025826259
0.40572682 0.14772725 0.025329128
0.40575731 0.14873062 0.025323013
0.40490225 0.14993796 0.02482588
0.4049328 0.15094292 0.024819756
0.40496334 0.15194789 0.024813632
0.40410846 0.15316159 0.024316465
0.40413907 0.15416814 0.024310332
0.40603426 0.078288816 0.025957663
0.40517673 0.079381436 0.025459994
0.40520719 0.080383219 0.02545389
0.40612546 0.081289381 0.025939377
0.40615588 0.082289562 0.025933282
0.40618628 0.08328975 0.025927188
0.40710437 0.084189542 0.026412709
0.40713474 0.085188136 0.026406623
0.40805268 0.086083144 0.026892181
0.40808299 0.087080143 0.026886106
0.4081133 0.088077143 0.02688003
0.40903112 0.088965781 0.027365651
0.4099488 0.089851238 0.027851259
0.40997899 0.090845048 0.027845204
0.41089651 0.091725729 0.028330842
0.41092667 0.092717946 0.028324796
0.41095683 0.093710169 0.02831875
0.41098699 0.094702393 0.028312704
0.41101715 0.095694616 0.028306656
0.41104731 0.096686848 0.028300609
0.41107747 0.097679071 0.028294563
0.41110763 0.098671295 0.028288517
0.41113779 0.099663518 0.028282471
0.41116795 0.10065574 0.028276425
0.41031128 0.10177702 0.027778588
0.41034147 0.10277084 0.027772531
0.41037169 0.10376466 0.027766475
0.41040188 0.10475848 0.02776042
0.4104321 0.1057523 0.027754363
0.41046232 0.10674611 0.027748307
0.41049251 0.10773993 0.027742252
0.41052273 0.10873374 0.027736194
0.41055292 0.10972755 0.027730139
0.41058314 0.11072137 0.027724084
0.40972701 0.11186019 0.027226139
0.40975726 0.1128556 0.027220072
0.40978751 0.113851 0.027214007
0.40981776 0.11484641 0.027207941
0.40984803 0.11584182 0.027201876
0.40987828 0.11683723 0.027195809
0.40990853 0.11783264 0.027189745
0.40993878 0.11882805 0.027183678
0.40996903 0.11982345 0.027177613
0.40999931 0.12081887 0.027171547
0.41002956 0.12181427 0.027165482
0.41005981 0.12280969 0.027159415
0.41009006 0.12380509 0.02715335
0.41012031 0.1248005 0.027147284
0.41103625 0.12562862 0.027633242
0.41106644 0.12662244 0.027627187
0.41109666 0.12761626 0.02762113
0.41112688 0.12861006 0.027615074
0.41027161 0.12977755 0.027116956
0.41030186 0.13077295 0.02711089
0.41033211 0.13176836 0.027104825
0.41036236 0.13276377 0.027098758
0.41039261 0.13375917 0.027092692
0.41042289 0.1347546 0.027086627
0.41045314 0.13575 0.02708056
0.41048339 0.13674541 0.027074495
0.41051364 0.13774082 0.027068429
0.40965882 0.13892423 0.026570182
0.40968913 0.13992123 0.026564106
0.40971941 0.14091824 0.02655803
0.40886483 0.14210801 0.026059771
0.40889519 0.14310659 0.026053686
0.40804073 0.14430116 0.025555402
0.40807113 0.14530134 0.025549306
0.40721685 0.14650068 0.025050988
0.40724728 0.14750244 0.025044883
0.40639308 0.14870657 0.02454651
0.40642357 0.14970994 0.024540395
0.40556955 0.15091883 0.024042023
0.4056001 0.15192379 0.024035899
0.40474626 0.15313746 0.023537494
0.40477684 0.15414402 0.023531361
0.40666801 0.078264832 0.025183624
0.40669841 0.079265021 0.025177529
0.4067288 0.080265209 0.025171435
0.40675923 0.081265397 0.02516534
0.40678963 0.082265586 0.025159245
0.40682003 0.083265774 0.025153151
0.40773711 0.084165595 0.025639905
0.40776747 0.085164189 0.025633819
0.40868443 0.086059235 0.026120603
0.40871471 0.087056242 0.026114529
0.40874502 0.088053241 0.026108453
0.40966183 0.088941917 0.026595308
0.40969208 0.089937329 0.026589241
0.41060871 0.090821221 0.027076099
0.4106389 0.09181504 0.027070044
0.41066912 0.092808858 0.027063986
0.41069931 0.093802668 0.027057931
0.41072953 0.094796486 0.027051875
0.41075975 0.095790304 0.027045818
0.41078994 0.096784122 0.027039763
0.41082016 0.09777794 0.027033707
0.41085035 0.098771751 0.027027652
0.41088057 0.099765569 0.027021594
0.41002491 0.10088682 0.026522519
0.41005516 0.10188223 0.026516452
0.41008541 0.10287764 0.026510388
0.41011566 0.10387304 0.026504321
0.41014594 0.10486846 0.026498256
0.41017619 0.10586387 0.02649219
0.41020644 0.10685927 0.026486123
0.41023669 0.10785468 0.026480058
0.41026697 0.10885009 0.026473992
0.41029721 0.1098455 0.026467927
0.41032746 0.11084091 0.02646186
0.41035771 0.11183632 0.026455795
0.41038796 0.11283173 0.026449729
0.41041824 0.11382714 0.026443664
0.41044849 0.11482254 0.026437597
0.41047874 0.11581796 0.026431533
0.41050899 0.11681337 0.026425466
0.41053927 0.11780877 0.026419401
0.41056952 0.11880419 0.026413335
0.41059977 0.11979958 0.02640727
0.41063002 0.120795 0.026401203
0.41066027 0.12179041 0.026395138
0.41069055 0.12278582 0.026389072
0.4107208 0.12378122 0.026383007
0.41075104 0.12477663 0.02637694
0.41078129 0.12577206 0.026370874
0.41081154 0.12676744 0.026364809
0.41084182 0.12776287 0.026358742
0.41087207 0.12875827 0.026352677
0.41090232 0.12975368 0.026346611
0.41093257 0.13074909 0.026340546
0.41096285 0.13174449 0.026334479
0.4109931 0.13273992 0.026328415
0.41102335 0.13373531 0.026322348
0.4110536 0.13473073 0.026316283
0.41019964 0.13590932 0.025816832
0.41022992 0.13690633 0.025810756
0.41026023 0.13790332 0.02580468
0.41029054 0.13890032 0.025798604
0.40943685 0.14008687 0.025299136
0.40946722 0.14108548 0.02529305
0.40949756 0.14208406 0.025286965
0.40864408 0.14327699 0.024787458
0.40867448 0.14427719 0.024781363
0.40870488 0.14527735 0.024775269
0.40785158 0.14647666 0.024275722
0.40699834 0.14767914 0.023776125
0.40702885 0.1486825 0.02377001
0.40705934 0.14968589 0.023763897
0.40620634 0.15089473 0.023264285
0.40623689 0.1518997 0.023258163
0.40626743 0.15290466 0.023252038
0.40541464 0.15411988 0.022752395
0.40544522 0.15512644 0.022746261
0.40730175 0.078240857 0.024409592
0.40733215 0.079241045 0.024403498
0.40736255 0.080241226 0.024397403
0.40739295 0.081241421 0.024391308
0.40742335 0.082241602 0.024385212
0.4083395 0.083143063 0.024873191
0.40836984 0.084141657 0.024867106
0.40840021 0.085140251 0.024861021
0.40931615 0.086035334 0.025349043
0.40934643 0.087032333 0.025342969
0.40937674 0.08802934 0.025336893
0.41029254 0.088918053 0.025824975
0.41032282 0.089913458 0.025818909
0.41035306 0.09090887 0.025812844
0.41038331 0.091904275 0.025806777
0.41041356 0.092899688 0.025800712
0.41044384 0.093895093 0.025794646
0.41047409 0.094890505 0.025788581
0.41050434 0.09588591 0.025782514
0.41053459 0.096881323 0.02577645
0.41056484 0.097876735 0.025770383
0.41059512 0.09887214 0.025764318
0.41062537 0.099867553 0.025758252
0.41065562 0.10086295 0.025752187
0.41068587 0.10185836 0.02574612
0.41071612 0.10285378 0.025740055
0.40986162 0.10398136 0.025239686
0.40989193 0.10497838 0.02523361
0.40992221 0.10597537 0.025227536
0.40995252 0.10697237 0.02522146
0.40998283 0.10796937 0.025215384
0.41001314 0.10896638 0.025209308
0.41004345 0.10996337 0.025203234
0.41007376 0.11096038 0.025197158
0.41010404 0.11195738 0.025191082
0.41013435 0.11295439 0.025185006
0.41016465 0.11395139 0.025178932
0.41019496 0.11494838 0.025172856
0.41022527 0.11594539 0.02516678
0.41025558 0.11694239 0.025160704
0.41028586 0.11793939 0.02515463
0.41031617 0.1189364 0.025148554
0.41034648 0.1199334 0.025142478
0.41037679 0.1209304 0.025136404
0.4104071 0.1219274 0.025130328
0.41043741 0.1229244 0.025124252
0.41046768 0.12392139 0.025118176
0.41049799 0.1249184 0.025112102
0.4105283 0.12591541 0.025106026
0.41055861 0.1269124 0.02509995
0.41058892 0.12790941 0.025093874
0.41061923 0.12890641 0.0250878
0.41064954 0.12990341 0.025081724
0.41067982 0.13090041 0.025075648
0.41071013 0.13189742 0.025069572
0.41074044 0.13289441 0.025063498
0.41077074 0.13389142 0.025057422
0.41080105 0.13488843 0.025051346
0.41083136 0.13588542 0.025045272
0.41086164 0.13688242 0.025039196
0.41089195 0.13787942 0.02503312
0.41003925 0.13906434 0.024532422
0.41006958 0.14006293 0.024526337
0.41009995 0.14106153 0.024520252
0.40924743 0.14225282 0.024019521
0.40927783 0.14325301 0.024013426
0.40930822 0.14425319 0.024007332
0.40845591 0.14545085 0.023506561
0.40848634 0.14645264 0.023500457
0.40763411 0.14765508 0.022999626
0.4076646 0.14865845 0.022993512
0.40769511 0.14966184 0.022987397
0.4068431 0.15087064 0.02248656
0.40687364 0.1518756 0.022480436
0.40690419 0.15288056 0.022474311
0.40693474 0.15388553 0.022468187
0.40608299 0.1551023 0.021967301
0.4079355 0.078216873 0.023635555
0.4079659 0.079217061 0.023629459
0.4079963 0.08021725 0.023623364
0.40891153 0.081121936 0.024112556
0.40894189 0.08212053 0.024106471
0.40897223 0.083119124 0.024100387
0.40900257 0.084117711 0.024094302
0.40903294 0.085116312 0.024088217
0.40994787 0.086011432 0.024577467
0.40997818 0.087008432 0.024571391
0.41000849 0.088005431 0.024565317
0.41003877 0.089002445 0.024559241
0.41006908 0.089999445 0.024553165
0.41098377 0.090885006 0.025042506
0.41101402 0.091880411 0.025036439
0.4110443 0.092875823 0.025030375
0.41107455 0.093871228 0.025024308
0.4111048 0.094866633 0.025018243
0.41113505 0.095862046 0.025012176
0.41116533 0.096857458 0.025006112
0.41031152 0.097975455 0.024504561
0.41034183 0.098972455 0.024498485
0.41037214 0.099969454 0.024492411
0.41040245 0.10096646 0.024486335
0.41043273 0.10196345 0.024480259
0.41046304 0.10296046 0.024474185
0.41049334 0.10395746 0.024468109
0.41052365 0.10495447 0.024462033
0.41055396 0.10595147 0.024455957
0.41058427 0.10694847 0.024449883
0.41061455 0.10794547 0.024443807
0.41064486 0.10894247 0.024437731
0.41067517 0.10993947 0.024431655
0.41070548 0.11093648 0.024425581
0.41073579 0.11193348 0.024419505
0.41076609 0.11293048 0.024413429
0.4107964 0.11392748 0.024407353
0.41082668 0.11492448 0.024401279
0.40997386 0.11607273 0.023899576
0.41000423 0.11707133 0.02389349
0.41003457 0.11806992 0.023887405
0.41006494 0.11906852 0.02388132
0.41009527 0.12006711 0.023875237
0.41012564 0.12106571 0.023869151
0.41015598 0.12206429 0.023863066
0.41018635 0.12306289 0.023856981
0.41021669 0.12406148 0.023850895
0.41024706 0.12506008 0.02384481
0.4102774 0.12605868 0.023838725
0.41030774 0.12705727 0.02383264
0.4103381 0.12805587 0.023826554
0.41036844 0.12905446 0.023820469
0.41039881 0.13005306 0.023814384
0.41042915 0.13105164 0.023808299
0.41045952 0.13205023 0.023802213
0.41048986 0.13304883 0.023796128
0.41052023 0.13404743 0.023790043
0.41055056 0.13504602 0.023783958
0.41058093 0.13604462 0.023777872
0.41061127 0.13704321 0.023771787
0.41064164 0.13804179 0.023765704
0.41067198 0.1390404 0.023759618
0.40982038 0.14022847 0.023257673
0.40985078 0.14122865 0.023251578
0.40988117 0.14222884 0.023245484
0.40991157 0.14322902 0.023239389
0.40994197 0.14422922 0.023233293
0.40909064 0.14542684 0.022731291
0.4091211 0.14642861 0.022725185
0.40826988 0.14763102 0.022223128
0.40830037 0.1486344 0.022217013
0.40833086 0.14963777 0.022210898
0.40836138 0.15064114 0.022204785
0.40751043 0.15185151 0.021702703
0.40754098 0.15285647 0.021696579
0.40757152 0.15386143 0.021690456
0.40760207 0.1548664 0.021684332
0.40856925 0.078192897 0.022861527
0.40859964 0.079193085 0.022855433
0.40951389 0.080099396 0.023345849
0.40954426 0.08109799 0.023339763
0.4095746 0.082096584 0.023333678
0.40960497 0.083095185 0.023327593
0.40963531 0.084093772 0.023321507
0.40966567 0.085092366 0.023315424
0.40969601 0.08609096 0.023309339
0.40972638 0.087089553 0.023303254
0.41064021 0.08798153 0.023793757
0.41067049 0.088978536 0.023787681
0.4107008 0.089975543 0.023781605
0.41073111 0.090972543 0.023775529
0.41076142 0.091969542 0.023769455
0.41079172 0.092966542 0.023763379
0.41082203 0.093963541 0.023757303
0.41085231 0.094960548 0.023751227
0.41088262 0.095957547 0.023745153
0.41091293 0.096954554 0.023739077
0.41094324 0.097951554 0.023733001
0.41097355 0.098948553 0.023726925
0.41100386 0.099945553 0.023720851
0.4101513 0.10106988 0.02321806
0.41018167 0.10206847 0.023211975
0.41021201 0.10306706 0.023205891
0.41024238 0.10406566 0.023199806
0.41027272 0.10506426 0.023193721
0.41030309 0.10606285 0.023187635
0.41033342 0.10706144 0.02318155
0.41036376 0.10806004 0.023175465
0.41039413 0.10905863 0.02316938
0.41042447 0.11005722 0.023163294
0.41045484 0.11105582 0.023157209
0.41048518 0.11205441 0.023151124
0.41051555 0.11305301 0.023145039
0.41054589 0.11405161 0.023138953
0.41057625 0.11505019 0.023132868
0.41060659 0.11604879 0.023126783
0.41063696 0.11704738 0.023120698
0.4106673 0.11804598 0.023114612
0.41069767 0.11904458 0.023108527
0.41072801 0.12004317 0.023102442
0.41075838 0.12104177 0.023096357
0.41078871 0.12204035 0.023090273
0.41081905 0.12303895 0.023084188
0.41084942 0.12403754 0.023078103
0.41087976 0.12503614 0.023072017
0.41091013 0.12603474 0.023065932
0.41094047 0.12703332 0.023059847
0.41097084 0.12803192 0.023053762
0.41100118 0.12903051 0.023047676
0.41103154 0.13002911 0.023041591
0.41106188 0.1310277 0.023035506
0.41109225 0.1320263 0.023029421
0.41112259 0.1330249 0.023023335
0.41115296 0.13402349 0.02301725
0.4111833 0.13502209 0.023011165
0.41121367 0.13602068 0.023005079
0.4103629 0.13720393 0.022501931
0.4103933 0.13820411 0.022495836
0.4104237 0.13920431 0.022489741
0.41045409 0.14020447 0.022483647
0.41048452 0.14120467 0.022477552
0.41051492 0.14220487 0.022471456
0.41054532 0.14320505 0.022465361
0.40969494 0.14440104 0.021962134
0.4097254 0.14540282 0.02195603
0.40887514 0.1466036 0.021452742
0.40890563 0.14760697 0.021446628
0.40893614 0.14861034 0.021440513
0.40896663 0.14961372 0.0214344
0.40811664 0.15082245 0.0209311
0.40902764 0.15162046 0.021422172
0.40817773 0.15283237 0.020918854
0.40820828 0.15383734 0.020912729
0.40823883 0.1548423 0.020906605
0.40832004 0.078259572 0.021589765
0.40923339 0.079169102 0.022081396
0.40926379 0.08016929 0.022075301
0.40929419 0.081169479 0.022069205
0.40932459 0.082169667 0.02206311
0.40935498 0.083169855 0.022057015
0.41026804 0.084069833 0.022548703
0.41029841 0.085068427 0.022542618
0.41032875 0.086067021 0.022536533
0.41035911 0.087065615 0.022530448
0.41038945 0.088064209 0.022524362
0.41041982 0.089062802 0.022518277
0.41045016 0.090061396 0.022512192
0.41048053 0.091059998 0.022506109
0.41051087 0.092058584 0.022500023
0.41054124 0.093057178 0.022493938
0.41057158 0.094055772 0.022487853
0.41060194 0.095054366 0.022481767
0.41063228 0.09605296 0.022475682
0.41066265 0.097051561 0.022469597
0.41069299 0.098050155 0.022463512
0.41072333 0.099048749 0.022457426
0.4107537 0.10004734 0.022451341
0.41078404 0.10104594 0.022445256
0.4108144 0.10204453 0.022439171
0.41084474 0.10304312 0.022433085
0.41087511 0.10404172 0.022427
0.41090545 0.10504032 0.022420915
0.41005421 0.10617416 0.021916835
0.41008464 0.10717434 0.021910738
0.41011503 0.10817453 0.021904644
0.41014543 0.10917471 0.021898549
0.41017583 0.1101749 0.021892454
0.41020623 0.11117508 0.02188636
0.41023663 0.11217527 0.021880265
0.41026703 0.11317546 0.021874171
0.41029742 0.11417565 0.021868074
0.41032782 0.11517583 0.02186198
0.41035822 0.11617602 0.021855885
0.41038862 0.11717621 0.021849791
0.41041902 0.11817639 0.021843696
0.41044945 0.11917658 0.021837601
0.41047984 0.12017677 0.021831505
0.41051024 0.12117696 0.02182541
0.41054064 0.12217714 0.021819316
0.41057104 0.12317733 0.021813221
0.41060144 0.12417752 0.021807127
0.41063184 0.12517771 0.021801032
0.41066223 0.12617789 0.021794936
0.41069263 0.12717807 0.021788841
0.41072303 0.12817827 0.021782747
0.41075343 0.12917845 0.021776652
0.41078386 0.13017863 0.021770557
0.41081426 0.13117883 0.021764463
0.41084465 0.13217901 0.021758368
0.41087505 0.1331792 0.021752272
0.41090545 0.13417938 0.021746177
0.41093585 0.13517958 0.021740083
0.41096625 0.13617976 0.021733988
0.41099665 0.13717994 0.021727894
0.41102704 0.13818014 0.021721799
0.41105744 0.13918032 0.021715702
0.41108784 0.1401805 0.021709608
0.41023836 0.14137168 0.021205178
0.41026881 0.14237346 0.021199074
0.41029927 0.14337525 0.021192968
0.40944991 0.14457281 0.020688472
0.40948039 0.14557616 0.020682357
0.40951091 0.14657953 0.020676244
0.4095414 0.14758292 0.020670129
0.40957189 0.14858629 0.020664016
0.4096024 0.14958966 0.020657901
0.40875342 0.15079835 0.020153364
0.40878397 0.15180333 0.02014724
0.40881452 0.15280828 0.020141115
0.40884507 0.15381324 0.020134991
0.40887561 0.15481821 0.020128867
0.40890616 0.15582319 0.020122744
0.4080728 0.078326173 0.020315522
0.40810329 0.079329543 0.020309407
0.40901569 0.08023911 0.020802297
0.40904614 0.081240892 0.020796193
0.4090766 0.082242675 0.020790087
0.40910703 0.08324445 0.020783983
0.41001913 0.08414606 0.021276889
0.41004953 0.085146248 0.021270795
0.41096148 0.086043082 0.021763735
0.41011035 0.087146617 0.021258604
0.41014075 0.088146806 0.021252509
0.41017115 0.089146994 0.021246415
0.41020155 0.090147182 0.02124032
0.41111326 0.091036052 0.021733308
0.4111436 0.092034645 0.021727223
0.41117397 0.093033239 0.021721138
0.41120431 0.094031833 0.021715054
0.41123468 0.095030427 0.021708969
0.41126502 0.096029021 0.021702884
0.41129538 0.097027615 0.021696799
0.41044477 0.098148681 0.021191562
0.41047516 0.09914887 0.021185465
0.41050556 0.10014905 0.021179371
0.41053596 0.10114924 0.021173276
0.41056636 0.10214942 0.021167181
0.41059676 0.10314962 0.021161087
0.41062716 0.1041498 0.021154992
0.41065755 0.10514999 0.021148896
0.41068795 0.10615017 0.021142801
0.41071835 0.10715036 0.021136707
0.41074875 0.10815054 0.021130612
0.41077918 0.10915074 0.021124518
0.41080958 0.11015092 0.021118423
0.41083997 0.11115111 0.021112327
0.41087037 0.11215129 0.021106232
0.41090077 0.11315148 0.021100137
0.41093117 0.11415166 0.021094043
0.41096157 0.11515185 0.021087948
0.41099197 0.11615204 0.021081854
0.41102237 0.11715224 0.021075759
0.41105276 0.11815241 0.021069663
0.41108316 0.11915261 0.021063568
0.41111359 0.12015279 0.021057473
0.41114399 0.12115298 0.021051379
0.41029456 0.12231385 0.020545905
0.41032502 0.12331563 0.0205398
0.41035548 0.12431741 0.020533696
0.41038591 0.1253192 0.02052759
0.41041636 0.12632097 0.020521486
0.41044682 0.12732275 0.020515382
0.41047725 0.12832454 0.020509277
0.41050771 0.1293263 0.020503173
0.41053817 0.13032809 0.020497069
0.41056862 0.13132986 0.020490963
0.41059905 0.13233165 0.020484859
0.41062951 0.13333343 0.020478755
0.41065997 0.1343352 0.020472649
0.4106904 0.135337 0.020466546
0.41072085 0.13633876 0.02046044
0.41075131 0.13734055 0.020454336
0.41078177 0.13834232 0.020448232
0.4108122 0.1393441 0.020442126
0.41084266 0.14034589 0.020436022
0.40999416 0.14153862 0.019930322
0.41002467 0.142542 0.019924209
0.41005516 0.14354537 0.019918093
0.41008565 0.14454874 0.01991198
0.41011617 0.14555211 0.019905865
0.41014665 0.14655548 0.01989975
0.41017714 0.14755885 0.019893637
0.41020766 0.14856222 0.019887522
0.40935963 0.14976929 0.019381762
0.40939018 0.15077426 0.019375637
0.40942073 0.15177923 0.019369513
0.40945128 0.15278418 0.019363388
0.40948182 0.15378915 0.019357266
0.40951237 0.15479413 0.019351142
0.40954292 0.15579909 0.019345017
0.40869531 0.1570189 0.018839179
0.40703848 0.081502944 0.01852024
0.40794984 0.082412556 0.019014331
0.40798038 0.08341752 0.019008206
0.40977225 0.084222212 0.020002607
0.40980271 0.085223995 0.019996503
0.4107137 0.086122453 0.020490661
0.4107441 0.087122642 0.020484567
0.4107745 0.088122822 0.020478472
0.4108049 0.089123018 0.020472376
0.4108353 0.090123199 0.020466281
0.41086569 0.091123395 0.020460187
0.41089609 0.092123576 0.020454092
0.41092649 0.093123764 0.020447997
0.41095689 0.094123952 0.020441903
0.41098729 0.09512414 0.020435808
0.41101769 0.096124321 0.020429712
0.41104811 0.097124517 0.020423617
0.41107851 0.098124698 0.020417523
0.41110891 0.099124886 0.020411428
0.41113931 0.10012507 0.020405333
0.41116971 0.10112526 0.020399239
0.41120011 0.10212544 0.020393142
0.4112305 0.10312563 0.020387048
0.41038123 0.1042578 0.019880516
0.41041169 0.10525958 0.019874411
0.41044214 0.10626137 0.019868307
0.41047257 0.10726314 0.019862203
0.41050303 0.10826492 0.019856097
0.41053349 0.1092667 0.019849993
0.41056395 0.11026847 0.019843888
0.41059437 0.11127026 0.019837784
0.41062483 0.11227203 0.01983168
0.41065529 0.11327382 0.019825574
0.41068572 0.1142756 0.01981947
0.41071618 0.11527738 0.019813366
0.41074663 0.11627916 0.01980726
0.41077709 0.11728094 0.019801157
0.41080752 0.11828272 0.019795051
0.41083798 0.1192845 0.019788947
0.41086844 0.12028628 0.019782843
0.41089886 0.12128806 0.019776737
0.41005048 0.12245049 0.01926999
0.41008097 0.12345386 0.019263875
0.41011146 0.12445724 0.01925776
0.41014197 0.12546061 0.019251646
0.41017246 0.12646399 0.019245531
0.41020295 0.12746735 0.019239418
0.41023347 0.12847073 0.019233303
0.41026396 0.1294741 0.019227188
0.41029444 0.13047747 0.019221075
0.41032496 0.13148084 0.01921496
0.41035545 0.13248423 0.019208847
0.41038594 0.1334876 0.019202732
0.41041645 0.13449097 0.019196618
0.41044694 0.13549434 0.019190503
0.41047743 0.13649771 0.019184388
0.41050795 0.13750108 0.019178275
0.41053843 0.13850446 0.01917216
0.41056892 0.13950783 0.019166047
0.41059944 0.14051118 0.019159932
0.41062993 0.14151457 0.019153818
0.41066042 0.14251795 0.019147703
0.41069093 0.14352131 0.019141588
0.41072142 0.14452469 0.019135475
0.41075191 0.14552806 0.01912936
0.41078243 0.14653143 0.019123247
0.41081291 0.1475348 0.019117132
0.40996587 0.14874023 0.018610148
0.40999642 0.14974521 0.018604023
0.41002697 0.15075016 0.018597899
0.41005751 0.15175514 0.018591775
0.41008806 0.15276009 0.018585652
0.41011861 0.15376505 0.018579528
0.41014916 0.15477003 0.018573403
0.4101797 0.155775 0.018567279
0.40845594 0.15720956 0.017559269
0.39001742 0.08130832 0.0077248197
0.40418792 0.082873002 0.015729278
0.40597811 0.08368893 0.016726071
0.40864769 0.084398389 0.018224355
0.40955782 0.085301667 0.018719723
0.41046789 0.086201757 0.019215139
0.41049835 0.087203532 0.019209033
0.41052878 0.088205308 0.019202929
0.41055924 0.08920709 0.019196825
0.41058969 0.090208873 0.019190719
0.41062015 0.091210656 0.019184615
0.41065058 0.092212431 0.019178512
0.41068104 0.093214206 0.019172406
0.4107115 0.094215989 0.019166302
0.41074193 0.095217772 0.019160198
0.41077238 0.096219547 0.019154092
0.41080284 0.09722133 0.019147988
0.4108333 0.098223113 0.019141883
0.41086373 0.099224888 0.019135779
0.41089419 0.10022667 0.019129675
0.41092464 0.10122845 0.019123569
0.41095507 0.10223023 0.019117465
0.41098553 0.103232 0.019111361
0.41101599 0.10423378 0.019105256
0.41104645 0.10523557 0.019099152
0.41107687 0.10623734 0.019093048
0.41110733 0.10723913 0.019086942
0.41025925 0.10837923 0.018579096
0.41028976 0.1093826 0.018572982
0.41032025 0.11038598 0.018566867
0.41035074 0.11138935 0.018560752
0.41038126 0.11239272 0.018554639
0.41041175 0.11339609 0.018548524
0.41044223 0.11439946 0.018542411
0.41047275 0.11540283 0.018536296
0.41050324 0.11640621 0.018530181
0.41053373 0.11740959 0.018524067
0.41056424 0.11841295 0.018517952
0.41059473 0.11941633 0.018511839
0.41062522 0.1204197 0.018505724
0.41065574 0.12142307 0.018499611
0.41068622 0.12242644 0.018493496
0.41071674 0.12342981 0.018487381
0.41074723 0.12443318 0.018481268
0.41077772 0.12543656 0.018475153
0.41080824 0.12643993 0.018469039
0.41083872 0.1274433 0.018462924
0.41086921 0.12844668 0.018456811
0.41089973 0.12945004 0.018450696
0.41093022 0.13045342 0.018444581
0.4109607 0.13145679 0.018438468
0.41099122 0.13246016 0.018432353
0.41102171 0.13346353 0.018426239
0.4110522 0.13446692 0.018420124
0.41108271 0.13547029 0.018414011
0.4111132 0.13647366 0.018407896
0.41114369 0.13747703 0.018401781
0.41029719 0.1386665 0.017893661
0.41032773 0.13967146 0.017887536
0.41035828 0.14067642 0.017881412
0.41038883 0.14168139 0.01787529
0.41041937 0.14268635 0.017869165
0.41044992 0.14369132 0.017863041
0.41048047 0.14469628 0.017856916
0.41051102 0.14570124 0.017850792
0.41054156 0.14670621 0.01784467
0.41057211 0.14771117 0.017838545
0.41060266 0.14871615 0.017832421
0.41063321 0.14972112 0.017826296
0.41066372 0.15072607 0.017820172
0.4098179 0.15193784 0.017311921
0.40984848 0.1529444 0.017305788
0.41075537 0.15374097 0.017801801
0.40990967 0.1549575 0.01729352
0.40994027 0.15596406 0.017287387
0.40821859 0.15740016 0.016276896
0.40474483 0.15927532 0.014261963
0.38540211 0.081835993 0.0039051643
0.40398183 0.083960108 0.014436506
0.40752721 0.084574409 0.016441196
0.40843642 0.085480906 0.016937779
0.41022408 0.086280979 0.017937105
0.41025457 0.087284349 0.017930992
0.41028506 0.088287726 0.017924877
0.41031557 0.089291103 0.017918762
0.41034606 0.090294473 0.017912649
0.41037655 0.091297843 0.017906534
0.41040707 0.092301212 0.01790042
0.41043755 0.093304589 0.017894305
0.41046807 0.094307959 0.01788819
0.41049856 0.095311329 0.017882077
0.41052905 0.096314706 0.017875962
0.41055956 0.097318076 0.017869849
0.41059005 0.098321453 0.017863734
0.41062054 0.099324822 0.01785762
0.41065106 0.10032819 0.017851505
0.41068155 0.10133156 0.01784539
0.41071203 0.10233494 0.017839277
0.41074255 0.10333831 0.017833162
0.41077304 0.10434168 0.017827049
0.41080353 0.10534506 0.017820934
0.41083404 0.10634843 0.017814821
0.41086453 0.1073518 0.017808706
0.41089502 0.10835517 0.017802591
0.41092554 0.10935855 0.017796477
0.41095603 0.11036192 0.017790362
0.41098651 0.11136529 0.017784249
0.41101703 0.11236867 0.017778134
0.41104752 0.11337204 0.017772021
0.41107801 0.11437541 0.017765906
0.41110852 0.11537877 0.017759791
0.41113901 0.11638215 0.017753677
0.4111695 0.11738553 0.017747562
0.41120002 0.11838889 0.017741449
0.4112305 0.11939228 0.017735334
0.41038412 0.12055303 0.01722616
0.41041467 0.121558 0.017220037
0.41044521 0.12256296 0.017213913
0.41047576 0.12356792 0.017207788
0.41050631 0.12457288 0.017201664
0.41053686 0.12557785 0.01719554
0.4105674 0.12658282 0.017189417
0.41059795 0.12758778 0.017183293
0.4106285 0.12859276 0.017177168
0.41065904 0.12959771 0.017171044
0.41068959 0.13060269 0.01716492
0.41072014 0.13160764 0.017158797
0.41075069 0.1326126 0.017152673
0.41078123 0.13361758 0.017146548
0.41081178 0.13462254 0.017140424
0.41084233 0.13562751 0.017134301
0.41087288 0.13663246 0.017128177
0.41090339 0.13763744 0.017122053
0.41093394 0.1386424 0.017115928
0.41096449 0.13964736 0.017109804
0.41099504 0.14065233 0.017103681
0.41102558 0.14165729 0.017097557
0.41105613 0.14266226 0.017091433
0.41108668 0.14366722 0.017085308
0.41111723 0.14467219 0.017079184
0.41114777 0.14567715 0.017073061
0.41117832 0.14668211 0.017066937
0.41120887 0.14768708 0.017060813
0.41123942 0.14869206 0.017054688
0.41039449 0.14990059 0.016545223
0.4104251 0.15090714 0.016539089
0.41045567 0.1519137 0.016532956
0.41048628 0.15292026 0.016526822
0.41051686 0.15392682 0.016520688
0.41054747 0.15493338 0.016514555
0.40970287 0.15615307 0.016005017
0.40798318 0.15759069 0.014992023
0.40451354 0.15946729 0.012972152
0.37992111 0.082455248 -0.00043314818
0.40023631 0.084427916 0.011131678
0.40465552 0.084950306 0.013645192
0.4073191 0.085659996 0.015150902
0.40910482 0.086463332 0.016152674
0.41001287 0.087365091 0.016650513
0.41004342 0.088370055 0.01664439
0.41007397 0.089375027 0.016638266
0.41010451 0.090379991 0.016632142
0.41013506 0.091384955 0.016626017
0.41016561 0.092389919 0.016619895
0.41019616 0.093394883 0.01661377
0.4102267 0.094399847 0.016607646
0.41113433 0.095287278 0.017105572
0.41116482 0.096290648 0.017099459
0.41119531 0.097294025 0.017093344
0.41122583 0.098297395 0.017087229
0.41125631 0.099300765 0.017081115
0.4112868 0.10030413 0.017075
0.41131732 0.1013075 0.017068887
0.41134781 0.10231088 0.017062772
0.41137829 0.10331425 0.017056659
0.41140881 0.10431762 0.017050544
0.4114393 0.105321 0.017044429
0.41146979 0.10632437 0.017038316
0.4115003 0.10732774 0.0170322
0.41153079 0.10833112 0.017026087
0.41156128 0.10933449 0.017019972
0.41071543 0.11047929 0.016509661
0.41074598 0.11148425 0.016503539
0.41077653 0.11248922 0.016497415
0.41080707 0.11349418 0.01649129
0.41083762 0.11449914 0.016485166
0.41086817 0.11550411 0.016479041
0.41089872 0.11650908 0.016472919
0.41092926 0.11751404 0.016466795
0.41095981 0.118519 0.01646067
0.41099036 0.11952397 0.016454546
0.4110209 0.12052894 0.016448421
0.41105145 0.1215339 0.016442299
0.411082 0.12253886 0.016436175
0.41111255 0.12354383 0.01643005
0.41026741 0.12471251 0.015919594
0.41029799 0.12571907 0.01591346
0.4103286 0.12672563 0.015907327
0.4103592 0.12773219 0.015901193
0.41038978 0.12873875 0.015895059
0.41042039 0.1297453 0.015888926
0.41045097 0.13075186 0.015882792
0.41048157 0.13175842 0.015876658
0.41051218 0.13276498 0.015870525
0.41054276 0.13377154 0.015864391
0.41057336 0.1347781 0.015858257
0.41060394 0.13578466 0.015852123
0.41063455 0.1367912 0.01584599
0.41066512 0.13779777 0.015839856
0.41069573 0.13880432 0.015833722
0.41072634 0.13981088 0.015827589
0.41075692 0.14081743 0.015821455
0.41078752 0.14182399 0.015815321
0.4108181 0.14283057 0.015809188
0.41084871 0.14383711 0.015803054
0.41087931 0.14484367 0.01579692
0.41090989 0.14585023 0.015790787
0.4109405 0.14685678 0.015784653
0.41097108 0.14786333 0.015778519
0.41100168 0.1488699 0.015772386
0.41103229 0.14987646 0.015766252
0.41106287 0.150883 0.015760118
0.41109347 0.15188958 0.015753984
0.41112405 0.15289614 0.015747851
0.41115466 0.15390269 0.015741717
0.41031101 0.15512075 0.015230961
0.40946749 0.156342 0.014720185
0.40687576 0.15799582 0.013200073
0.40341023 0.15987545 0.011175255
0.37533107 0.082981952 -0.0042835814
0.37974757 0.083582573 -0.0017643705
0.38504037 0.084072076 0.0012600793
0.39650089 0.084895335 0.0078145275
0.40532917 0.085940503 0.012853889
0.40798959 0.086645529 0.014363322
0.40889671 0.087550513 0.014862375
0.40980378 0.088452309 0.015361448
0.40983438 0.089458875 0.015355314
0.41074127 0.090355895 0.015854415
0.41077182 0.09136086 0.015848292
0.41080236 0.092365824 0.015842168
0.41083291 0.093370788 0.015836043
0.41086346 0.094375752 0.015829919
0.41089401 0.095380716 0.015823796
0.41092455 0.09638568 0.015817672
0.4109551 0.097390652 0.015811548
0.41098565 0.098395616 0.015805423
0.4110162 0.09940058 0.015799299
0.41104674 0.10040554 0.015793176
0.41107729 0.10141051 0.015787052
0.41110784 0.10241547 0.015780928
0.41113839 0.10342044 0.015774803
0.41116893 0.10442541 0.015768679
0.41119948 0.10543037 0.015762556
0.41123003 0.10643534 0.015756432
0.41126058 0.1074403 0.015750308
0.41129112 0.10844526 0.015744183
0.41132167 0.10945023 0.015738061
0.41135222 0.11045519 0.015731936
0.41138276 0.11146016 0.015725812
0.41141328 0.11246512 0.015719688
0.41144383 0.11347008 0.015713563
0.41147438 0.11447506 0.015707441
0.41150492 0.11548001 0.015701316
0.41066042 0.11663593 0.015189704
0.41069102 0.11764249 0.015183571
0.41072163 0.11864904 0.015177437
0.41075221 0.1196556 0.015171303
0.41078281 0.12066215 0.01516517
0.41081339 0.12166871 0.015159036
0.410844 0.12267526 0.015152902
0.41087461 0.12368183 0.015146769
0.41090518 0.12468838 0.015140635
0.41093579 0.12569495 0.015134501
0.41096637 0.1267015 0.015128368
0.41099697 0.12770806 0.015122234
0.41102755 0.12871462 0.0151161
0.41105816 0.12972116 0.015109967
0.41108876 0.13072774 0.015103833
0.41111934 0.13173428 0.015097699
0.41114995 0.13274086 0.015091565
0.41118053 0.13374741 0.015085432
0.41121113 0.13475396 0.015079298
0.41124174 0.13576052 0.015073164
0.41127232 0.13676707 0.015067031
0.41130292 0.13777363 0.015060897
0.4113335 0.13878019 0.015054763
0.41136411 0.13978675 0.01504863
0.41139469 0.14079331 0.015042496
0.41142529 0.14179987 0.015036362
0.4114559 0.14280643 0.015030229
0.41148648 0.14381298 0.015024095
0.41151708 0.14481954 0.015017961
0.41154766 0.14582609 0.015011827
0.41157827 0.14683264 0.015005694
0.41160887 0.1478392 0.01499956
0.41163945 0.14884576 0.014993426
0.41079658 0.15005583 0.014481485
0.41082725 0.15106398 0.014475342
0.41085789 0.15207213 0.014469198
0.41088852 0.15308027 0.014463055
0.41091916 0.15408842 0.014456911
0.41094983 0.15509658 0.014450768
0.40923408 0.15653084 0.013432866
0.40664545 0.15818614 0.011909076
0.40318403 0.16006722 0.0098793162
0.38145384 0.16866022 -0.0027874103
0.38132766 0.084522694 -0.0020853281
0.39189985 0.085460737 0.0039786124
0.39806071 0.085801139 0.0075171995
0.40600285 0.0869307 0.012062575
0.40778458 0.087735787 0.013069271
0.40956616 0.088534489 0.014076033
0.41047215 0.089434743 0.014576348
0.41050276 0.090441294 0.014570215
0.41053334 0.09144786 0.014564081
0.41056395 0.092454411 0.014557947
0.41059452 0.09346097 0.014551814
0.41062513 0.094467528 0.01454568
0.41065571 0.095474079 0.014539546
0.41068631 0.096480638 0.014533413
0.41159189 0.097366557 0.015033815
0.41162243 0.098371521 0.015027692
0.41165295 0.099376485 0.015021567
0.4116835 0.10038145 0.015015444
0.41171405 0.10138641 0.015009319
0.41174459 0.10239138 0.015003196
0.41177514 0.10339634 0.014997072
0.41180569 0.10440131 0.014990947
0.41096166 0.10553966 0.014478209
0.41099226 0.10654622 0.014472076
0.41102287 0.10755278 0.014465942
0.41105345 0.10855933 0.014459808
0.41108406 0.10956589 0.014453675
0.41111463 0.11057245 0.014447541
0.41114524 0.111579 0.014441407
0.41117582 0.11258556 0.014435274
0.41120642 0.11359212 0.01442914
0.41123703 0.11459868 0.014423006
0.41126761 0.11560524 0.014416873
0.41129822 0.11661179 0.014410739
0.41132879 0.11761836 0.014404605
0.4113594 0.11862491 0.014398471
0.41139001 0.11963147 0.014392338
0.41054675 0.12079529 0.013879444
0.41057739 0.12180345 0.013873301
0.41060802 0.12281159 0.013867158
0.41063866 0.12381975 0.013861015
0.4106693 0.12482789 0.013854871
0.41069996 0.12583606 0.013848728
0.4107306 0.12684421 0.013842585
0.41076124 0.12785235 0.013836441
0.41079187 0.1288605 0.013830298
0.41082254 0.12986866 0.013824154
0.41085318 0.13087681 0.013818011
0.41088381 0.13188495 0.013811868
0.41091445 0.1328931 0.013805724
0.41094509 0.13390125 0.013799581
0.41097575 0.13490941 0.013793437
0.41100639 0.13591756 0.013787294
0.41103703 0.1369257 0.01378115
0.41106766 0.13793385 0.013775007
0.4110983 0.138942 0.013768864
0.41112897 0.13995016 0.01376272
0.4111596 0.14095829 0.013756577
0.41119024 0.14196646 0.013750433
0.41122088 0.14297462 0.01374429
0.41125154 0.14398275 0.013738147
0.41128218 0.14499091 0.013732003
0.41131282 0.14599906 0.01372586
0.41134346 0.14700721 0.013719716
0.41137409 0.14801535 0.013713573
0.41140476 0.1490235 0.013707429
0.4114354 0.15003166 0.013701286
0.41146603 0.15103981 0.013695143
0.41149667 0.15204796 0.013688999
0.41152731 0.1530561 0.013682856
0.41068572 0.15427409 0.013169632
0.41071641 0.15528382 0.01316348
0.40987489 0.1565066 0.012650201
0.4072893 0.15816177 0.011122717
0.40208772 0.16047513 0.0080737593
0.39081445 0.16537854 0.0014684157
0.38474277 0.16797182 -0.0020880487
0.40402216 0.087215647 0.0097544389
0.4066765 0.087920897 0.011271272
0.40845612 0.08872287 0.012280449
0.41023558 0.089518473 0.013289697
0.41026622 0.090526626 0.013283554
0.41029689 0.091534778 0.01327741
0.41032752 0.092542924 0.013271267
0.41123232 0.093436837 0.013772854
0.4112629 0.094443396 0.01376672
0.41129351 0.095449954 0.013760587
0.41132408 0.096456505 0.013754454
0.41135469 0.097463071 0.013748319
0.4113853 0.098469622 0.013742186
0.41141587 0.099476181 0.013736052
0.41144648 0.10048274 0.013729919
0.41147706 0.1014893 0.013723785
0.41150767 0.10249585 0.013717651
0.41153824 0.10350241 0.013711518
0.41156885 0.10450897 0.013705384
0.41159946 0.10551553 0.01369925
0.41163003 0.10652209 0.013693117
0.41166064 0.10752865 0.013686983
0.41169122 0.1085352 0.013680849
0.41172183 0.10954176 0.013674716
0.41175243 0.11054832 0.013668582
0.41178301 0.11155487 0.013662448
0.41094038 0.11270592 0.013148399
0.41097102 0.11371408 0.013142255
0.41100168 0.11472223 0.013136112
0.41103232 0.11573038 0.013129968
0.41106296 0.11673853 0.013123825
0.41109359 0.11774668 0.013117682
0.41112423 0.11875483 0.013111538
0.4111549 0.11976298 0.013105395
0.41118553 0.12077112 0.013099251
0.41121617 0.12177928 0.013093108
0.41124681 0.12278742 0.013086964
0.41040474 0.1239576 0.012572805
0.41043544 0.12496734 0.012566652
0.41046613 0.12597708 0.012560499
0.41049683 0.12698683 0.012554346
0.41052753 0.12799656 0.012548192
0.41055822 0.12900631 0.012542039
0.41058889 0.13001606 0.012535887
0.41061959 0.13102579 0.012529734
0.41065028 0.13203552 0.01252358
0.41068098 0.13304527 0.012517427
0.41071168 0.13405502 0.012511274
0.41074237 0.13506477 0.012505121
0.41077307 0.13607451 0.012498968
0.41080374 0.13708425 0.012492815
0.41083443 0.13809399 0.012486662
0.41086513 0.13910374 0.012480509
0.41089582 0.14011349 0.012474355
0.41092652 0.14112322 0.012468202
0.41095722 0.14213297 0.01246205
0.41098788 0.14314272 0.012455896
0.41101858 0.14415245 0.012449743
0.41104928 0.14516219 0.01244359
0.41107997 0.14617193 0.012437437
0.41111067 0.14718167 0.012431283
0.41114137 0.14819142 0.012425131
0.41117203 0.14920117 0.012418978
0.41120273 0.1502109 0.012412825
0.41123343 0.15122065 0.012406671
0.41126412 0.1522304 0.012400518
0.41129482 0.15324013 0.012394365
0.41045421 0.15445969 0.011879867
0.41048494 0.15547103 0.011873704
0.40964454 0.15669534 0.011359214
0.40619087 0.15856656 0.0093196463
0.40186656 0.1606667 0.0067716595
0.39321935 0.16491474 0.0016753835
0.38715464 0.16750456 -0.0018896888
0.40469897 0.088210508 0.0089594014
0.40735015 0.088911094 0.010479958
0.40912765 0.089709967 0.011491621
0.41003174 0.090611875 0.011994425
0.41006243 0.091621615 0.011988272
0.41096631 0.092518754 0.012491068
0.41099694 0.0935269 0.012484925
0.41102761 0.094535053 0.012478781
0.41105825 0.095543198 0.012472638
0.41108888 0.096551351 0.012466494
0.41111952 0.097559504 0.012460351
0.41115016 0.098567657 0.012454207
0.41118082 0.099575803 0.012448064
0.41121146 0.10058396 0.012441921
0.4112421 0.1015921 0.012435777
0.41127273 0.10260025 0.012429634
0.41130337 0.10360841 0.01242349
0.41133404 0.10461655 0.012417347
0.41136467 0.10562471 0.012411204
0.41139531 0.10663286 0.01240506
0.41142595 0.107641 0.012398917
0.41145661 0.10864916 0.012392773
0.41148725 0.1096573 0.01238663
0.41151789 0.11066546 0.012380486
0.41154853 0.11167361 0.012374343
0.41157916 0.11268175 0.0123682
0.41160983 0.11368991 0.012362056
0.41164047 0.11469806 0.012355913
0.41079903 0.11585544 0.011840598
0.41082972 0.11686519 0.011834444
0.41086042 0.11787494 0.011828291
0.41089109 0.11888467 0.011822139
0.41092178 0.11989442 0.011815986
0.41095248 0.12090416 0.011809832
0.41011134 0.1220727 0.011294411
0.41014209 0.12308403 0.011288248
0.41017282 0.12409537 0.011282085
0.41020358 0.12510669 0.011275923
0.4102343 0.12611803 0.01126976
0.41026503 0.12712938 0.011263597
0.41029578 0.12814072 0.011257434
0.41032651 0.12915206 0.011251272
0.41035727 0.13016339 0.011245109
0.41038799 0.13117471 0.011238946
0.41041875 0.13218606 0.011232783
0.41044948 0.1331974 0.011226621
0.41048023 0.13420874 0.011220457
0.41051096 0.13522007 0.011214294
0.41054171 0.13623141 0.011208132
0.41057244 0.13724273 0.011201969
0.4106032 0.13825408 0.011195806
0.41063392 0.1392654 0.011189643
0.41066465 0.14027674 0.011183481
0.4106954 0.14128807 0.011177318
0.41072613 0.14229941 0.011171155
0.41075689 0.14331076 0.011164992
0.41078761 0.14432208 0.01115883
0.41081837 0.14533342 0.011152667
0.41084909 0.14634475 0.011146504
0.41087985 0.14735609 0.011140341
0.41091058 0.14836742 0.011134178
0.41094133 0.14937876 0.011128016
0.41097206 0.1503901 0.011121852
0.41100278 0.15140143 0.01111569
0.41103354 0.15241277 0.011109527
0.41106427 0.1534241 0.011103365
0.41109502 0.15443544 0.011097201
0.41025558 0.15565813 0.010581488
0.40941623 0.156884 0.010065749
0.40683675 0.15854213 0.0085308198
0.40338752 0.16042595 0.0064862464
0.3999387 0.16232249 0.0044416273
0.39562026 0.16445112 0.0018872729
0.39130232 0.16659565 -0.00066715776
0.38611504 0.16897862 -0.003731298
0.39920652 0.087887861 0.0046058814
0.40360001 0.088395275 0.0071503078
0.40712062 0.088992968 0.0091846939
0.40889615 0.089793511 0.010198808
0.41067153 0.090587668 0.011212999
0.41070223 0.091597408 0.011206846
0.41160509 0.092494585 0.011710875
0.41076362 0.093616888 0.011194539
0.41166639 0.094510883 0.011698588
0.41169703 0.095519029 0.011692445
0.41172767 0.096527182 0.011686301
0.4117583 0.097535335 0.011680158
0.41178897 0.098543487 0.011674015
0.41181961 0.099551633 0.011667871
0.41185024 0.10055979 0.011661728
0.41188088 0.10156793 0.011655584
0.41191152 0.10257608 0.011649441
0.41194218 0.10358424 0.011643298
0.41197282 0.10459238 0.011637154
0.41200346 0.10560054 0.011631011
0.41116259 0.10674355 0.01111455
0.41119328 0.10775329 0.011108397
0.41122398 0.10876304 0.011102243
0.41125467 0.10977278 0.01109609
0.41128537 0.11078252 0.011089937
0.41131607 0.11179226 0.011083784
0.41134673 0.112802 0.011077631
0.41050622 0.11395777 0.01056106
0.41053697 0.11496911 0.010554897
0.4105677 0.11598043 0.010548734
0.41059846 0.11699177 0.010542572
0.41062918 0.11800312 0.010536408
0.41065994 0.11901445 0.010530245
0.41069067 0.12002579 0.010524083
0.41072139 0.12103711 0.01051792
0.41075215 0.12204845 0.010511757
0.41078287 0.12305979 0.010505594
0.41081363 0.12407113 0.010499432
0.41084436 0.12508245 0.010493269
0.41000453 0.12625892 0.0099765975
0.41003531 0.12727186 0.0099704256
0.4100661 0.12828477 0.0099642528
0.41009688 0.1292977 0.00995808
0.41012767 0.13031062 0.0099519081
0.41015846 0.13132356 0.0099457353
0.41018924 0.13233648 0.0099395625
0.41022006 0.13334942 0.0099333907
0.41025084 0.13436235 0.0099272178
0.41028163 0.13537528 0.009921045
0.41031241 0.13638821 0.0099148732
0.41121325 0.13721849 0.010419316
0.41124398 0.13822982 0.010413152
0.41127473 0.13924116 0.01040699
0.41130546 0.1402525 0.010400827
0.41133621 0.14126383 0.010394664
0.41136694 0.14227517 0.010388501
0.4113977 0.1432865 0.010382338
0.41142842 0.14429784 0.010376176
0.41145915 0.14530918 0.010370012
0.4114899 0.14632051 0.01036385
0.41152063 0.14733185 0.010357687
0.41155139 0.14834318 0.010351525
0.41158211 0.14935452 0.010345361
0.41161287 0.15036586 0.010339199
0.41164359 0.15137719 0.010333036
0.41167435 0.15238853 0.010326874
0.4108358 0.15360798 0.0098099401
0.41086659 0.1546209 0.0098037673
0.41002822 0.15584514 0.0092868116
0.40918991 0.15707257 0.0087698353
0.40748259 0.15851769 0.0077419993
0.40490648 0.16018525 0.0062033432
0.4014616 0.16208006 0.0041537746
0.39370418 0.1661288 -0.00045644431
0.38939169 0.16828588 -0.0030171077
0.40076217 0.088789038 0.0043135155
0.40427893 0.089393251 0.0063527902
0.40692398 0.09009248 0.0078807184
0.40956876 0.090782151 0.0094087431
0.40959954 0.091795079 0.0094025703
0.41050151 0.092695475 0.0099078128
0.41053224 0.093706809 0.0099016502
0.41056299 0.094718143 0.0098954877
0.41059372 0.095729485 0.0098893251
0.41149548 0.096621908 0.010394649
0.41152617 0.097631656 0.010388495
0.41155687 0.098641403 0.010382342
0.41158757 0.099651136 0.010376189
0.41161826 0.10066088 0.010370036
0.41164893 0.10167062 0.010363882
0.41167963 0.10268037 0.01035773
0.41083965 0.10382017 0.0098400228
0.41087037 0.10483149 0.0098338593
0.41090113 0.10584284 0.0098276967
0.41093186 0.10685418 0.0098215342
