# .PCD v0.7 - Point Cloud Data file format
VERSION 0.7
FIELDS x y z
SIZE 4 4 4
TYPE F F F
COUNT 1 1 1
WIDTH 1380
HEIGHT 1
VIEWPOINT 0 0 0 1 0 0 0
POINTS 1380
DATA ascii
0.50321859 0.055543866 0.05814936
0.5032444 0.056391157 0.058144197
0.50240463 0.057306122 0.057619233
0.50156498 0.058224268 0.05709428
0.50159085 0.059074745 0.057089094
0.50075138 0.059997667 0.056564108
0.49991202 0.060923774 0.056039106
0.49907276 0.06185307 0.055514082
0.49823353 0.062785551 0.05498901
0.49739444 0.063721217 0.054463945
0.49655548 0.064660065 0.053938862
0.49658161 0.0655201 0.053933624
0.49660775 0.066380136 0.053928383
0.49663389 0.067240171 0.053923141
0.49666002 0.068100207 0.0539179
0.49582133 0.069048606 0.053392764
0.47664881 0.018968832 0.042098399
0.47667602 0.019863902 0.042092945
0.4767032 0.020758975 0.042087492
0.47673041 0.021654045 0.042082038
0.47675762 0.022549117 0.042076584
0.47678483 0.023444189 0.04207113
0.47767836 0.024333745 0.042586301
0.47770554 0.025227223 0.042580858
0.47859898 0.026112 0.043096088
0.4786261 0.027003886 0.043090653
0.47951934 0.027883884 0.043605883
0.48041251 0.028760698 0.044121135
0.48130557 0.029634325 0.044636402
0.48219854 0.030504769 0.045151692
0.48309144 0.031372026 0.04566703
0.48485014 0.032216247 0.046703074
0.4848769 0.033096984 0.04669771
0.48576948 0.033954687 0.047213074
0.486662 0.034809202 0.04772849
0.4875544 0.035660531 0.048243895
0.48844668 0.036508679 0.048759319
0.48933887 0.037353639 0.049274765
0.49023098 0.038195413 0.049790226
0.49112302 0.039034002 0.050305739
0.49114946 0.039903592 0.050300442
0.49204129 0.040737402 0.050815951
0.49293306 0.04156803 0.051331483
0.49382472 0.042395473 0.051847033
0.49471626 0.043219727 0.05236261
0.49560779 0.044040795 0.052878223
0.49649915 0.044858683 0.053393837
0.49739042 0.045673382 0.053909466
0.4982816 0.046484899 0.054425113
0.49830765 0.047341745 0.054419894
0.49919873 0.048148479 0.054935601
0.50008965 0.048952032 0.055451296
0.5009805 0.049752396 0.055967011
0.50100636 0.05060447 0.055961818
0.5018971 0.051400058 0.056477562
0.50192291 0.052250534 0.05647238
0.50281346 0.053041343 0.056988154
0.50283927 0.053890228 0.056982983
0.50286508 0.054739114 0.056977808
0.50289088 0.055588 0.056972634
0.50291669 0.056436885 0.056967463
0.5029425 0.057285771 0.056962289
0.50210387 0.058203876 0.056436103
0.50212973 0.059054352 0.056430921
0.50129128 0.059977237 0.055904705
0.50045294 0.060903307 0.055378467
0.49961466 0.061832566 0.054852214
0.49877644 0.06276501 0.054325908
0.49793836 0.063700639 0.053799614
0.49796447 0.06455908 0.05379438
0.49712655 0.065499477 0.05326806
0.49715269 0.06635952 0.053262819
0.49717882 0.067219548 0.053257577
0.49720496 0.068079583 0.053252336
0.4972311 0.068939619 0.053247094
0.47721595 0.018947372 0.041405711
0.47724316 0.019842442 0.041400257
0.47727036 0.020737516 0.0413948
0.47729754 0.021632586 0.041389346
0.47732475 0.022527657 0.041383892
0.47735196 0.023422729 0.041378438
0.47737917 0.024317803 0.041372985
0.47827166 0.025205802 0.041889399
0.47916409 0.026090616 0.042405866
0.47919121 0.026982503 0.042400431
0.48008347 0.02786254 0.042916894
0.4809756 0.028739391 0.043433376
0.48186767 0.029613057 0.043949876
0.48275962 0.030483538 0.044466399
0.48365152 0.031350832 0.044982973
0.48454329 0.032214943 0.045499533
0.48543495 0.033075869 0.046016112
0.48546174 0.033956606 0.046010744
0.48635325 0.034812752 0.046527352
0.48724473 0.035665713 0.047044009
0.48813605 0.036515489 0.047560655
0.48902729 0.037362084 0.048077323
0.48991841 0.03820549 0.048594009
0.49080944 0.03904571 0.049110714
0.49170044 0.039882742 0.049627472
0.49172688 0.040752333 0.049622174
0.49261767 0.041584589 0.050138928
0.49350837 0.042413663 0.0506557
0.49439898 0.043239549 0.051172495
0.49528947 0.044062249 0.051689308
0.49617994 0.044881765 0.05220617
0.49707022 0.045698095 0.052723024
0.49796045 0.04651124 0.053239893
0.49885055 0.0473212 0.053756785
0.49974063 0.048127975 0.054273725
0.49976665 0.048983227 0.054268513
0.50065649 0.049785227 0.054785453
0.50154626 0.050584041 0.055302411
0.50243598 0.051379666 0.055819388
0.50246179 0.052230142 0.055814207
0.50248766 0.053080618 0.055809021
0.50337714 0.053869877 0.056326039
0.50340295 0.054718763 0.056320865
0.50342876 0.055567645 0.056315694
0.50345457 0.05641653 0.05631052
0.50348037 0.057265416 0.056305349
0.50264275 0.058183488 0.055777926
0.50266862 0.059033964 0.055772744
0.50183117 0.059956808 0.055245295
0.50099385 0.06088284 0.054717828
0.50015658 0.061812058 0.054190338
0.50018257 0.062667318 0.054185126
0.49934542 0.063601315 0.053657576
0.49850839 0.064538501 0.053130042
0.4985345 0.065396935 0.053124808
0.49769762 0.066338897 0.052597243
0.49772376 0.067198932 0.052592002
0.49774989 0.068058968 0.05258676
0.49777603 0.068918996 0.052581519
0.47778308 0.018925913 0.04071302
0.47781029 0.019820983 0.040707566
0.4778375 0.020716054 0.040702112
0.47786471 0.021611126 0.040696654
0.47789192 0.022506198 0.040691201
0.4779191 0.02340127 0.040685747
0.47794631 0.024296343 0.040680293
0.47883779 0.02518438 0.041197941
0.47886497 0.026077859 0.041192498
0.47975636 0.02696112 0.041710205
0.47978345 0.027853005 0.04170477
0.48067462 0.028731488 0.042222477
0.48156574 0.029606786 0.042740203
0.48245674 0.030478897 0.043257941
0.48334762 0.031347822 0.043775707
0.48423848 0.032213565 0.044293523
0.48512918 0.033076119 0.044811327
0.48601979 0.033935491 0.04532915
0.48604655 0.034816228 0.045323782
0.48693702 0.035670821 0.045841634
0.48782745 0.036522228 0.046359532
0.48871771 0.037370451 0.046877421
0.48960787 0.038215484 0.04739533
0.49049795 0.039057337 0.047913261
0.49138793 0.039896004 0.04843121
0.49227786 0.040731482 0.048949204
0.4923043 0.041601073 0.048943903
0.49319404 0.042431775 0.049461901
0.49408367 0.043259293 0.049979918
0.49497321 0.044083625 0.050497957
0.49586266 0.044904772 0.05101601
0.49675208 0.045722734 0.051534113
0.49764132 0.046537511 0.052052207
0.49853048 0.047349099 0.052570321
0.49941954 0.048157506 0.053088453
0.50030857 0.048962723 0.053606637
0.5011974 0.04976476 0.05412481
0.50122339 0.050618421 0.054119609
0.50211209 0.051415682 0.054637805
0.50213796 0.052267749 0.054632612
0.50302655 0.05306023 0.05515084
0.50305241 0.05391071 0.055145659
0.50307828 0.054761186 0.055140477
0.50396663 0.055547293 0.055658747
0.50312996 0.056462139 0.055130113
0.50315583 0.057312619 0.055124927
0.50318164 0.058163095 0.055119745
0.50234514 0.059084311 0.054591075
0.50237107 0.059936378 0.054585882
0.5015347 0.060862374 0.054057185
0.50069851 0.061791554 0.053528462
0.50072449 0.062646806 0.05352325
0.49988833 0.063580774 0.052994467
0.49905232 0.064517915 0.0524657
0.49907842 0.065376356 0.052460466
0.4991045 0.066234797 0.052455235
0.49826869 0.067178309 0.051926427
0.49915671 0.067951679 0.052444775
0.498321 0.06889838 0.051915944
0.47835022 0.018904453 0.040020339
0.47837743 0.019799523 0.040014885
0.47840464 0.020694597 0.040009432
0.47843185 0.021589667 0.040003978
0.47845903 0.022484738 0.039998524
0.47848624 0.02337981 0.039993066
0.47851345 0.024274884 0.039987613
0.47940391 0.025162959 0.040506493
0.47943109 0.026056439 0.040501051
0.48032147 0.026939737 0.041019987
0.48034856 0.027831621 0.041014552
0.48123875 0.028710144 0.041533493
0.48126581 0.029600436 0.041528065
0.48215583 0.03047418 0.042047035
0.48304579 0.031344738 0.042566016
0.48393562 0.032212108 0.043085024
0.4848254 0.033076294 0.043604083
0.48571506 0.033937298 0.044123124
0.48660463 0.034795113 0.044642191
0.48749408 0.035649743 0.045161273
0.48838347 0.036501188 0.045680407
0.48927274 0.037349448 0.04619953
0.48929936 0.038225409 0.046194192
0.49018848 0.039068889 0.046713345
0.49107751 0.039909188 0.047232512
0.49196643 0.040746301 0.047751702
0.49285528 0.041580223 0.048270948
0.49374402 0.042410966 0.048790172
0.49463266 0.043238521 0.049309421
0.49552119 0.04406289 0.04982869
0.49640962 0.044884078 0.050347973
0.497298 0.045702074 0.050867315
0.49818626 0.046516892 0.051386643
0.4982124 0.047376923 0.051381402
0.49910051 0.048186962 0.051900752
0.4999885 0.048993811 0.052420128
0.50087643 0.049797475 0.052939557
0.50090247 0.050652731 0.052934345
0.50179023 0.05145162 0.053453766
0.50267786 0.052247323 0.053973209
0.50270379 0.05309939 0.053968016
0.5035913 0.053890318 0.054487489
0.50361711 0.054740794 0.054482307
0.50364298 0.055591274 0.054477125
0.50366884 0.05644175 0.05447194
0.50369471 0.057292227 0.054466758
0.50372052 0.058142707 0.054461576
0.50288504 0.059063882 0.053931668
0.50291097 0.059915952 0.053926479
0.50207561 0.060841907 0.053396542
0.5021016 0.061695572 0.053391341
0.50126636 0.062626302 0.052861381
0.50043124 0.063560225 0.052331366
0.50045729 0.064417079 0.052326143
0.49962234 0.06535577 0.051796131
0.49964845 0.066214219 0.051790901
0.49967453 0.067072652 0.05178567
0.49970064 0.067931093 0.051780436
0.49886593 0.068877757 0.051250383
0.47894457 0.019778064 0.039322194
0.47897178 0.020673137 0.03931674
0.47899899 0.021568207 0.039311286
0.4790262 0.022463279 0.039305832
0.47905341 0.023358351 0.039300378
0.47908059 0.024253424 0.039294921
0.47997007 0.025141537 0.039815038
0.47999722 0.026035016 0.039809592
0.48088658 0.026918354 0.040329762
0.4809137 0.027810238 0.040324327
0.48094082 0.028702125 0.040318891
0.48182991 0.029579092 0.040839076
0.48271894 0.030452874 0.041359272
0.48360789 0.03132347 0.041879494
0.48363483 0.032210577 0.041874088
0.48452362 0.033076394 0.042394333
0.48541236 0.033939026 0.042914633
0.48630095 0.034798473 0.043434918
0.48718944 0.035654735 0.043955225
0.48807785 0.036507811 0.044475555
0.4889662 0.037357699 0.044995926
0.4898544 0.038204405 0.045516293
0.4907425 0.039047927 0.046036676
0.49076909 0.039922293 0.046031348
0.49165705 0.040761039 0.046551764
0.49254492 0.041596595 0.047072191
0.49343273 0.042428967 0.047592677
0.49432039 0.043258153 0.048113145
0.49520797 0.044084154 0.048633639
0.49609545 0.04490697 0.049154151
0.49698281 0.045726601 0.049674679
0.49787015 0.046543043 0.050195262
0.49875733 0.047356304 0.050715826
0.49964443 0.048166379 0.051236417
0.49967051 0.04902482 0.051231187
0.50055748 0.049830116 0.0517518
0.50144434 0.050632227 0.052272469
0.50147039 0.051487483 0.052267257
0.50235707 0.052284814 0.052787919
0.50324368 0.053078964 0.053308606
0.50326955 0.053931035 0.053303413
0.50329548 0.054783106 0.053298224
0.50332135 0.055635173 0.053293031
0.50334728 0.056487244 0.053287838
0.50337315 0.057339314 0.053282645
0.50339907 0.058191385 0.053277455
0.50342494 0.059043452 0.053272262
0.50345087 0.059895523 0.053267069
0.50261652 0.06082144 0.052735899
0.50264251 0.061675105 0.052730698
0.50180829 0.062605798 0.052199505
0.50183427 0.063461058 0.052194294
0.50100023 0.064396538 0.051663034
0.5001663 0.065335192 0.051131796
0.50019234 0.066193633 0.051126562
0.50021845 0.067052074 0.051121332
0.50024456 0.067910515 0.051116101
0.49941087 0.068857141 0.050584808
0.47964773 0.024231965 0.038602244
0.47967494 0.025127035 0.03859679
0.48056334 0.026013596 0.039118141
0.48059049 0.026907075 0.039112695
0.48061767 0.027800554 0.039107252
0.48150593 0.028680742 0.039628673
0.48153302 0.029572628 0.039623238
0.4824211 0.030448042 0.040144663
0.48330906 0.031320266 0.040666103
0.48419693 0.03218931 0.041187569
0.48508471 0.033055164 0.041709047
0.48597243 0.033917833 0.042230576
0.48686001 0.034777317 0.042752098
0.48774749 0.03563362 0.043273635
0.48777428 0.036514357 0.043268267
0.48866162 0.03736588 0.043789838
0.48954889 0.038214214 0.044311456
0.49043605 0.039059363 0.04483306
0.49132308 0.039901331 0.04535469
0.49221006 0.040740114 0.045876332
0.49309689 0.041575707 0.046397999
0.49312338 0.042446889 0.04639269
0.49401015 0.043277707 0.046914417
0.49489677 0.04410534 0.047436126
0.49578327 0.044929784 0.047957864
0.49666968 0.045751046 0.048479613
0.497556 0.046569124 0.049001388
0.49844229 0.047384012 0.049523208
0.4993284 0.04819572 0.050045021
0.50021446 0.049004238 0.050566848
0.50024056 0.049862679 0.050561618
0.50112641 0.050666422 0.051083475
0.50201225 0.051466975 0.051605389
0.50203824 0.052322231 0.051600177
0.50292391 0.053118009 0.052122083
0.50294983 0.053971674 0.052116878
0.50383538 0.054762676 0.052638821
0.50386125 0.055614747 0.052633628
0.50388718 0.056466814 0.052628435
0.50391304 0.057318885 0.052623242
0.50393897 0.058170956 0.052618049
0.50396484 0.059023026 0.05261286
0.50313151 0.059947312 0.052080467
0.50315744 0.060800977 0.052075263
0.50318336 0.061654638 0.052070063
0.50235021 0.062585294 0.051537637
0.5023762 0.063440546 0.051532425
0.50154316 0.064375989 0.050999932
0.50156915 0.065232836 0.050994709
0.5015952 0.06608969 0.05098949
0.5007624 0.067031488 0.050456997
0.50078851 0.067889936 0.050451767
0.50081456 0.068748377 0.050446533
0.48024207 0.025105575 0.037904099
0.48026928 0.026000647 0.037898645
0.48029649 0.026895719 0.037893191
0.4811838 0.027779132 0.038415793
0.48207104 0.028659359 0.038938452
0.48209816 0.029551245 0.038933016
0.4829852 0.030426696 0.039455675
0.48301226 0.031316988 0.039450251
0.48389918 0.032187663 0.039972931
0.484786 0.033055149 0.040495634
0.48567271 0.03391945 0.041018359
0.48655939 0.034780566 0.041541133
0.48744592 0.035638496 0.042063892
0.48833233 0.036493242 0.042586669
0.48921865 0.037344802 0.043109477
0.48924538 0.038223945 0.04310412
0.49013162 0.039070725 0.043626979
0.4910177 0.039914325 0.044149823
0.49190369 0.040754735 0.04467269
0.4927896 0.041591961 0.045195583
0.49367538 0.042426005 0.045718487
0.49456114 0.043256857 0.046241447
0.49544674 0.044084527 0.046764396
0.49633226 0.044909012 0.04728736
0.49721766 0.045730311 0.047810342
0.49724394 0.046595123 0.047805075
0.49812922 0.047411647 0.048328087
0.49901444 0.048224982 0.048851155
0.49989951 0.049035132 0.049374204
0.50078446 0.049842097 0.049897276
0.50081056 0.050700538 0.049892046
0.50169539 0.051502727 0.050415151
0.50258017 0.052301727 0.050938301
0.50260615 0.053156983 0.050933089
0.50263214 0.054012239 0.050927877
0.50351673 0.054804869 0.051451035
0.50354266 0.055658534 0.051445834
0.50356859 0.056512192 0.05144063
0.50359458 0.057365857 0.05143543
0.50362051 0.058219522 0.051430229
0.50364643 0.059073184 0.051425025
0.50367242 0.059926845 0.051419824
0.50369835 0.06078051 0.05141462
0.50286615 0.061709534 0.050880972
0.50289214 0.06256479 0.050875761
0.50291812 0.063420042 0.050870549
0.50208604 0.064355448 0.05033683
0.50211209 0.065212294 0.050331607
0.50213814 0.066069141 0.050326388
0.50130635 0.067010909 0.049792655
0.5013324 0.06786935 0.049787425
0.50135851 0.068727791 0.04978219
0.48083642 0.025979187 0.037205957
0.48086363 0.026874259 0.037200503
0.48174992 0.027757712 0.037724342
0.48177707 0.028651191 0.037718896
0.48266327 0.029529862 0.038242798
0.48354933 0.030405352 0.03876669
0.48357639 0.031295646 0.038761262
0.48446229 0.032166354 0.039285179
0.48534808 0.033033881 0.039809115
0.4862338 0.033898219 0.04033307
0.48711947 0.034759372 0.040857073
0.48714632 0.035643294 0.040851686
0.4880318 0.036499672 0.041375689
0.48891717 0.037352864 0.041899718
0.48980242 0.038202867 0.042423759
0.49068767 0.039049689 0.042947855
0.49157274 0.039893322 0.043471932
0.49159935 0.040769283 0.043466598
0.4924843 0.04160814 0.043990705
0.49336913 0.042443812 0.044514835
0.49425387 0.043276299 0.045038983
0.49513856 0.044105597 0.045563184
0.49602312 0.044931713 0.046087377
0.49690756 0.045754645 0.046611585
0.49779192 0.046574391 0.047135808
0.49867615 0.047390949 0.047660057
0.49870241 0.04825417 0.047654796
0.49958655 0.049065948 0.048179101
0.50047058 0.049874544 0.048703395
0.50135452 0.050679959 0.049227715
0.50138056 0.0515384 0.049222484
0.50226438 0.052339032 0.049746826
0.50229043 0.053195879 0.049741603
0.50317407 0.053991735 0.050266009
0.50320005 0.054846987 0.050260797
0.50322604 0.055702243 0.050255585
0.5041095 0.056491725 0.050779995
0.50413543 0.05734539 0.050774794
0.50416142 0.058199055 0.05076959
0.50333005 0.059123263 0.050234739
0.50335604 0.059978519 0.050229527
0.50338203 0.060833775 0.050224315
0.50340801 0.06168903 0.050219104
0.50343406 0.062544286 0.050213892
0.50346005 0.063399538 0.05020868
0.50262898 0.064334907 0.049673725
0.50265503 0.065191753 0.049668506
0.50268108 0.0660486 0.049663283
0.50185025 0.066990331 0.049128324
0.50187635 0.067848772 0.049123093
0.50190246 0.068707213 0.049117863
0.48049089 0.024172798 0.035993695
0.48051813 0.025069462 0.03598823
0.48140356 0.025957728 0.036513273
0.48143077 0.0268528 0.036507819
0.48145798 0.027747871 0.036502365
0.48234323 0.028629769 0.037027445
0.48322839 0.029508479 0.037552577
0.48325551 0.030400366 0.037547141
0.48414049 0.0312743 0.038072273
0.48502538 0.032145049 0.03859742
0.48591018 0.03301261 0.039122589
0.48593715 0.033899721 0.039117184
0.4868218 0.034762505 0.039642382
0.48770639 0.035622105 0.04016763
0.48859087 0.036478519 0.040692866
0.48947522 0.037331749 0.041218121
0.48950198 0.038212486 0.041212756
0.49038619 0.039060935 0.041738041
0.49127036 0.0399062 0.042263377
0.49215439 0.040748283 0.042788699
0.49303833 0.041587178 0.043314043
0.49392214 0.042422887 0.043839406
0.49480587 0.043255411 0.044364788
0.49483237 0.044126593 0.044359479
0.49571598 0.044954337 0.04488492
0.49659947 0.0457789 0.04541035
0.49748287 0.046600278 0.045935802
0.49836618 0.047418468 0.046461269
0.49924937 0.048233472 0.046986759
0.49927559 0.049096692 0.046981499
0.50015873 0.049906917 0.047507048
0.50104165 0.05071396 0.048032586
0.50192451 0.051517818 0.048558142
0.50195062 0.052376259 0.048552912
0.50283331 0.053175338 0.049078494
0.50285935 0.054032184 0.049073275
0.5028854 0.054889034 0.049068052
0.50376797 0.055681739 0.049593709
0.50379395 0.056536991 0.049588498
0.50382 0.057392251 0.049583286
0.50384599 0.058247503 0.049578074
0.50387198 0.059102759 0.049572863
0.50389796 0.059958015 0.049567651
0.50392395 0.060813271 0.049562439
0.50394994 0.061668526 0.049557228
0.50397593 0.062523782 0.049552016
0.50314587 0.063457511 0.049015839
0.50317192 0.064314365 0.04901062
0.50319797 0.065171212 0.049005397
0.50236809 0.066111311 0.048469212
0.5023942 0.066969745 0.048463982
0.50242031 0.067828193 0.048458751
0.50244635 0.068686634 0.048453521
0.48020178 0.024156474 0.034768052
0.48108631 0.025047963 0.035294306
0.48111355 0.025944628 0.035288844
0.48199791 0.02683134 0.035815127
0.48202512 0.027726412 0.035809673
0.48205233 0.028621484 0.03580422
0.4829365 0.029501827 0.036330543
0.48382065 0.030378982 0.03685692
0.48470461 0.031252954 0.037383277
0.48473167 0.03214325 0.037377849
0.48561552 0.033012442 0.037904244
0.48649925 0.033878449 0.038430654
0.48738289 0.034741275 0.038957085
0.48826647 0.035600912 0.039483566
0.48829335 0.036484834 0.039478179
0.48917675 0.037339695 0.040004659
0.49006006 0.038191371 0.040531158
0.49094325 0.039039858 0.041057676
0.49096999 0.039919004 0.041052319
0.49185309 0.040762715 0.041578893
0.49273604 0.041603241 0.042105459
0.49361891 0.042440578 0.042632043
0.49450168 0.043274738 0.04315865
0.49538437 0.044105705 0.043685276
0.49626699 0.04493349 0.04421195
0.49714947 0.045758087 0.044738613
0.49803185 0.046579506 0.045265298
0.49891412 0.047397733 0.045791995
0.49894041 0.048262544 0.045786723
0.49982256 0.049075995 0.046313457
0.49984881 0.049939215 0.046308197
0.50073087 0.050747886 0.04683499
0.50161272 0.051553372 0.047361769
0.50249451 0.052355677 0.04788857
0.50252062 0.053214118 0.047883336
0.50254673 0.054072559 0.047878105
0.50342834 0.05486849 0.048404943
0.50345439 0.05572534 0.048399724
0.50348043 0.056582186 0.048394501
0.50436187 0.057371743 0.04892141
0.50438786 0.058226999 0.048916198
0.5044139 0.059082255 0.048910987
0.50443989 0.059937511 0.048905775
0.50446588 0.060792767 0.048900563
0.50449187 0.061648019 0.048895352
0.50451785 0.062503278 0.04889014
0.50368875 0.06343697 0.04835273
0.5037148 0.064293817 0.04834751
0.50374085 0.065150663 0.048342288
0.50291204 0.066090725 0.04780487
0.50293809 0.066949166 0.047799639
0.5029642 0.067807607 0.047794409
0.50299031 0.068666048 0.047789179
0.50216168 0.069614075 0.047251713
0.4799147 0.024140073 0.033539951
0.48079824 0.025033195 0.03406743
0.48082554 0.025931451 0.034061957
0.48170894 0.026819795 0.034589466
0.48259225 0.027704952 0.035116989
0.48261946 0.028600024 0.035111535
0.48350263 0.029480405 0.035639092
0.48352981 0.030373884 0.035633646
0.48441285 0.031249486 0.036161266
0.48529577 0.032121904 0.036688864
0.48532286 0.033012196 0.03668344
0.48620564 0.033879835 0.037211075
0.48708829 0.034744292 0.037738729
0.48797089 0.035605561 0.038266402
0.48885342 0.036463641 0.038794123
0.48973581 0.037318539 0.039321836
0.49061811 0.038170252 0.039849568
0.49064487 0.039050993 0.0398442
0.49152702 0.039897926 0.040371962
0.49240914 0.040741675 0.040899768
0.49329108 0.041582238 0.041427568
0.49417293 0.042419616 0.041955385
0.49419951 0.043293986 0.041950058
0.49593636 0.044084821 0.043011077
0.49596283 0.044956002 0.043005768
0.49684441 0.045782231 0.04353369
0.49772584 0.046605278 0.044061594
0.49860716 0.047425136 0.04458952
0.49948838 0.048241809 0.04511746
0.49951467 0.04910662 0.045112193
0.50039577 0.049918517 0.045640167
0.500422 0.050781738 0.045634907
0.50130296 0.051588856 0.046162941
0.50218379 0.052392788 0.046690959
0.50220996 0.05325282 0.046685718
0.50309068 0.054051977 0.04721377
0.50311673 0.054910418 0.04720854
0.50399733 0.055704795 0.047736619
0.50402331 0.056561641 0.0477314
0.50404936 0.057418492 0.047726177
0.50407541 0.058275338 0.047720958
0.50410146 0.059132189 0.047715735
0.5041275 0.059989035 0.047710512
0.5050078 0.060772263 0.048238695
0.5041796 0.061702732 0.04770007
0.50420564 0.062559582 0.047694851
0.50423169 0.063416429 0.047689628
0.50425774 0.064273275 0.047684405
0.50342989 0.065211706 0.047145765
0.50345594 0.066070147 0.047140535
0.50348204 0.066928588 0.047135305
0.50350815 0.067787029 0.047130071
0.50353426 0.06864547 0.04712484
0.50270665 0.069593452 0.046586141
0.47871944 0.022322623 0.031786174
0.47874689 0.023225658 0.031780671
0.47962958 0.024123596 0.032309346
0.4805122 0.025018347 0.032838084
0.48053956 0.025918197 0.0328326
0.48142201 0.026808172 0.033361327
0.48230436 0.027694961 0.033890076
0.4831866 0.028578565 0.034418847
0.48321381 0.029473636 0.034413394
0.48409593 0.030352464 0.034942187
0.48497799 0.031228103 0.035471041
0.48500508 0.032119989 0.035465606
0.48588696 0.032990854 0.035994448
0.48676872 0.03385853 0.036523316
0.48765039 0.034723021 0.037052207
0.48767737 0.035610132 0.037046798
0.48855889 0.036469847 0.037575711
0.48944038 0.037326373 0.038104679
0.4903217 0.038179718 0.03863363
0.49120295 0.039029874 0.039162602
0.49208409 0.039876848 0.039691597
0.49211079 0.040755995 0.03968624
0.49299183 0.041598186 0.040215291
0.49387273 0.042437196 0.040744334
0.49475354 0.043273021 0.041273389
0.49563423 0.04410566 0.04180247
0.49651486 0.044935115 0.042331573
0.4973954 0.04576138 0.04286072
0.49827582 0.046584465 0.043389861
0.49915615 0.047404364 0.043919012
0.49918246 0.048270769 0.043913733
0.50006264 0.049085889 0.044442922
0.50008893 0.0499507 0.044437651
0.50096893 0.050761044 0.044966869
0.50184894 0.051568195 0.045496132
0.5018751 0.052429821 0.045490883
0.50275493 0.0532322 0.046020146
0.50278103 0.054092236 0.046014909
0.50366068 0.054889835 0.046544198
0.50368679 0.055748276 0.046538964
0.50371289 0.056606717 0.046533734
0.5045923 0.05739795 0.047063068
0.50461835 0.058254797 0.047057848
0.50464439 0.059111644 0.047052626
0.50467044 0.05996849 0.047047403
0.50469649 0.06082534 0.047042184
0.50472254 0.061682187 0.047036961
0.50474858 0.062539034 0.047031742
0.50477463 0.06339588 0.047026519
0.50480068 0.064252734 0.047021296
0.50397378 0.06519112 0.046481423
0.50485277 0.065966427 0.047010854
0.504026 0.066908002 0.046470962
0.50405204 0.067766443 0.046465728
0.50322545 0.068712801 0.045925815
0.50325155 0.069572836 0.045920573
0.50327772 0.070432864 0.045915332
0.47755542 0.0213985 0.030022053
0.4784373 0.022302847 0.030551925
0.47931907 0.023204008 0.031081824
0.48020074 0.024101984 0.031611733
0.48022816 0.025003426 0.031606242
0.48110974 0.025896624 0.03213622
0.4811371 0.026796473 0.032130737
0.48201847 0.027684893 0.032660708
0.48289976 0.028570129 0.033190701
0.48378095 0.029452177 0.033720709
0.48380816 0.03034725 0.033715256
0.48468921 0.031224521 0.034245294
0.48557022 0.032098606 0.034775387
0.48559731 0.032990493 0.034769952
0.48647812 0.033859801 0.035300039
0.48735884 0.034725923 0.035830151
0.48823947 0.035588864 0.036360275
0.48911998 0.036448617 0.036890425
0.49000046 0.03730518 0.037420619
0.49002731 0.038189102 0.037415233
0.49090758 0.039040893 0.037945434
0.49178776 0.0398895 0.038475644
0.49266785 0.040734917 0.039005883
0.49354789 0.041577149 0.039536167
0.49442777 0.042416196 0.040066443
0.49445438 0.043292157 0.040061105
0.49533412 0.044126425 0.040591404
0.49621376 0.044957511 0.041121729
0.49709332 0.045785412 0.041652065
0.49797285 0.046610121 0.042182457
0.49885219 0.047431652 0.042712837
0.49973145 0.048249997 0.043243237
0.49975777 0.049116399 0.043237958
0.50063688 0.049929965 0.043768387
0.50066316 0.050794777 0.04376312
0.50154215 0.051603567 0.044293571
0.50156838 0.052466784 0.044288311
0.50244725 0.053270791 0.044818833
0.503326 0.054071616 0.045349337
0.50335211 0.054931648 0.045344096
0.50423068 0.055727694 0.045874637
0.50425678 0.056586135 0.045869403
0.50428289 0.05744458 0.045864172
0.504309 0.058303017 0.045858942
0.50518733 0.059091102 0.046389524
0.50521338 0.059947949 0.046384301
0.50523943 0.060804799 0.046379082
0.50526547 0.061661646 0.046373859
0.50529152 0.062518492 0.046368636
0.50531757 0.063375339 0.046363417
0.50534356 0.064232193 0.046358194
0.50451773 0.065170541 0.045817092
0.50454384 0.066028982 0.045811862
0.50456989 0.066887423 0.045806631
0.50374424 0.06783215 0.045265485
0.50377035 0.068692185 0.045260243
0.50379652 0.069552213 0.045255002
0.50382268 0.070412248 0.045249764
0.47724861 0.020469204 0.028789617
0.47812963 0.021376772 0.029320735
0.47901049 0.022281159 0.029851841
0.479038 0.023185784 0.029846327
0.47991872 0.024085393 0.030377468
0.48079932 0.024981814 0.030908624
0.48082674 0.025883256 0.030903131
0.48170725 0.026774898 0.031434346
0.4817346 0.027674749 0.031428862
0.48261493 0.028561614 0.031960081
0.48349518 0.029445294 0.032491311
0.4843753 0.030325791 0.033022564
0.48525533 0.0312031 0.033553842
0.48528251 0.03209658 0.033548396
0.48616245 0.03296911 0.034079727
0.48704225 0.033838455 0.034611046
0.48706931 0.034728751 0.034605622
0.48794895 0.03559332 0.035136975
0.48882851 0.036454704 0.035668343
0.48970798 0.037312899 0.036199734
0.49058738 0.038167913 0.036731176
0.49146664 0.039019737 0.037262604
0.49234581 0.039868381 0.03779405
0.4923726 0.040749118 0.037788682
0.49325162 0.041592985 0.038320161
0.49413058 0.04243366 0.038851686
0.49500942 0.043271154 0.039383203
0.49588814 0.044105463 0.039914738
0.49591473 0.044979829 0.039909411
0.49764535 0.045764524 0.040977865
0.49767181 0.046635706 0.040972553
0.49855027 0.047458865 0.041504193
0.49942854 0.048278838 0.042035814
0.50030679 0.049095627 0.042567454
0.50033307 0.049962033 0.042562176
0.50121117 0.050774045 0.043093849
0.50123745 0.051638857 0.043088578
0.50211537 0.052446086 0.043620277
0.50214159 0.053309307 0.043615017
0.50301939 0.05411176 0.044146776
0.50389707 0.054911029 0.044678528
0.50392318 0.055771064 0.044673286
0.50394934 0.056631096 0.044668045
0.50482684 0.057423998 0.04519983
0.50485289 0.058282439 0.0451946
0.504879 0.059140876 0.045189369
0.50575626 0.059927404 0.045721192
0.50578231 0.060784254 0.045715973
0.50580835 0.061641101 0.04571075
0.5058344 0.062497951 0.045705527
0.50586045 0.063354798 0.045700308
0.50503558 0.064291522 0.045157984
0.50506163 0.065149963 0.04515275
0.50508773 0.066008404 0.04514752
0.50511384 0.066866845 0.045142289
0.50513995 0.067725286 0.045137059
0.50431532 0.068671562 0.044594675
0.50434148 0.069531597 0.044589434
0.50351697 0.070482656 0.044047017
0.5035432 0.071344271 0.044041764
0.47697142 0.020446049 0.027549222
0.47785142 0.021355251 0.028081538
0.47873136 0.022261266 0.028613901
0.47961119 0.023164095 0.029146248
0.4796387 0.024068724 0.029140737
0.48051834 0.024966776 0.029673114
0.4813979 0.025861643 0.030205512
0.48142532 0.026763085 0.030200019
0.48230478 0.027653174 0.030732483
0.48233211 0.028553024 0.030726999
0.4832114 0.029438335 0.031259455
0.48409057 0.030320462 0.031791929
0.48496965 0.031199403 0.032324426
0.48584864 0.032075159 0.032856937
0.48587579 0.032968637 0.032851495
0.48675469 0.033839613 0.033384074
0.48763341 0.034707405 0.033916637
0.48851207 0.035572011 0.03444922
0.48939061 0.036433432 0.034981821
0.48941758 0.037320543 0.034976415
0.49029598 0.038177185 0.035509046
0.49117434 0.039030641 0.036041733
0.49205253 0.039880916 0.036574401
0.49293065 0.040728003 0.037107091
0.49380866 0.041571908 0.037639797
0.49383539 0.04245105 0.03763444
0.49471331 0.043290172 0.038167208
0.49559107 0.044126112 0.038699973
0.49646875 0.044958867 0.039232749
0.49734634 0.045788437 0.039765544
0.49822381 0.046614818 0.040298358
0.49910125 0.047438014 0.040831223
0.49912769 0.048307605 0.040825926
0.50000495 0.049126025 0.041358795
0.50088209 0.04994126 0.041891675
0.50090837 0.050807662 0.041886397
0.5017854 0.051618122 0.042419311
0.50181168 0.052482929 0.042414039
0.50268853 0.053288609 0.042946979
0.50271475 0.054151829 0.042941719
0.50359154 0.054952726 0.043474723
0.50446814 0.055750445 0.044007719
0.50449431 0.056610476 0.044002477
0.50452042 0.057470512 0.043997236
0.50539684 0.058261856 0.044530265
0.50542295 0.059120297 0.044525031
0.505449 0.059978735 0.044519801
0.50632524 0.060763713 0.045052867
0.50635129 0.06162056 0.045047648
0.50637734 0.062477406 0.045042425
0.50555342 0.063412502 0.044498876
0.50557947 0.064270943 0.044493645
0.50560558 0.065129377 0.044488415
0.50563169 0.065987825 0.044483185
0.50480795 0.066930875 0.043939587
0.50483412 0.067790911 0.043934345
0.50486028 0.068650946 0.043929104
0.50403672 0.069600366 0.043385465
0.50406295 0.070461996 0.043380212
0.50408912 0.071323618 0.043374963
0.47666857 0.019511821 0.026311919
0.47669625 0.02042282 0.026306368
0.4775753 0.021333652 0.026839903
0.47845423 0.0222413 0.027373461
0.47933313 0.023145759 0.027907064
0.47936067 0.024051981 0.027901543
0.48023936 0.024951663 0.028435145
0.48111796 0.025848161 0.028968766
0.48114541 0.026751196 0.028963262
0.48202386 0.027642915 0.029496912
0.48290229 0.028531451 0.030030614
0.48292965 0.0294313 0.03002513
0.48380786 0.030315056 0.03055883
0.48468599 0.031195628 0.031092547
0.48556399 0.032073013 0.031626284
0.48644191 0.032947216 0.032160044
0.4873198 0.03381823 0.032693852
0.48734692 0.034710117 0.032688417
0.4882246 0.035576355 0.033222221
0.48910218 0.036439408 0.033756047
0.48997968 0.037299275 0.034289889
0.49085706 0.038155954 0.034823753
0.49173442 0.039009452 0.035357669
0.49176127 0.039893374 0.035352282
0.49263841 0.040742092 0.035886202
0.49351549 0.041587625 0.036420133
0.49439242 0.042429972 0.036954083
0.49441916 0.043309119 0.036948726
0.49529603 0.044146687 0.037482738
0.49617273 0.044981074 0.038016737
0.49704936 0.045812272 0.038550757
0.49792588 0.046640284 0.039084796
0.4988023 0.047465116 0.039618853
0.49967867 0.048286755 0.040152963
0.49970511 0.049156345 0.040147662
0.50058126 0.049973208 0.040681768
0.50145739 0.05078689 0.041215893
0.50148374 0.051653296 0.041210614
0.50235963 0.052462198 0.041744769
0.50238591 0.053327009 0.041739501
0.50326174 0.054131135 0.042273685
0.50328797 0.054994352 0.042268422
0.50416368 0.055793695 0.042802669
0.50418985 0.056655321 0.042797416
0.50506538 0.057449892 0.04333166
0.50509149 0.058309924 0.043326419
0.50596684 0.059099715 0.043860689
0.50599295 0.059958156 0.043855458
0.50601906 0.060816597 0.043850228
0.50604516 0.061675038 0.043844998
0.50607121 0.062533475 0.043839768
0.50609732 0.063391916 0.043834534
0.50612342 0.064250357 0.043829303
0.50614953 0.065108798 0.043824073
0.50532675 0.066050224 0.043279253
0.50535291 0.066910259 0.043274011
0.50537908 0.067770295 0.04326877
0.50540519 0.068630323 0.043263528
0.5045827 0.069579713 0.04271866
0.50460887 0.070441335 0.042713411
0.5046351 0.071302958 0.042708158
0.47548935 0.017655501 0.024537455
0.47551712 0.018569684 0.024531886
0.47639537 0.019486925 0.025066614
0.47727349 0.02040098 0.025601361
0.4781515 0.021311849 0.026136128
0.47902945 0.022219535 0.026670909
0.47905704 0.023127345 0.026665376
0.47993487 0.024030253 0.027200224
0.47996244 0.024936473 0.027194703
0.48084006 0.025834601 0.027729547
0.48171762 0.026729545 0.028264411
0.48174506 0.027632581 0.028258909
0.48262244 0.028522747 0.028793801
0.48349983 0.029409725 0.029328745
0.48437703 0.030293521 0.029863678
0.48440433 0.031191777 0.029858204
0.48528138 0.032070793 0.030393165
0.48615834 0.032946628 0.030928146
0.48703521 0.033819273 0.031463146
0.48791203 0.034688734 0.031998198
0.48793915 0.03558062 0.031992763
0.48881575 0.036445305 0.032527812
0.4896923 0.0373068 0.033062879
0.49056873 0.038165115 0.033597965
0.49144506 0.03902024 0.034133065
0.49232134 0.039872181 0.034668226
0.49234822 0.040756106 0.034662839
0.49322432 0.041603271 0.035197992
0.4941003 0.042447247 0.035733167
0.49497622 0.043288041 0.036268361
0.49585205 0.044125646 0.036803607
0.49672776 0.04496007 0.037338842
0.49675438 0.045836031 0.037333503
0.49762994 0.046665676 0.037868764
0.49850541 0.047492135 0.038404047
0.49938077 0.04831541 0.038939346
0.50025612 0.049135495 0.0394747
0.50028253 0.050005086 0.039469399
0.50115764 0.050820399 0.040004749
0.5020327 0.051632524 0.040540118
0.50205904 0.052498925 0.040534839
0.50293392 0.053306274 0.041070238
0.50296021 0.054171085 0.041064966
0.5038349 0.054973658 0.041600388
0.50386119 0.055836875 0.041595127
0.50473583 0.056634665 0.042130616
0.50561029 0.057429273 0.042666089
0.50563645 0.058289304 0.042660851
0.50566256 0.059149336 0.04265561
0.5065369 0.059937574 0.043191124
0.50656301 0.060796015 0.043185893
0.50658906 0.061654456 0.043180659
0.50661516 0.062512897 0.043175429
0.50664127 0.063371338 0.043170199
0.50666738 0.064229779 0.043164968
0.50584555 0.065169573 0.042618923
0.50587171 0.066029608 0.042613681
0.50589788 0.066889636 0.04260844
0.50507629 0.0678358 0.042062357
0.50510246 0.06869743 0.042057108
0.50428098 0.06964837 0.041510962
0.50430721 0.070511594 0.041505702
0.50518101 0.071282305 0.042041358
0.50435966 0.072238036 0.041495182
0.50438595 0.073101252 0.041489922
0.47519121 0.016711526 0.023294013
0.47521904 0.017627301 0.023288433
0.47609639 0.018547766 0.023824407
0.47612417 0.01946195 0.023818836
0.47700134 0.020377636 0.024354806
0.47787839 0.021290137 0.024890797
0.47790611 0.022201136 0.024885247
0.47963226 0.02310558 0.025962831
0.47965986 0.024013394 0.025957299
0.48053664 0.024914747 0.026493389
0.48056418 0.025820967 0.026487866
0.48144075 0.026717542 0.027023954
0.48231724 0.02761093 0.027560063
0.48234469 0.028513964 0.027554559
0.48322102 0.029402576 0.028090695
0.48409733 0.030288002 0.028626878
0.48497349 0.031170242 0.029163051
0.48584953 0.032049298 0.029699247
0.48672548 0.032925166 0.03023546
0.48675269 0.033820238 0.030230006
0.48762849 0.03469133 0.030766249
0.48850426 0.035559237 0.031302538
0.48937988 0.036423959 0.031838819
0.48940694 0.037314251 0.031833395
0.49028242 0.038174197 0.032369707
0.4911578 0.039030954 0.032906037
0.49203306 0.039884526 0.033442378
0.4929083 0.040734913 0.033978779
0.49378338 0.041582115 0.034515169
0.49465835 0.042426132 0.035051577
0.49468514 0.043306869 0.035046209
0.49555999 0.044146109 0.035582647
0.49643478 0.044982161 0.036119137
0.49730942 0.045815028 0.036655605
0.49818397 0.046644714 0.037192103
0.49821055 0.04751908 0.037186772
0.49908495 0.048343986 0.037723295
0.49995926 0.049165703 0.038259842
0.50083351 0.049984235 0.038796429
0.50085998 0.050853826 0.038791131
0.50173402 0.051667582 0.039327722
0.502608 0.052478153 0.039864335
0.50263435 0.053344559 0.039859056
0.50350815 0.054150354 0.040395696
0.50353444 0.055015165 0.040390428
0.50440812 0.055816181 0.040927097
0.50443435 0.056679398 0.040921837
0.50530797 0.057475634 0.041458562
0.50618136 0.058268685 0.041995279
0.50620753 0.059128717 0.041990038
0.50623369 0.059988752 0.0419848
0.5071069 0.060775436 0.042521555
0.50713301 0.061633874 0.042516325
0.50715911 0.062492315 0.042511094
0.50718516 0.063350752 0.042505864
0.50721127 0.0642092 0.04250063
0.50639051 0.06514895 0.041953355
0.50641668 0.066008985 0.041948114
0.50644279 0.06686902 0.041942872
0.50562221 0.067815147 0.041395556
0.50564843 0.06867677 0.041390304
0.50482792 0.06962768 0.040842932
0.50485414 0.070490897 0.040837672
0.50488043 0.071354114 0.040832411
0.50490665 0.072217338 0.040827151
0.50493288 0.073080555 0.040821891
0.4749229 0.01668166 0.022042569
0.47579929 0.017605346 0.022579726
0.47667563 0.018525848 0.023116933
0.47670344 0.019440033 0.023111362
0.47757959 0.020355755 0.02364856
0.47845563 0.021268295 0.024185784
0.47848332 0.022179294 0.024180233
0.47935924 0.023087054 0.024717486
0.48023507 0.023991629 0.025254752
0.48026267 0.024899444 0.02524922
0.48113838 0.025799241 0.025786554
0.48116592 0.026705461 0.025781032
0.48204145 0.02760048 0.026318364
0.48291689 0.028492315 0.026855707
0.48294434 0.029395349 0.026850205
0.4838196 0.030282406 0.027387584
0.48469484 0.031166278 0.027925014
0.48556995 0.032046963 0.028462427
0.48644492 0.032924466 0.028999863
0.48731983 0.03379878 0.02953732
0.48734704 0.034693852 0.029531866
0.48822179 0.035563391 0.030069347
0.48909649 0.03642974 0.030606885
0.48997104 0.037292905 0.031144409
0.49084553 0.038152888 0.031681947
0.49171987 0.039009687 0.032219511
0.49174684 0.039896794 0.032214105
0.49262106 0.040748812 0.032751698
0.49349523 0.041597642 0.033289336
0.49436927 0.04244329 0.03382697
0.49524319 0.043285754 0.034364618
0.49526995 0.04416649 0.03435925
0.49614376 0.045004178 0.034896925
0.49701747 0.045838673 0.035434656
0.49789107 0.04666999 0.035972375
0.49876457 0.047498114 0.03651011
0.49963796 0.048323061 0.037047867
0.50051129 0.049144819 0.037585638
0.50053775 0.050016001 0.03758033
0.50141096 0.050832979 0.038118169
0.50143737 0.051702566 0.038112868
0.5023104 0.052514769 0.038650703
0.50318331 0.053323787 0.039188553
0.50320965 0.054190189 0.039183274
0.50408238 0.05499443 0.039721157
0.50410867 0.055859242 0.039715886
0.50498134 0.0566587 0.040253799
0.50500757 0.057521921 0.040248539
0.50588006 0.0583166 0.040786508
0.50675249 0.059108097 0.04132447
0.5067786 0.059968133 0.041319229
0.50680476 0.060828168 0.041313987
0.50767696 0.061613295 0.04185199
0.50770301 0.062471732 0.041846756
0.50772911 0.063330173 0.041841526
0.50690931 0.064268298 0.041293025
0.50693548 0.065128334 0.041287784
0.50696158 0.065988369 0.041282542
0.50614196 0.066932857 0.040734004
0.50616819 0.067794487 0.040728752
0.50619435 0.068656117 0.040723503
0.50537491 0.069606982 0.040174898
0.50540113 0.070470199 0.040169638
0.50542736 0.071333423 0.040164378
0.50545359 0.07219664 0.040159117
0.50463444 0.07315547 0.03961049
0.47378108 0.015723214 0.020250306
0.47550416 0.016659666 0.021332629
0.47637954 0.017583389 0.021871019
0.47640738 0.018499166 0.021865439
0.47728267 0.019418115 0.022403883
0.47731045 0.020332297 0.022398312
0.47818556 0.021246467 0.02293676
0.47906056 0.022157453 0.02347522
0.47908825 0.02306845 0.02346967
0.47996309 0.023974657 0.024008166
0.48083788 0.024877679 0.024546675
0.48086545 0.025785491 0.024541143
0.48174012 0.026683733 0.02507972
0.48176765 0.027589954 0.025074197
0.48264214 0.028483419 0.025612766
0.48351651 0.0293737 0.026151359
0.4843908 0.030260794 0.026689965
0.48526502 0.031144703 0.027228629
0.48529238 0.032044552 0.027223146
0.48616642 0.032923684 0.0277618
0.48704034 0.03379963 0.028300481
0.48791417 0.034672391 0.028839175
0.48878792 0.035541967 0.029377894
0.4896616 0.036408357 0.029916666
0.48968872 0.037300244 0.029911231
0.49056223 0.038161855 0.030449992
0.49143562 0.039020281 0.030988781
0.49230894 0.039875526 0.031527583
0.49233592 0.040762633 0.031522173
0.49320906 0.041613098 0.032061011
0.49408218 0.042460375 0.032599892
0.49495515 0.043304469 0.033138767
0.49582803 0.044145375 0.033677656
0.49670079 0.0449831 0.034216568
0.49672753 0.045862243 0.034211211
0.4976002 0.046695188 0.034750178
0.49847272 0.047524948 0.035289142
0.49934518 0.048351523 0.035828117
0.5002175 0.049174909 0.036367118
0.50108975 0.049995113 0.036906131
0.50111622 0.050866298 0.036900822
0.50198835 0.05168172 0.037439905
0.50201482 0.052551307 0.037434604
0.50288677 0.053361956 0.03797368
0.50375861 0.05416942 0.038512778
0.50378495 0.055035822 0.038507495
0.50465667 0.055838507 0.039046619
0.50552827 0.056638006 0.039585765
0.5055545 0.057501227 0.039580505
0.50558072 0.058364443 0.039575245
0.5064522 0.059157569 0.040114462
0.50732356 0.059947513 0.040653661
0.50734967 0.060807548 0.040648419
0.50737584 0.06166758 0.040643178
0.50740194 0.062527612 0.040637936
0.50742811 0.063387647 0.040632695
0.50745428 0.064247683 0.040627457
0.50748038 0.065107711 0.040622216
0.50750655 0.065967746 0.040616974
0.50668794 0.066912204 0.040067207
0.50671411 0.067773834 0.040061954
0.50589561 0.068723068 0.03951212
0.50592184 0.069586284 0.03950686
0.50510353 0.070540294 0.03895703
0.50597429 0.071312726 0.03949634
0.50600058 0.07217595 0.03949108
0.50518239 0.073134735 0.038941219
0.47523889 0.016629681 0.020077486
0.47611332 0.017555039 0.020617094
0.47698763 0.018477211 0.021156726
0.47701547 0.019392986 0.021151146
0.47788972 0.02031038 0.021690832
0.47791749 0.021224564 0.021685261
0.47879153 0.02213718 0.022224953
0.47966549 0.023046609 0.022764657
0.47969317 0.023957606 0.022759106
0.48056698 0.02486226 0.023298839
0.48144066 0.025763726 0.023838596
0.48146826 0.026671538 0.023833064
0.48234189 0.027568227 0.024372879
0.48236942 0.028474448 0.024367357
0.48324284 0.029366359 0.024907168
0.48411614 0.030255085 0.025447004
0.48498937 0.031140625 0.025986854
0.48586252 0.032022979 0.02652676
0.48673555 0.032902148 0.02706665
0.48760849 0.033778135 0.027606558
0.48848131 0.034650933 0.02814649
0.48850852 0.035546005 0.028141037
0.48938122 0.036414027 0.028680993
0.49025384 0.037278861 0.029221006
0.49028096 0.038170747 0.029215571
0.49115339 0.039030805 0.029755576
0.49202576 0.039887678 0.030295601
0.49289799 0.040741365 0.030835651
0.49377015 0.041591868 0.031375714
0.49464226 0.042439181 0.031915836
0.49466914 0.043323107 0.031910449
0.49554104 0.044165645 0.03245056
0.49641284 0.045004997 0.03299069
0.49728456 0.045841165 0.033530846
0.49815625 0.046674147 0.034071051
0.49902776 0.047503944 0.03461124
0.4990544 0.048379906 0.034605902
0.49992576 0.049204923 0.035146125
0.50079703 0.05002676 0.035686363
0.50166821 0.050845411 0.036226623
0.50169474 0.051716592 0.036221314
0.5025658 0.052530456 0.036761638
0.50343674 0.053341143 0.037301946
0.50346315 0.054209143 0.037296657
0.50433391 0.05501505 0.037836995
0.50520462 0.055817772 0.038377348
0.5052309 0.056682583 0.038372077
0.50610149 0.057480529 0.038912464
0.50612772 0.058343749 0.038907204
0.50699818 0.059136912 0.03944765
0.50702435 0.059998535 0.039442401
0.50789464 0.060786929 0.039982848
0.50792074 0.061646961 0.039977606
0.50794691 0.062506989 0.039972365
0.50797307 0.063367024 0.039967123
0.50799918 0.064227059 0.039961882
0.50802535 0.065087095 0.03995664
0.50720769 0.066029914 0.039405648
0.50723386 0.066891544 0.039400399
0.50641632 0.067839153 0.038849343
0.50644255 0.068702377 0.038844083
0.50646877 0.069565587 0.038838822
0.50649506 0.070428811 0.038833562
0.50567776 0.071384378 0.038282491
0.50570405 0.072249189 0.03827722
0.50573033 0.073114 0.038271949
0.47413003 0.016591597 0.018273413
0.47584909 0.017526612 0.019360714
0.47587702 0.018445574 0.019355113
0.47675034 0.019367782 0.019895973
0.47762358 0.020286808 0.020436851
0.47849676 0.021202646 0.020977788
0.47852454 0.022116829 0.020972218
0.47939751 0.023027889 0.021513145
0.48027042 0.023935765 0.022054093
0.4802981 0.024846764 0.022048542
0.48117083 0.025749862 0.022589518
0.48204347 0.026649773 0.023130519
0.48207107 0.027557587 0.023124987
0.48294362 0.02845272 0.023666045
0.48381603 0.02934467 0.024207089
0.48468834 0.030233433 0.024748152
0.48471579 0.031136468 0.02474265
0.48558795 0.032020453 0.025283748
0.48646006 0.032901254 0.025824891
0.48733202 0.033778869 0.026366023
0.48820388 0.034653299 0.026907174
0.48907566 0.035524543 0.027448351
0.48910287 0.036419615 0.027442897
0.4899745 0.037286084 0.027984096
0.4908461 0.038149364 0.028525347
0.49171752 0.039009459 0.029066585
0.49174458 0.039899752 0.029061161
0.49261588 0.040755071 0.029602433
0.49348706 0.041607205 0.030143721
0.49435815 0.042456154 0.030685026
0.49522921 0.043301914 0.031226384
0.4961001 0.044144489 0.031767733
0.49697092 0.044983882 0.0323091
0.49699768 0.045864619 0.032303732
0.49786833 0.046699233 0.032845128
0.49873894 0.047530659 0.033386573
0.49960941 0.048358902 0.033928007
0.49963605 0.049234863 0.033922669
0.50050634 0.050058331 0.034464132
0.50137657 0.05087861 0.035005614
0.50224674 0.051695704 0.035547119
0.5022732 0.052566886 0.03554181
0.50314325 0.0533792 0.036083374
0.50401312 0.054188333 0.036624923
0.50488293 0.054994278 0.037166491
0.50490922 0.055860683 0.037161212
0.50577891 0.056661852 0.03770281
0.50580519 0.057526663 0.037697542
0.50667465 0.058323052 0.03823917
0.50670093 0.059186272 0.03823391
0.50757033 0.059977878 0.0387756
0.50759649 0.060839504 0.038770348
0.50846571 0.061626341 0.039312035
0.50849187 0.062486373 0.039306793
0.50851798 0.063346408 0.039301556
0.50854415 0.064206444 0.039296314
0.50772744 0.065147631 0.038744096
0.50775361 0.066009261 0.038738847
0.50777984 0.066870883 0.038733594
0.50696331 0.067818455 0.038181305
0.50698954 0.06868168 0.038176045
0.50701576 0.069544896 0.038170785
0.50619948 0.070498832 0.037618492
0.50622576 0.071363643 0.037613224
0.50625205 0.072228454 0.037607953
0.50627834 0.073093265 0.037602682
0.4738698 0.016561424 0.01701211
0.47558689 0.017498108 0.018101865
0.47645929 0.018423542 0.01864394
0.47733161 0.019345788 0.019186033
0.47820383 0.020264851 0.019728145
0.47823167 0.021180628 0.019722564
0.47910377 0.022094911 0.020264739
0.47997576 0.023006011 0.020806899
0.48084763 0.023913924 0.02134908
0.48087534 0.024824923 0.021343529
0.48090303 0.02573592 0.021337977
0.48177472 0.026637465 0.021880196
0.48264629 0.027535822 0.022422442
0.48351783 0.028430995 0.022964731
0.48354536 0.029337214 0.02295921
0.48441672 0.030227609 0.023501497
0.48528796 0.031114819 0.024043804
0.48531541 0.032017853 0.0240383
0.4861865 0.032900285 0.024580637
0.48705757 0.033779532 0.025123024
0.48792848 0.03465559 0.025665399
0.4887993 0.035528466 0.026207792
0.48967001 0.036398157 0.026750209
0.49054062 0.037264664 0.027292641
0.4905678 0.038158141 0.027287196
0.4914383 0.039019868 0.027829694
0.49230868 0.039878409 0.028372174
0.49317896 0.040733766 0.028914675
0.49404916 0.041585937 0.029457197
0.49407613 0.042473044 0.029451789
0.49494615 0.04332044 0.029994339
0.49581614 0.044164643 0.030536944
0.49668598 0.045005668 0.031079531
0.49755573 0.045843504 0.031622138
0.49842539 0.046678156 0.032164767
0.49845213 0.047557302 0.03215941
0.49932167 0.048387174 0.0327021
0.50019109 0.04921386 0.033244774
0.50106037 0.050037365 0.03378747
0.50108695 0.050911736 0.033782143
0.50195611 0.051730458 0.034324866
0.5028252 0.052545998 0.034867611
0.50369424 0.05335835 0.035410408
0.50372064 0.054227941 0.035405107
0.5045895 0.055035517 0.0359479
0.50545824 0.055839911 0.036490712
0.50548452 0.056706313 0.036485434
0.50635314 0.057505928 0.037028275
0.50637943 0.058370739 0.037023004
0.50724787 0.059165575 0.037565876
0.50727409 0.060028791 0.037560616
0.50814247 0.060818847 0.038103547
0.50816864 0.061680473 0.038098294
0.5081948 0.062542096 0.038093045
0.50906295 0.063325785 0.03863598
0.5082472 0.064265355 0.038082544
0.50827336 0.065126978 0.038077291
0.50829959 0.0659886 0.038072042
0.50832576 0.06685023 0.038066793
0.50751024 0.067797765 0.037513271
0.50753647 0.068660982 0.037508011
