# .PCD v0.7 - Point Cloud Data file format
VERSION 0.7
FIELDS x y z
SIZE 4 4 4
TYPE F F F
COUNT 1 1 1
WIDTH 1392
HEIGHT 1
VIEWPOINT 0 0 0 1 0 0 0
POINTS 1392
DATA ascii
0.42200959 0.072305612 0.048883118
0.42293993 0.073176235 0.049352791
0.42387018 0.074043676 0.049822491
0.42570156 0.074818172 0.050767757
0.42573047 0.075768985 0.050761964
0.42666042 0.076626867 0.051231723
0.42849129 0.077387042 0.052177049
0.42942101 0.078236967 0.052646849
0.42944974 0.07918141 0.052641094
0.43037936 0.080026545 0.053110957
0.430408 0.080969393 0.053105213
0.43133745 0.081809759 0.053575069
0.43136606 0.082751013 0.053569335
0.43229535 0.083586596 0.054039221
0.4323239 0.084526263 0.054033495
0.43235248 0.08546593 0.05402777
0.43238103 0.086405598 0.054022044
0.43240958 0.087345265 0.054016318
0.43243816 0.088284932 0.054010592
0.43246672 0.089224599 0.054004867
0.43249527 0.090164259 0.053999141
0.43252385 0.091103926 0.053993415
0.4325524 0.092043594 0.053987689
0.43348116 0.092861667 0.054457691
0.43350965 0.09379974 0.054451972
0.43353817 0.094737805 0.054446258
0.43356669 0.095675878 0.054440539
0.43359521 0.096613951 0.054434825
0.4336237 0.097552024 0.054429106
0.43365222 0.098490097 0.054423392
0.43368074 0.099428177 0.054417673
0.43370926 0.10036625 0.054411959
0.43373775 0.10130432 0.054406241
0.43376628 0.1022424 0.054400526
0.4337948 0.10318047 0.054394808
0.43382332 0.10411854 0.054389093
0.43385181 0.10505661 0.054383375
0.43388033 0.10599469 0.05437766
0.43300939 0.10707825 0.05389607
0.43303794 0.10801791 0.053890344
0.43306652 0.10895759 0.053884618
0.43309507 0.10989725 0.053878892
0.43312362 0.11083692 0.053873166
0.4331522 0.11177658 0.053867441
0.42066947 0.067650676 0.047218136
0.42069867 0.068611048 0.047212284
0.42072785 0.069571413 0.047206432
0.42165744 0.070450045 0.047677297
0.42168656 0.071408816 0.047671452
0.42261606 0.072282664 0.048142366
0.42354542 0.073153324 0.048613276
0.42447466 0.074020803 0.049084201
0.4254038 0.074885093 0.049555149
0.42633292 0.075746194 0.050026149
0.42726186 0.076604113 0.050497133
0.42819071 0.077458844 0.050968137
0.4291195 0.0783104 0.051439162
0.43004814 0.079158768 0.051910207
0.43007687 0.080103211 0.051904451
0.43100542 0.080946788 0.052375551
0.43103409 0.081889637 0.052369803
0.43196246 0.082728446 0.052840907
0.43199107 0.083669707 0.05283517
0.43201968 0.084610961 0.052829433
0.43204829 0.085552223 0.0528237
0.4320769 0.086493485 0.052817963
0.43300498 0.087322742 0.05328913
0.43303356 0.088262402 0.053283405
0.43306211 0.089202069 0.053277679
0.43309066 0.090141736 0.053271953
0.43311924 0.091081396 0.053266224
0.43314779 0.092021063 0.053260498
0.43317634 0.092960738 0.053254772
0.43320492 0.093900397 0.053249046
0.43323347 0.094840065 0.05324332
0.43326202 0.095779732 0.053237595
0.4332906 0.096719399 0.053231869
0.43421811 0.097529538 0.053703144
0.4342466 0.098467611 0.05369743
0.43427512 0.099405684 0.053691711
0.43430364 0.10034376 0.053685997
0.43433216 0.10128183 0.053680278
0.43436065 0.10221991 0.053674564
0.43438917 0.10315797 0.053668845
0.4335191 0.10423672 0.053186059
0.43354765 0.10517639 0.053180333
0.4335762 0.10611606 0.053174607
0.43360478 0.10705572 0.053168882
0.43363333 0.10799539 0.053163156
0.43366191 0.10893506 0.05315743
0.43369046 0.10987472 0.053151704
0.43371901 0.11081439 0.053145979
0.43284938 0.11190747 0.052663099
0.42124879 0.066667281 0.046480764
0.42127797 0.067627653 0.046474911
0.42130718 0.068588018 0.046469059
0.42223579 0.069468275 0.046941143
0.42226493 0.070427053 0.046935301
0.42229408 0.071385831 0.04692946
0.42322257 0.072259709 0.047401611
0.42415091 0.073130414 0.047873747
0.42507914 0.07399793 0.048345909
0.42600727 0.074862257 0.048818089
0.42693537 0.075723395 0.049290318
0.42696428 0.076674208 0.049284525
0.42789218 0.07753057 0.049756754
0.42881995 0.078383759 0.050229002
0.42974767 0.079233751 0.050701264
0.4306753 0.080080569 0.051173549
0.430704 0.081025012 0.051167794
0.43163151 0.081867032 0.051640142
0.43166018 0.082809888 0.051634397
0.43168882 0.083752736 0.051628653
0.43261608 0.084588394 0.052101005
0.4326447 0.085529663 0.052095272
0.43267331 0.086470917 0.052089535
0.43270192 0.087412179 0.052083798
0.43273053 0.088353433 0.052078065
0.43275914 0.089294687 0.052072328
0.43278775 0.090235949 0.052066591
0.43281636 0.091177203 0.052060857
0.43374318 0.091998532 0.052533299
0.43377176 0.092938207 0.052527573
0.43380031 0.093877874 0.052521847
0.43382886 0.094817534 0.052516121
0.43385744 0.095757201 0.052510396
0.43388599 0.096696869 0.052504666
0.43391457 0.097636536 0.05249894
0.43394312 0.098576203 0.052493215
0.43397167 0.099515863 0.052487489
0.43400025 0.10045554 0.052481763
0.4340288 0.1013952 0.052476037
0.43405735 0.10233486 0.052470312
0.43408594 0.10327453 0.052464586
0.43411449 0.10421419 0.05245886
0.43414304 0.10515387 0.052453134
0.43417162 0.10609353 0.052447408
0.43420017 0.10703319 0.052441683
0.43422875 0.10797286 0.052435957
0.4342573 0.10891253 0.052430227
0.43338856 0.11000238 0.051946141
0.43341717 0.11094365 0.051940404
0.43344578 0.11188491 0.051934671
0.4218573 0.066644251 0.04573755
0.4218865 0.067604624 0.045731697
0.42191568 0.068564996 0.045725845
0.42194489 0.069525361 0.045719992
0.42287245 0.070404068 0.046193317
0.4229016 0.071362846 0.046187475
0.42382905 0.072236761 0.046660855
0.42475638 0.073107503 0.047134232
0.42478544 0.0740631 0.047128409
0.42571262 0.074929059 0.047601812
0.42663968 0.075791828 0.048075233
0.42756674 0.076651417 0.048548702
0.42849362 0.077507816 0.049022164
0.42852247 0.078457043 0.049016379
0.4294492 0.079308666 0.049489867
0.43037587 0.080157109 0.049963377
0.4304046 0.081103146 0.049957611
0.43133113 0.081946813 0.050431151
0.43135983 0.082891248 0.050425395
0.43228623 0.083730131 0.050898992
0.4323149 0.08467298 0.050893243
0.43234354 0.085615836 0.050887499
0.43237221 0.086558692 0.050881755
0.43240085 0.087501541 0.05087601
0.43332693 0.088330865 0.051349636
0.43335554 0.089272127 0.051343899
0.43338415 0.090213381 0.051338162
0.43341276 0.091154642 0.051332429
0.43344137 0.092095897 0.051326692
0.43346998 0.093037158 0.051320955
0.43349859 0.09397842 0.051315222
0.4335272 0.094919674 0.051309485
0.43355581 0.095860936 0.051303748
0.43448138 0.096674338 0.051777475
0.43450996 0.097614005 0.051771745
0.43453851 0.098553672 0.051766019
0.43456706 0.099493332 0.051760294
0.43459564 0.10043301 0.051754568
0.4346242 0.10137267 0.051748842
0.43465275 0.10231234 0.051743116
0.43468133 0.103252 0.05173739
0.43470988 0.10419166 0.051731665
0.43473846 0.10513134 0.051725939
0.43476701 0.106071 0.051720213
0.43389913 0.10715604 0.05123492
0.43392774 0.1080973 0.051229183
0.43395635 0.10903856 0.051223449
0.43308866 0.11012997 0.050738119
0.43311733 0.11107282 0.05073237
0.43314597 0.11201567 0.050726626
0.42156827 0.066696487 0.044513952
0.42249501 0.067581601 0.044988472
0.42252421 0.068541966 0.044982623
0.42255339 0.069502339 0.044976771
0.42347994 0.070381083 0.045451328
0.42350909 0.071339861 0.045445487
0.42443556 0.072213814 0.0459201
0.42446464 0.073170997 0.045914266
0.42539093 0.074040182 0.046388879
0.4263171 0.074906185 0.046863515
0.42724317 0.075768992 0.047338173
0.42816919 0.076628618 0.047812875
0.4281981 0.077579431 0.047807083
0.42912391 0.078434281 0.048281785
0.43004966 0.079285949 0.048756503
0.43007848 0.080233574 0.048750728
0.43100405 0.081080467 0.049225483
0.43103281 0.082026497 0.049219716
0.43106157 0.082972534 0.049213953
0.43198696 0.083813049 0.049688745
0.43201566 0.084757492 0.04968299
0.43204436 0.085701942 0.049677234
0.43207309 0.086646385 0.049671479
0.43299827 0.087478936 0.050146345
0.43302694 0.088421784 0.050140601
0.43305561 0.089364633 0.050134856
0.43308425 0.090307482 0.050129112
0.43311292 0.091250338 0.050123364
0.43314156 0.092193186 0.050117619
0.43317023 0.093136042 0.050111875
0.434095 0.093955852 0.050586786
0.43412361 0.094897106 0.050581049
0.43415222 0.095838368 0.050575316
0.43418083 0.09677963 0.050569579
0.43420944 0.097720884 0.050563842
0.43423805 0.098662145 0.050558109
0.43426666 0.0996034 0.050552372
0.43429527 0.10054466 0.050546635
0.43521959 0.10135014 0.051021643
0.43524817 0.10228981 0.051015917
0.43527672 0.10322947 0.051010191
0.43530527 0.10416914 0.051004462
0.43443832 0.10525095 0.050517958
0.43446693 0.10619221 0.050512221
0.43449554 0.10713348 0.050506487
0.43362877 0.10822166 0.050019946
0.43365741 0.10916452 0.050014202
0.43368608 0.11010736 0.050008457
0.43281946 0.11120193 0.049521845
0.43284816 0.11214638 0.049516089
0.42214856 0.065711461 0.043775372
0.42307433 0.066598207 0.04425111
0.42310354 0.067558579 0.044245258
0.42313272 0.068518944 0.044239406
0.42316189 0.069479316 0.044233553
0.42408746 0.070358098 0.044709343
0.42411658 0.071316868 0.044703502
0.42504206 0.072190866 0.045179352
0.42507115 0.073148049 0.045173518
0.42599639 0.074017279 0.045649365
0.42692158 0.074883312 0.046125233
0.42784664 0.075746156 0.046601117
0.42787558 0.076698571 0.046595313
0.42880055 0.077556632 0.047071259
0.42882946 0.078507453 0.047065463
0.42975423 0.079360753 0.047541413
0.42978308 0.080309972 0.047535628
0.43070769 0.081158489 0.048011601
0.43073651 0.082106113 0.048005823
0.43166098 0.082949854 0.048481829
0.43168974 0.083895892 0.048476066
0.4317185 0.084841929 0.0484703
0.43264279 0.0856793 0.04894634
0.43267149 0.086623743 0.048940584
0.43270022 0.087568186 0.048934828
0.43272892 0.088512629 0.048929073
0.43275762 0.089457072 0.048923321
0.43278632 0.090401515 0.048917565
0.43281505 0.091345958 0.04891181
0.43373898 0.092170581 0.049387958
0.43376765 0.093113437 0.049382214
0.43379632 0.094056286 0.049376465
0.43382496 0.094999135 0.049370721
0.43385363 0.095941991 0.049364977
0.43388227 0.096884839 0.049359232
0.43480584 0.097698323 0.049835421
0.43483445 0.098639578 0.049829684
0.43486306 0.099580832 0.049823951
0.43489167 0.1005221 0.049818214
0.43492028 0.10146336 0.049812477
0.43494889 0.10240461 0.049806744
0.4349775 0.10334587 0.049801007
0.43500611 0.10428713 0.04979527
0.43503472 0.10522839 0.049789533
0.43416888 0.10631336 0.049301777
0.43419752 0.1072562 0.049296029
0.43422619 0.10819905 0.049290285
0.43336046 0.1092904 0.048802461
0.43338916 0.11023484 0.048796706
0.43252364 0.11133096 0.048308883
0.4325524 0.11227699 0.04830312
0.42275807 0.065688401 0.04303091
0.42368284 0.066575177 0.043507889
0.42371204 0.067535549 0.043502036
0.42374122 0.068495922 0.043496184
0.42466581 0.069376327 0.043973193
0.42469496 0.070335105 0.043967351
0.4247241 0.071293883 0.043961506
0.42564854 0.072167918 0.044438589
0.42567766 0.073125102 0.044432756
0.42660189 0.073994368 0.044909835
0.42752606 0.074860439 0.04538694
0.42755505 0.075814441 0.045381125
0.42847905 0.076675735 0.045858253
0.42940301 0.077533841 0.046335429
0.42943192 0.078484654 0.046329636
0.42946082 0.079435468 0.046323843
0.43038455 0.080287211 0.046801027
0.4304134 0.081236437 0.046795242
0.43133694 0.082083397 0.047272462
0.43136576 0.083031021 0.047266688
0.43139455 0.083978653 0.047260914
0.43231794 0.084819242 0.047738168
0.4323467 0.085765287 0.047732402
0.43237546 0.086711325 0.047726639
0.43240419 0.087657355 0.047720872
0.43243295 0.088603392 0.047715109
0.43246171 0.08954943 0.047709342
0.43338475 0.090378873 0.048186671
0.43341345 0.091323316 0.048180915
0.43344218 0.092267759 0.04817516
0.43347088 0.09321221 0.048169404
0.43349957 0.094156653 0.048163649
0.43352827 0.095101096 0.048157893
0.43355697 0.096045539 0.048152138
0.43447968 0.096862234 0.048629563
0.43450835 0.09780509 0.048623819
0.43453702 0.098747931 0.048618071
0.43456566 0.099690787 0.048612326
0.43459433 0.10063364 0.048606582
0.434623 0.10157649 0.048600838
0.43465164 0.10251934 0.048595089
0.43468031 0.10346219 0.048589345
0.43470895 0.10440505 0.048583601
0.43473762 0.1053479 0.048577853
0.43476629 0.10629075 0.048572108
0.43390146 0.10737887 0.048083074
0.43393019 0.10832331 0.048077323
0.43306556 0.1094162 0.047588281
0.43309432 0.11036224 0.047582515
0.43222985 0.11145991 0.047093451
0.43225867 0.11240754 0.047087677
0.43139434 0.11350998 0.046598576
0.42336759 0.065665334 0.042286456
0.42339686 0.066627301 0.042280592
0.42432055 0.067512527 0.042758811
0.42524418 0.068394564 0.043237045
0.42527333 0.069353342 0.043231204
0.42530248 0.07031212 0.043225363
0.42533162 0.071270898 0.043219518
0.42625505 0.07214497 0.043697834
0.42628413 0.073102154 0.043692
0.42720738 0.073971458 0.044170313
0.42813054 0.074837565 0.044648644
0.42815953 0.075791568 0.044642828
0.42908251 0.076652899 0.045121189
0.42911148 0.077605307 0.045115385
0.43003437 0.078461863 0.045593809
0.43006328 0.079412676 0.045588013
0.43009219 0.08036349 0.04558222
0.43101484 0.081213675 0.046060648
0.43104368 0.082162894 0.046054862
0.43107253 0.083112121 0.046049081
0.431995 0.083955936 0.046527553
0.43202379 0.084903561 0.046521779
0.43205261 0.0858512 0.046516005
0.4320814 0.086798824 0.046510227
0.43211022 0.087746449 0.046504453
0.43303239 0.088580713 0.046982978
0.43306115 0.08952675 0.046977215
0.43308991 0.090472788 0.046971448
0.43311867 0.091418825 0.046965685
0.4331474 0.092364863 0.046959918
0.43317616 0.0933109 0.046954155
0.43320492 0.094256938 0.046948388
0.4341267 0.095078453 0.047426991
0.4341554 0.096022896 0.047421239
0.43418413 0.09696734 0.047415484
0.43421283 0.097911783 0.047409728
0.43424153 0.098856233 0.047403973
0.43427023 0.099800676 0.047398217
0.43429896 0.10074512 0.047392461
0.43432766 0.10168956 0.047386706
0.43435636 0.10263401 0.04738095
0.43438506 0.10357845 0.047375195
0.43441379 0.10452289 0.047369439
0.43444249 0.10546733 0.047363687
0.43447119 0.10641178 0.047357932
0.43449989 0.10735622 0.047352176
0.43363625 0.10844748 0.046861917
0.43366501 0.10939352 0.04685615
0.43280151 0.11048955 0.046365865
0.4328303 0.11143719 0.04636009
0.43196696 0.112538 0.045869768
0.43199581 0.11348722 0.045863982
0.42394787 0.064680308 0.041547865
0.42397714 0.065642275 0.041542005
0.42489988 0.066529132 0.04202145
0.42492908 0.067489497 0.042015597
0.42495826 0.06844987 0.042009745
0.42588082 0.069330357 0.042489219
0.42590997 0.070289135 0.042483378
0.42593911 0.071247913 0.042477537
0.42686155 0.072122023 0.042957079
0.42689064 0.073079206 0.042951245
0.42781287 0.073948547 0.04343079
0.42784193 0.074904136 0.043424968
0.42876399 0.075768694 0.043904547
0.42879298 0.076722689 0.043898735
0.42971495 0.077582471 0.044378337
0.42974389 0.078534886 0.044372533
0.43066573 0.079389878 0.044852193
0.43069464 0.080340691 0.044846397
0.43072355 0.081291512 0.044840604
0.43164513 0.08214014 0.045320276
0.431674 0.083089359 0.045314491
0.43170285 0.084038585 0.045308705
0.4317317 0.084987804 0.045302924
0.43265304 0.085828476 0.045782641
0.43268186 0.086776108 0.045776866
0.43271065 0.087723732 0.045771092
0.43273947 0.088671364 0.045765318
0.43276826 0.089618988 0.045759544
0.43279707 0.09056662 0.04575377
0.43282586 0.091514252 0.045747995
0.43285468 0.092461877 0.045742221
0.43288347 0.093409508 0.045736443
0.43380436 0.09423425 0.046216268
0.43383309 0.095180288 0.046210501
0.43386185 0.096126325 0.046204738
0.43389061 0.097072363 0.046198972
0.43391937 0.0980184 0.046193209
0.43394813 0.09896443 0.046187442
0.43397689 0.099910468 0.046181679
0.43489736 0.10072248 0.046661571
0.43492606 0.10166692 0.046655819
0.43495479 0.10261136 0.046650063
0.43498349 0.10355581 0.046644308
0.43501219 0.10450025 0.046638552
0.43504089 0.10544469 0.046632797
0.43417817 0.10653272 0.046141323
0.43420693 0.10747876 0.04613556
0.43334433 0.10857157 0.045644052
0.43337315 0.10951921 0.045638278
0.4325107 0.1106168 0.045146745
0.43253955 0.11156602 0.045140963
0.43167725 0.1126684 0.0446494
0.43170616 0.11361921 0.044643607
0.43084395 0.11472636 0.044151992
0.42449895 0.062733322 0.040815134
0.42452818 0.063695282 0.040809274
0.42455742 0.064657249 0.04080341
0.42458665 0.065619208 0.04079755
0.42550841 0.066506103 0.041278221
0.42553759 0.067466475 0.041272368
0.42556679 0.068426847 0.041266516
0.42648834 0.069307372 0.041747227
0.42651749 0.07026615 0.041741382
0.42654663 0.07122492 0.041735541
0.42746806 0.072099075 0.042216323
0.42749715 0.073056258 0.04221049
0.42841837 0.073925637 0.042691268
0.4284474 0.074881226 0.042685445
0.4293685 0.075745821 0.043166254
0.42939749 0.076699816 0.043160439
0.42942649 0.077653818 0.043154627
0.43034735 0.07851205 0.043635473
0.43037632 0.079464458 0.043629669
0.43129709 0.0803179 0.04411057
0.431326 0.081268713 0.044104777
0.43135491 0.082219526 0.044098981
0.43138379 0.083170339 0.044093188
0.4314127 0.084121153 0.044087395
0.43233314 0.084965043 0.044568326
0.43236199 0.085914269 0.044562541
0.43239084 0.086863488 0.044556759
0.43241972 0.087812714 0.044550974
0.43244857 0.088761941 0.044545189
0.43247741 0.089711159 0.044539407
0.43250626 0.090660378 0.044533622
0.43253511 0.091609597 0.044527836
0.43345511 0.09243916 0.045008857
0.43348393 0.093386792 0.045003083
0.43351272 0.094334424 0.044997308
0.43354154 0.095282048 0.044991534
0.43357033 0.09622968 0.04498576
0.43359914 0.097177304 0.044979986
0.43362793 0.098124936 0.044974212
0.43454757 0.098941751 0.04545531
0.43457633 0.099887788 0.045449544
0.43460506 0.10083383 0.045443781
0.43463382 0.10177986 0.045438014
0.43466258 0.1027259 0.045432251
0.43469134 0.10367194 0.045426484
0.4347201 0.10461798 0.045420721
0.43474886 0.10556401 0.045414954
0.43477762 0.10651004 0.045409191
0.43391597 0.10760123 0.044916466
0.43394479 0.10854886 0.044910692
0.4330833 0.10964482 0.044417936
0.43311214 0.11059403 0.044412151
0.4322508 0.11169478 0.043919366
0.43227971 0.1126456 0.043913573
0.43141845 0.11375112 0.043420736
0.43144742 0.11470353 0.043414932
0.43058637 0.11581382 0.042922087
0.42424604 0.063742474 0.039577089
0.42516693 0.064634182 0.040058967
0.42519617 0.065596148 0.040053103
0.42522541 0.066558108 0.040047243
0.42525464 0.067520075 0.04004138
0.4261753 0.068403818 0.040523298
0.4262045 0.06936419 0.040517446
0.42712498 0.070243165 0.040999401
0.42715412 0.071201935 0.040993556
0.42807454 0.072076127 0.041475572
0.42810363 0.07303331 0.041469738
0.42902386 0.073902726 0.041951746
0.42905289 0.074858315 0.041945923
0.42908195 0.075813904 0.0419401
0.43000194 0.07667695 0.042422149
0.43003094 0.077630952 0.042416338
0.43095082 0.078489214 0.042898417
0.43097979 0.079441622 0.042892613
0.43100873 0.08039403 0.042886809
0.43103766 0.081346437 0.042881005
0.43195736 0.082196735 0.043363158
0.43198627 0.083147541 0.043357365
0.43201515 0.084098354 0.043351572
0.43204406 0.085049175 0.043345775
0.43207297 0.085999988 0.043339983
0.43210185 0.086950809 0.04333419
0.43213075 0.087901622 0.043328393
0.43215966 0.088852428 0.0433226
0.43218857 0.089803249 0.043316808
0.4331077 0.090637624 0.043799032
0.43313655 0.091586843 0.043793246
0.4331654 0.092536062 0.043787464
0.43319425 0.093485288 0.043781679
0.43322313 0.094434507 0.043775894
0.43325198 0.095383734 0.043770112
0.43328083 0.096332952 0.043764327
0.43330967 0.097282179 0.043758541
0.43422839 0.098102219 0.044240855
0.43425718 0.099049844 0.04423508
0.434286 0.099997476 0.044229306
0.43431479 0.1009451 0.044223532
0.43434361 0.10189273 0.044217758
0.4343724 0.10284036 0.04421198
0.43440121 0.10378799 0.044206206
0.43443 0.10473562 0.044200432
0.43445882 0.10568325 0.044194657
0.43448761 0.10663088 0.044188883
0.43451643 0.10757851 0.044183109
0.43365589 0.10867284 0.043689132
0.43368474 0.10962206 0.043683346
0.43282437 0.11072116 0.043189339
0.43285328 0.11167198 0.043183547
0.43199298 0.11277588 0.042689484
0.43202195 0.11372828 0.04268368
0.43116185 0.11483695 0.042189613
0.43119085 0.11579095 0.042183798
0.4303309 0.11690439 0.041689705
0.42393661 0.062824443 0.038348313
0.42485657 0.063719377 0.038831402
0.42488587 0.064682931 0.038825531
0.42491516 0.065646484 0.03881966
0.42583495 0.066535048 0.039302781
0.42586419 0.067497008 0.039296918
0.42589343 0.068458974 0.039291058
0.42681301 0.06934116 0.039774224
0.4277325 0.070220172 0.040257413
0.42776164 0.07117895 0.040251568
0.42868105 0.072053172 0.040734813
0.42871013 0.073010363 0.040728979
0.42873922 0.073967546 0.040723145
0.42965838 0.074835405 0.041206401
0.42968744 0.075790994 0.041200578
0.43060642 0.076654077 0.04168386
0.43063542 0.077608079 0.041678049
0.43066442 0.078562081 0.041672233
0.43069342 0.079516076 0.041666422
0.43161219 0.080371194 0.042149749
0.43164113 0.081323601 0.042143945
0.4316701 0.082276009 0.042138141
0.43169904 0.083228417 0.042132337
0.43261763 0.084075563 0.042615741
0.43264651 0.085026376 0.042609949
0.43267542 0.085977197 0.042604156
0.43270433 0.08692801 0.042598359
0.43273324 0.087878823 0.042592566
0.43276212 0.088829637 0.042586774
0.43279102 0.08978045 0.042580977
0.43281993 0.090731263 0.042575184
0.43284881 0.091682076 0.042569391
0.43287772 0.092632897 0.042563599
0.43290663 0.09358371 0.042557802
0.43293554 0.094534531 0.042552009
0.43296441 0.095485337 0.042546216
0.43388227 0.096310198 0.043029733
0.43391111 0.097259417 0.043023948
0.43393996 0.098208636 0.043018162
0.43396884 0.099157862 0.043012377
0.43399769 0.10010708 0.043006595
0.43402654 0.10105631 0.04300081
0.43405539 0.10200553 0.042995024
0.43408424 0.10295475 0.042989243
0.43411309 0.10390397 0.042983457
0.43414193 0.1048532 0.042977672
0.43417078 0.10580241 0.042971887
0.43419963 0.10675164 0.042966105
0.43422851 0.10770085 0.04296032
0.43425736 0.10865009 0.042954534
0.43339792 0.10974756 0.042459305
0.43342683 0.11069837 0.042453513
0.43256751 0.11180063 0.041958224
0.43259645 0.11275305 0.04195242
0.43173733 0.11386007 0.041457139
0.43176633 0.11481408 0.041451324
0.43090734 0.11592589 0.040956005
0.4309364 0.11688147 0.040950183
0.42454815 0.062801301 0.0376014
0.42457747 0.06376645 0.037595522
0.4246068 0.064731598 0.037589639
0.4255257 0.06562338 0.038073976
0.42555496 0.066586941 0.038068105
0.42647371 0.067473948 0.038552474
0.42650294 0.068435907 0.038546614
0.42742151 0.069318138 0.039031006
0.42745072 0.07027851 0.039025154
0.42836913 0.071155965 0.039509587
0.42839828 0.072114743 0.039503742
0.42931664 0.072987415 0.039988227
0.42934573 0.073944598 0.039982397
0.42937481 0.074901782 0.039976563
0.4302929 0.075768083 0.040461056
0.43032196 0.07672368 0.04045523
0.4312399 0.077585205 0.040939759
0.4312689 0.078539208 0.040933944
0.4312979 0.079493202 0.040928133
0.4313269 0.080447204 0.040922318
0.43135589 0.081401207 0.040916506
0.43227357 0.082253173 0.041401088
0.4323025 0.083205581 0.041395284
0.43233144 0.084157988 0.04138948
0.43236041 0.085110396 0.04138368
0.43238935 0.086062804 0.041377876
0.43241832 0.087015212 0.041372072
0.43244725 0.087967619 0.041366268
0.43336457 0.088806838 0.041850958
0.43339348 0.089757651 0.041845161
0.43342239 0.090708472 0.041839369
0.43345127 0.091659285 0.041833576
0.43348017 0.092610098 0.041827779
0.43350908 0.093560919 0.041821986
0.43353799 0.094511732 0.041816194
0.43356687 0.095462546 0.041810397
0.43359578 0.096413359 0.041804604
0.43362468 0.097364172 0.041798811
0.43365359 0.098314986 0.041793015
0.43368247 0.099265799 0.041787222
0.43371138 0.10021662 0.041781429
0.43374029 0.10116743 0.041775633
0.4337692 0.10211825 0.04176984
0.43468568 0.102932 0.042254653
0.43471453 0.10388121 0.042248867
0.43474337 0.10483044 0.042243082
0.43477225 0.10577966 0.0422373
0.4348011 0.10672888 0.042231515
0.43394259 0.10782313 0.041735075
0.43397149 0.10877395 0.041729283
0.43400037 0.10972477 0.04172349
0.43402928 0.11067557 0.041717693
0.43317097 0.1117778 0.041221175
0.43231282 0.11288321 0.040724661
0.43234181 0.1138372 0.04071885
0.43237081 0.11479121 0.040713035
0.43151283 0.11590298 0.040216483
0.43154189 0.11685856 0.040210661
0.43157092 0.11781416 0.040204838
0.42427096 0.062846713 0.036363024
0.42518902 0.063743308 0.036848597
0.42521834 0.064708456 0.036842715
0.4252477 0.065673605 0.036836836
0.42527702 0.066638753 0.036830954
0.42619479 0.067527391 0.037316542
0.42711246 0.068412848 0.037802156
0.4271417 0.069374807 0.037796296
0.42805922 0.070255488 0.038281932
0.42808843 0.071215853 0.03827608
0.4290058 0.072091758 0.03876175
0.42903495 0.073050529 0.038755905
0.42995223 0.073921651 0.039241634
0.42998132 0.074878834 0.039235801
0.43001041 0.075836018 0.039229967
0.43092746 0.076700769 0.039715707
0.43095648 0.077656358 0.039709885
0.43098554 0.078611955 0.039704062
0.4310146 0.079567544 0.039698239
0.43193138 0.080424331 0.040184025
0.43196037 0.081378333 0.04017821
0.43198937 0.082332328 0.040172394
0.43201837 0.08328633 0.040166583
0.43204737 0.084240332 0.040160768
0.43296388 0.08508756 0.040646616
0.43299282 0.086039975 0.040640812
0.43302178 0.086992383 0.040635008
0.43305072 0.087944783 0.040629204
0.43307966 0.088897191 0.0406234
0.43310863 0.089849599 0.0406176
0.43313757 0.090802006 0.040611796
0.4331665 0.091754414 0.040605992
0.43319547 0.092706822 0.040600188
0.43322441 0.09365923 0.040594384
0.43325338 0.094611637 0.04058858
0.43328232 0.095564045 0.040582776
0.43419823 0.09639056 0.041068777
0.43422714 0.097341374 0.041062981
0.43425605 0.098292194 0.041057188
0.43428496 0.099243 0.041051395
0.43431383 0.10019382 0.041045599
0.43434274 0.10114464 0.041039806
0.43437165 0.10209545 0.041034013
0.43440056 0.10304627 0.041028216
0.43442944 0.10399708 0.041022424
0.43445835 0.10494789 0.041016631
0.43448725 0.10589871 0.041010834
0.43451616 0.10684952 0.041005041
0.43454504 0.10780034 0.040999249
0.43457395 0.10875116 0.040993452
0.43460286 0.10970197 0.040987659
0.4337455 0.11080256 0.040489916
0.43377444 0.11175496 0.040484112
0.4329173 0.11286034 0.039986368
0.43294629 0.11381432 0.039980553
0.43297529 0.11476833 0.039974742
0.43211833 0.11588006 0.039476961
0.43214735 0.11683565 0.039471138
0.43217641 0.11779125 0.039465316
0.43131965 0.11890936 0.03896749
0.42399585 0.062892042 0.035122212
0.4249129 0.063790277 0.035608977
0.42494228 0.064757019 0.035603087
0.42585924 0.065650463 0.036089912
0.42588857 0.066615619 0.03608403
0.42680535 0.067504294 0.036570854
0.42683461 0.068467848 0.036564983
0.42775124 0.069351748 0.037051834
0.42778048 0.070313707 0.037045971
0.42869693 0.071192831 0.037532859
0.42872614 0.072153203 0.037527006
0.42964244 0.073027544 0.038013916
0.42967159 0.073986322 0.038008075
0.42970073 0.0749451 0.03800223
0.43061692 0.07581307 0.038489211
0.430646 0.076770253 0.038483381
0.43067509 0.077727437 0.038477547
0.43159103 0.078589045 0.038964536
0.43162009 0.079544634 0.03895871
0.43164912 0.08050023 0.038952887
0.43167818 0.081455819 0.038947064
0.4317072 0.082411416 0.038941242
0.43262285 0.083263457 0.039428286
0.43265185 0.084217459 0.039422475
0.43268085 0.085171454 0.03941666
0.43270984 0.086125463 0.039410848
0.43273884 0.087079458 0.039405033
0.43276784 0.08803346 0.039399222
0.43279684 0.088987462 0.039393406
0.43282583 0.089941457 0.039387595
0.43285483 0.090895459 0.03938178
0.43288383 0.091849454 0.039375968
0.43291283 0.092803456 0.039370153
0.43294182 0.093757458 0.039364342
0.43385684 0.094588801 0.039851516
0.43388578 0.095541209 0.039845716
0.43391472 0.096493617 0.039839912
0.43394369 0.097446024 0.039834108
0.43397263 0.098398425 0.039828304
0.43400159 0.09935084 0.0398225
0.43403053 0.10030325 0.039816696
0.43405947 0.10125566 0.039810892
0.4349741 0.10207266 0.040298183
0.43500301 0.10302347 0.04029239
0.43503192 0.10397428 0.040286597
0.4350608 0.1049251 0.0402808
0.43508971 0.10587591 0.040275007
0.43511862 0.10682672 0.040269215
0.43514752 0.10777754 0.040263418
0.43429106 0.10887492 0.039764464
0.43432003 0.10982732 0.03975866
0.43434897 0.11077973 0.039752856
0.43437791 0.11173213 0.039747052
0.43352178 0.11283746 0.039248072
0.43355078 0.11379146 0.03924226
0.43269476 0.11490157 0.038743258
0.43272382 0.11585715 0.038737431
0.43275285 0.11681274 0.038731609
0.4327819 0.11776834 0.038725786
0.43192613 0.1188864 0.038226735
0.42460942 0.062868826 0.034372829
0.42463884 0.063837163 0.034366928
0.42466828 0.064805493 0.034361031
0.42558423 0.065700576 0.034849051
0.42561361 0.066667318 0.034843162
0.42652947 0.067557625 0.035331234
0.42655879 0.068522774 0.035325352
0.42747444 0.069408298 0.035813428
0.42750373 0.070371859 0.035807557
0.42841923 0.071252607 0.036295667
0.42933464 0.072130181 0.036783788
0.42936382 0.073090546 0.03677794
0.43027911 0.073963337 0.037266091
0.43030822 0.074922115 0.037260249
0.43033737 0.075880893 0.037254404
0.43125251 0.076747306 0.03774263
0.4312816 0.077704489 0.037736796
0.43131068 0.07866168 0.037730966
0.43133977 0.079618864 0.037725132
0.43136889 0.080576047 0.037719298
0.43228364 0.081432909 0.03820755
0.4323127 0.082388505 0.038201727
0.43234175 0.083344094 0.038195901
0.43237078 0.084299684 0.038190078
0.43239984 0.08525528 0.038184255
0.43242887 0.086210877 0.038178433
0.43245792 0.087166466 0.03817261
0.43248698 0.088122055 0.038166787
0.43340132 0.088964589 0.038655125
0.43343031 0.089918591 0.038649309
0.43345931 0.090872586 0.038643498
0.43348831 0.091826588 0.038637683
0.43351731 0.09278059 0.038631871
0.4335463 0.093734585 0.038626056
0.4335753 0.094688587 0.038620245
0.4336043 0.095642589 0.03861443
0.4336333 0.096596584 0.038608618
0.4336623 0.097550586 0.038602803
0.43457609 0.098375596 0.039091248
0.43460506 0.099328004 0.039085444
0.434634 0.10028041 0.03907964
0.43466294 0.10123282 0.039073836
0.43469191 0.10218523 0.039068032
0.43472084 0.10313763 0.039062228
0.43474978 0.10409004 0.039056424
0.43477875 0.10504245 0.03905062
0.43480769 0.10599485 0.03904482
0.43483663 0.10694726 0.039039016
0.43486559 0.10789967 0.039033212
0.43489453 0.10885208 0.039027408
0.4349235 0.10980449 0.039021604
0.43495244 0.11075689 0.0390158
0.43409726 0.11186059 0.038515601
0.43412626 0.11281459 0.03850979
0.4332712 0.11392306 0.038009562
0.43330026 0.11487865 0.038003739
0.43332928 0.11583424 0.037997916
0.43335834 0.11678983 0.037992094
0.4333874 0.11774543 0.037986271
0.43253264 0.11886346 0.037485987
0.43256173 0.11982064 0.037480153
0.42342216 0.062010955 0.032639123
0.42433733 0.062914044 0.033128325
0.4243668 0.063883968 0.033122417
0.42528185 0.064782277 0.033611648
0.42531127 0.065750606 0.033605747
0.42622617 0.06664414 0.034095004
0.42625555 0.067610882 0.034089115
0.42717034 0.068499632 0.034578435
0.42719966 0.06946478 0.034572553
0.42811427 0.070348762 0.035061873
0.42814356 0.071312308 0.035056002
0.42905799 0.072191507 0.035545349
0.42908722 0.073153473 0.035539486
0.43000153 0.074027896 0.036028862
0.43003073 0.074988268 0.03602301
0.43094489 0.075857908 0.036512416
0.43097404 0.076816685 0.036506575
0.43100318 0.077775463 0.036500733
0.4310323 0.078734241 0.036494888
0.43194628 0.079595916 0.036984369
0.43197536 0.0805531 0.036978535
0.43200448 0.081510283 0.036972705
0.43203357 0.082467467 0.036966871
0.43206266 0.083424658 0.036961038
0.43209174 0.084381834 0.036955208
0.43300533 0.08523237 0.037444729
0.43303436 0.086187966 0.037438907
0.43306342 0.087143555 0.03743308
0.43309247 0.088099144 0.037427258
0.4331215 0.089054741 0.037421435
0.43315056 0.09001033 0.037415612
0.43317959 0.090965927 0.03740979
0.43320864 0.091921516 0.037403967
0.4332377 0.092877105 0.037398145
0.43326673 0.093832709 0.037392318
0.43329579 0.094788298 0.037386496
0.43420878 0.095619716 0.037876137
0.43423778 0.096573718 0.037870321
0.43426678 0.097527713 0.03786451
0.43429577 0.098481715 0.037858695
0.43432477 0.099435717 0.037852883
0.43435377 0.10038971 0.037847068
0.43438277 0.10134372 0.037841257
0.43441176 0.10229772 0.037835442
0.43444076 0.10325171 0.037829626
0.43535328 0.10406721 0.038319364
0.43538222 0.10501961 0.03831356
0.43541116 0.10597202 0.038307756
0.43544012 0.10692442 0.038301952
0.43546906 0.10787684 0.038296148
0.43461475 0.10897572 0.037794746
0.43464375 0.10992972 0.037788935
0.43467274 0.11088371 0.03778312
0.43470174 0.11183771 0.037777308
0.43473074 0.11279172 0.037771493
0.43387669 0.11390015 0.037270036
0.43390575 0.11485574 0.037264213
0.43393478 0.11581133 0.037258387
0.43396384 0.11676692 0.037252564
0.43311003 0.11788332 0.036751058
0.43313915 0.11884051 0.036745224
0.43316823 0.11979768 0.03673939
0.42315304 0.062054463 0.031390935
0.42406726 0.062959179 0.031881358
0.42498139 0.063860714 0.032371804
0.42501086 0.064830638 0.032365892
0.42592484 0.06572739 0.032856368
0.42595425 0.066695727 0.032850467
0.42686808 0.067587703 0.033340964
0.42689747 0.068554446 0.033335075
0.42781121 0.069441639 0.03382564
0.42784053 0.070406787 0.033819757
0.42875409 0.071289212 0.034310319
0.42878336 0.072252765 0.034304447
0.42969677 0.073130406 0.034795038
0.429726 0.074092373 0.034789175
0.43063924 0.074965239 0.035279796
0.43066844 0.075925611 0.035273943
0.43069762 0.076885976 0.035268091
0.43072683 0.077846348 0.035262238
0.43163982 0.078711256 0.0357529
0.43166897 0.079670034 0.035747059
0.43169811 0.080628812 0.035741214
0.43172723 0.081587583 0.035735372
0.43175638 0.082546368 0.035729531
0.43178552 0.083505139 0.035723686
0.43269825 0.084358886 0.036214456
0.43272734 0.085316077 0.036208622
0.43275642 0.08627326 0.036202788
0.43278554 0.087230451 0.036196958
0.43281463 0.088187635 0.036191124
0.43284371 0.089144818 0.036185291
0.4328728 0.090102002 0.036179461
0.43290189 0.091059186 0.036173627
0.43293101 0.092016369 0.036167793
0.43296009 0.092973553 0.036161959
0.43387222 0.093809798 0.036652803
0.43390128 0.094765387 0.036646981
0.43393031 0.095720984 0.036641158
0.43395936 0.096676573 0.036635336
0.43398839 0.097632162 0.036629509
0.43401745 0.098587751 0.036623687
0.43404651 0.099543348 0.036617864
0.43495825 0.10036684 0.037108786
0.43498725 0.10132085 0.037102971
0.43501624 0.10227484 0.03709716
0.43504524 0.10322884 0.037091345
0.43507424 0.10418284 0.037085533
0.43510324 0.10513684 0.037079718
0.43513224 0.10609084 0.037073907
0.4351612 0.10704485 0.037068091
0.4351902 0.10799884 0.037062276
0.4352192 0.10895285 0.037056465
0.4352482 0.10990684 0.03705065
0.43527719 0.11086084 0.037044838
0.43530619 0.11181484 0.037039023
0.43445313 0.11292165 0.03653634
0.43448219 0.11387724 0.036530517
0.43451121 0.11483283 0.036524694
0.43454027 0.11578842 0.036518872
0.43456933 0.11674402 0.036513049
0.43371654 0.11786037 0.036010306
0.43374562 0.11881756 0.036004473
0.43377471 0.11977474 0.035998642
0.42374006 0.061058018 0.03064378
0.42376965 0.062031131 0.030637851
0.42468286 0.062935889 0.031129509
0.42471239 0.063907407 0.03112359
0.42562544 0.064807385 0.031615272
0.42653841 0.065704174 0.032106981
0.42656782 0.066672511 0.03210108
0.42659727 0.067640848 0.032095179
0.42751002 0.068531267 0.032586925
0.42753941 0.06949801 0.032581031
0.4284521 0.070383653 0.033072833
0.42848143 0.071348801 0.033066954
0.42939392 0.072229668 0.033558756
0.42942318 0.073193222 0.033552885
0.42945248 0.074156776 0.033547014
0.43036476 0.075031273 0.034038857
0.43039399 0.07599324 0.034032997
0.43042323 0.076955199 0.034027133
0.43133533 0.077823326 0.034519009
0.43136454 0.078783698 0.034513157
0.43139371 0.079744071 0.034507304
0.43142292 0.080704436 0.034501452
0.4314521 0.081664808 0.0344956
0.4314813 0.08262518 0.034489747
0.43239304 0.083482154 0.034981698
0.43242219 0.084440932 0.034975857
0.43245131 0.08539971 0.034970015
0.43248045 0.086358495 0.03496417
0.4325096 0.087317266 0.034958329
0.43253875 0.088276051 0.034952488
0.43256789 0.089234821 0.034946643
0.43259704 0.090193599 0.034940802
0.43262619 0.091152377 0.03493496
0.43353748 0.091993421 0.03542703
0.4335666 0.092950605 0.0354212
0.43359569 0.093907796 0.035415366
0.43362477 0.094864979 0.035409532
0.43365386 0.09582217 0.035403699
0.43368298 0.096779346 0.035397869
0.43371207 0.097736537 0.035392035
0.43374115 0.098693721 0.035386201
0.434652 0.099520437 0.035878338
0.43468103 0.10047603 0.035872512
0.43471009 0.10143162 0.035866689
0.43473911 0.10238722 0.035860866
0.43476817 0.10334281 0.035855044
0.43479723 0.1042984 0.035849221
0.43482625 0.10525399 0.035843398
0.43485531 0.10620958 0.035837576
0.43488434 0.10716518 0.035831753
0.4349134 0.10812077 0.035825927
0.43494245 0.10907637 0.035820104
0.43497148 0.11003196 0.035814282
0.43500054 0.11098754 0.035808459
0.43502957 0.11194315 0.035802636
0.43505862 0.11289874 0.035796814
0.43508768 0.11385433 0.035790991
0.43511671 0.11480992 0.035785168
0.43426484 0.11592305 0.035281211
0.43429396 0.11688024 0.035275377
0.43432304 0.11783742 0.035269547
0.43347129 0.11895695 0.034765527
0.43350044 0.11991572 0.034759682
0.43352959 0.12087449 0.03475384
0.42341462 0.059150416 0.029403754
0.42344427 0.06012512 0.029397814
0.42435664 0.061034691 0.029890703
0.42438623 0.0620078 0.029884774
0.42529842 0.062912598 0.030377666
0.42532796 0.063884117 0.030371746
0.42535749 0.064855635 0.030365825
0.42626947 0.065754056 0.03085875
0.42629898 0.066723987 0.030852839
0.42721081 0.067617632 0.0313458
0.42724025 0.068585962 0.031339899
0.42815197 0.069474831 0.031832881
0.42818135 0.070441574 0.031826992
0.42909297 0.07132566 0.032320041
0.4291223 0.072290808 0.032314159
0.42915162 0.073255956 0.03230828
0.43006301 0.074133679 0.03280133
0.4300923 0.075097233 0.032795459
0.43012157 0.076060787 0.032789588
0.43103275 0.07693214 0.033282682
0.43106201 0.077894099 0.033276822
0.43109125 0.078856066 0.033270959
0.43112049 0.079818033 0.033265099
0.43114972 0.080779992 0.033259235
0.43117896 0.081741951 0.033253375
0.43208981 0.082602158 0.033746533
0.43211898 0.083562523 0.033740681
0.43214819 0.084522896 0.033734828
0.43217736 0.08548326 0.033728976
0.43220657 0.08644364 0.033723123
0.43223575 0.087404013 0.033717271
0.43226495 0.088364378 0.033711419
0.43229413 0.08932475 0.033705566
0.43320453 0.090170614 0.034198817
0.43323368 0.091129392 0.034192976
0.43326283 0.09208817 0.034187134
0.43329197 0.093046948 0.034181289
0.43332112 0.094005726 0.034175448
0.43335024 0.094964512 0.034169607
0.43337938 0.095923282 0.034163762
0.43340853 0.09688206 0.034157921
0.43343768 0.097840838 0.034152079
0.43434766 0.098670773 0.034645453
0.43437675 0.099627957 0.034639619
0.43440583 0.10058514 0.034633785
0.43443492 0.10154233 0.034627955
0.43446404 0.10249951 0.034622122
0.43449312 0.1034567 0.034616288
0.43452221 0.10441389 0.034610454
0.4345513 0.10537107 0.034604624
0.43458042 0.10632825 0.03459879
0.43548983 0.10714227 0.035092235
0.43551889 0.10809786 0.035086412
0.43554792 0.10905346 0.035080589
0.43557698 0.11000905 0.035074767
0.435606 0.11096463 0.035068944
0.43563506 0.11192024 0.035063118
0.43478405 0.11302856 0.034557961
0.43481314 0.11398573 0.034552127
0.43484226 0.11494292 0.034546293
0.43487135 0.11590011 0.03454046
0.43490043 0.11685729 0.034534629
0.43492952 0.11781447 0.034528796
0.43407881 0.11893396 0.034023542
0.43410796 0.11989273 0.034017701
0.43325743 0.12101698 0.033512443
0.43328664 0.12197735 0.033506591
0.42403224 0.059127048 0.028649436
0.42406186 0.060101751 0.028643498
0.42497325 0.061011359 0.029137621
0.42500281 0.061984468 0.02913169
0.42591402 0.0628893 0.029625811
0.42594352 0.063860826 0.029619889
0.42685458 0.064760879 0.030114045
0.42688406 0.065730803 0.030108133
0.42691353 0.066700734 0.030102223
0.42782438 0.067594416 0.030596411
0.42785382 0.068562746 0.03059051
0.42788324 0.069531083 0.030584609
0.42879391 0.070418395 0.031078842
0.42882329 0.071385138 0.031072952
0.42973384 0.072267666 0.031567238
0.42976317 0.073232815 0.031561356
0.42979252 0.074197963 0.031555478
0.42982185 0.075163119 0.031549595
0.43073213 0.076037683 0.0320439
0.4307614 0.077001244 0.032038026
0.43079069 0.077964798 0.032032155
0.43081999 0.078928351 0.032026283
0.43084928 0.079891913 0.032020412
0.43087855 0.080855466 0.032014541
0.43178847 0.081718892 0.032508917
0.43181771 0.082680851 0.032503057
0.43184698 0.083642818 0.032497194
0.43187621 0.084604777 0.032491334
0.43190545 0.085566744 0.03248547
0.43193468 0.086528711 0.03247961
0.43196392 0.08749067 0.032473747
0.43287346 0.088341355 0.032968197
0.43290266 0.08930172 0.032962345
0.43293184 0.090262093 0.032956492
0.43296105 0.091222465 0.03295064
0.43299022 0.092182837 0.032944787
0.43301943 0.093143202 0.032938935
0.43304861 0.094103582 0.032933082
0.43307781 0.095063947 0.03292723
0.43310699 0.09602432 0.032921378
0.43401605 0.096859075 0.033415932
0.4340452 0.097817853 0.033410087
0.43407431 0.098776631 0.033404246
0.43410346 0.099735409 0.033398405
0.43413261 0.10069419 0.03339256
0.43416175 0.10165296 0.033386718
0.4341909 0.10261174 0.033380877
0.43422005 0.10357052 0.033375032
0.43424919 0.1045293 0.033369191
0.43515781 0.10534813 0.033863865
0.43518689 0.1063053 0.033858035
0.43521598 0.10726248 0.033852201
0.4352451 0.10821968 0.033846367
0.43527418 0.10917687 0.033840537
0.43530327 0.11013404 0.033834703
0.43533236 0.11109123 0.033828869
0.43536147 0.11204842 0.033823036
0.43539056 0.11300561 0.033817206
0.43541965 0.11396278 0.033811372
0.43544874 0.11491998 0.033805538
0.43547785 0.11587716 0.033799704
0.43550694 0.11683434 0.033793874
0.43465719 0.11795218 0.033287395
0.4346863 0.11891097 0.033281554
0.43383676 0.12003358 0.032775074
0.43386593 0.12099396 0.032769222
0.43389514 0.12195433 0.032763369
0.43304577 0.12308331 0.032256857
0.42464983 0.059103679 0.027895126
0.42556024 0.060014918 0.028390473
0.42558983 0.060988028 0.028384542
0.42561939 0.06196114 0.028378613
0.42564899 0.06293425 0.028372683
0.42655912 0.063837528 0.028868046
0.42658865 0.064809047 0.028862126
0.42749861 0.065707549 0.029357523
0.42752811 0.066677481 0.029351613
0.42755759 0.067647405 0.029345702
0.42846736 0.06853953 0.029841132
0.42849681 0.069507867 0.029835232
0.42852625 0.070476204 0.029829331
0.42943585 0.071361959 0.030324802
0.42946523 0.072328702 0.03031891
0.42949462 0.073295444 0.030313019
0.43040407 0.074174829 0.030808559
0.43043339 0.075139977 0.030802678
0.43046272 0.076105125 0.030796796
0.43049207 0.077070266 0.030790916
0.4305214 0.078035422 0.030785033
0.43055075 0.07900057 0.030779153
0.43145981 0.079868808 0.031274728
0.43148908 0.08083237 0.031268857
0.43151838 0.081795916 0.031262986
0.43154767 0.082759477 0.031257115
0.43157697 0.083723031 0.031251241
0.43160623 0.084686585 0.031245371
0.43163553 0.085650139 0.031239498
0.4325442 0.086505644 0.031735159
0.43257344 0.087467611 0.031729296
0.43260267 0.08842957 0.031723436
0.43263191 0.08939153 0.031717572
0.43266115 0.090353496 0.031711712
0.43269041 0.091315456 0.031705849
0.43271965 0.092277423 0.031699985
0.43274888 0.093239382 0.031694125
0.43277812 0.094201349 0.031688262
0.43368632 0.095040925 0.032184016
0.43371549 0.096001297 0.032178164
0.4337447 0.096961662 0.032172311
0.43377388 0.097922035 0.032166459
0.43380308 0.098882407 0.032160606
0.43383226 0.099842772 0.032154754
0.43386146 0.10080314 0.032148901
0.43389064 0.10176352 0.032143049
0.43391985 0.10272389 0.032137197
0.43482754 0.10354754 0.032633044
0.43485668 0.10450631 0.032627203
0.43488583 0.10546509 0.032621358
0.43491498 0.10642387 0.032615516
0.43494412 0.10738265 0.032609675
0.43497327 0.10834142 0.03260383
0.43500239 0.1093002 0.032597989
0.43503153 0.11025897 0.032592148
0.43506068 0.11121776 0.032586303
0.43508983 0.11217654 0.032580461
0.43511897 0.11313532 0.03257462
0.43514812 0.11409409 0.032568775
0.43517727 0.11505287 0.032562934
0.43520638 0.11601165 0.032557093
0.43523553 0.11697043 0.032551248
0.43438688 0.11808981 0.032043561
0.43529382 0.11888798 0.032539565
0.43444526 0.12001055 0.032031856
0.43447447 0.12097093 0.032026004
0.43362606 0.12209829 0.031518266
0.43277776 0.12322882 0.031010505
0.43192953 0.12436255 0.030502729
0.4252378 0.058105607 0.027146749
0.42614725 0.059018474 0.027643319
0.42617685 0.059991587 0.02763739
0.42620641 0.060964696 0.02763146
0.426236 0.061937809 0.027625529
0.42714515 0.062842719 0.028122116
0.42717469 0.063814238 0.028116196
0.42720422 0.064785756 0.028110275
0.42811319 0.065684296 0.028606901
0.42814267 0.06665422 0.028600991
0.42817217 0.067624152 0.028595081
0.42908093 0.068516314 0.029091744
0.42911038 0.069484651 0.029085843
0.42913979 0.070452988 0.029079942
0.42916924 0.071421318 0.029074041
0.43007776 0.072305523 0.02957076
0.43010715 0.073272265 0.029564869
0.43013653 0.074239008 0.029558979
0.43016592 0.075205751 0.029553087
0.4301953 0.076172486 0.029547196
0.43110362 0.077047132 0.030043993
0.43113294 0.07801228 0.030038111
0.4311623 0.078977428 0.030032231
0.43119162 0.079942577 0.030026348
0.43122095 0.080907725 0.030020468
0.4312503 0.08187288 0.030014586
0.43127963 0.082838021 0.030008705
0.43130895 0.083803169 0.030002823
0.43133831 0.084768318 0.029996943
0.43224606 0.085627042 0.030493816
0.43227535 0.086590603 0.030487943
0.43230465 0.087554157 0.030482072
0.43233392 0.088517711 0.030476201
0.43236321 0.089481264 0.030470328
0.43239251 0.090444826 0.030464457
0.43242177 0.091408379 0.030458586
0.43245107 0.092371933 0.030452715
0.4333584 0.093216322 0.030949669
0.43338764 0.094178289 0.030943807
0.43341687 0.095140249 0.030937945
0.43344611 0.096102215 0.030932084
0.43347538 0.097064175 0.030926222
0.43350461 0.098026142 0.03092036
0.43353385 0.098988101 0.030914498
0.43356308 0.099950068 0.030908637
0.43359232 0.10091203 0.030902773
0.43449917 0.10174049 0.031399827
0.43452835 0.10270087 0.031393975
0.43455756 0.10366123 0.031388123
0.43458673 0.1046216 0.03138227
0.43461594 0.10558198 0.031376418
0.43464512 0.10654234 0.031370565
0.43467429 0.10750271 0.031364713
0.4347035 0.10846308 0.03135886
0.43473268 0.10942346 0.031353008
0.43563905 0.11023599 0.031850159
0.4356682 0.11119477 0.031844314
0.43569735 0.11215355 0.031838473
0.43572646 0.11311233 0.031832632
0.43575561 0.1140711 0.031826787
0.43578476 0.11502989 0.031820945
0.4358139 0.11598866 0.031815104
0.43496621 0.11710642 0.031306192
0.43499541 0.11806679 0.03130034
0.43502459 0.11902716 0.031294487
0.4350538 0.11998753 0.031288635
0.43420634 0.12111326 0.030779673
0.433359 0.12224217 0.030270694
0.43251175 0.12337426 0.029761689
0.43254107 0.12433941 0.029755807
0.43169391 0.12547629 0.029246753
0.4299705 0.12678966 0.028234541
0.42912364 0.1279345 0.027725466
0.42740053 0.12925903 0.026713161
0.42655391 0.13041183 0.026204035
0.4258554 0.058082238 0.026392434
0.42676386 0.058995146 0.026890237
0.42679343 0.059968255 0.026884306
0.42682302 0.060941368 0.026878377
0.42685258 0.061914477 0.026872447
0.42688218 0.062887594 0.026866516
0.42779028 0.063790947 0.027364347
0.42781982 0.064762466 0.027358426
0.42784932 0.065733984 0.027352506
0.42875725 0.066630967 0.027850375
0.42878672 0.067600898 0.027844464
0.4288162 0.068570822 0.027838552
0.42972395 0.069461435 0.02833646
0.42975336 0.070429772 0.028330559
0.42978281 0.071398102 0.028324658
0.42981222 0.072366431 0.028318757
0.4307197 0.073249087 0.028816713
0.43074909 0.074215829 0.028810823
0.43077847 0.075182572 0.028804932
0.43080786 0.076149315 0.02879904
0.43083724 0.07711605 0.028793149
0.43086663 0.078082792 0.028787259
0.43089601 0.079049535 0.028781367
0.4309254 0.080016278 0.028775476
0.43095478 0.08098302 0.028769584
0.43186185 0.081849739 0.029267671
0.43189117 0.082814887 0.029261788
0.4319205 0.083780028 0.029255908
0.43194985 0.084745184 0.029250026
0.43197918 0.085710324 0.029244145
0.4320085 0.08667548 0.029238263
0.43203786 0.087640628 0.029232381
0.43206719 0.088605776 0.029226501
0.43209651 0.089570925 0.029220618
0.43300304 0.090421721 0.029718768
0.43303233 0.091385275 0.029712897
0.4330616 0.092348829 0.029707026
0.4330909 0.09331239 0.029701155
0.43312019 0.094275944 0.029695282
0.43314949 0.095239498 0.029689411
0.43317875 0.096203059 0.02968354
0.43320805 0.097166613 0.029677667
0.43323734 0.098130174 0.029671796
0.43326664 0.09909372 0.029665925
0.4341726 0.099927001 0.03016418
0.43420184 0.10088896 0.030158319
0.43423107 0.10185093 0.030152457
0.43426031 0.10281289 0.030146595
0.43428957 0.10377485 0.030140733
0.43431881 0.10473682 0.03013487
0.43434805 0.10569878 0.030129008
0.43437728 0.10666075 0.030123146
0.43528283 0.10747969 0.030621491
0.435312 0.10844006 0.030615639
0.43534121 0.10940044 0.030609787
0.43537039 0.1103608 0.030603934
0.43539959 0.11132117 0.030598082
0.43542877 0.11228154 0.030592229
0.43545797 0.11324192 0.030586377
0.43548715 0.11420228 0.030580524
0.43551636 0.11516266 0.030574672
