# .PCD v0.7 - Point Cloud Data file format
VERSION 0.7
FIELDS x y z
SIZE 4 4 4
TYPE F F F
COUNT 1 1 1
WIDTH 1379
HEIGHT 1
VIEWPOINT 0 0 0 1 0 0 0
POINTS 1379
DATA ascii
0.47929949 0.040373527 0.041105382
0.4801901 0.041231301 0.041623246
0.48021719 0.042123187 0.041617811
0.48110762 0.042976189 0.042135675
0.48199794 0.043826003 0.042653553
0.48288816 0.044672631 0.04317145
0.4829151 0.045559742 0.043166041
0.48380518 0.046401594 0.043683972
0.48469523 0.047240257 0.044201955
0.48472208 0.048124179 0.044196568
0.48561192 0.048958071 0.044714544
0.48650166 0.049788773 0.045232542
0.48652843 0.05066951 0.045227174
0.48741803 0.051495437 0.045745201
0.48830757 0.052318171 0.046263274
0.48919696 0.053137727 0.046781339
0.4892236 0.054013684 0.046776
0.49011284 0.054828465 0.047294095
0.49100199 0.055640057 0.047812209
0.49189106 0.056448463 0.048330344
0.49191752 0.057319641 0.048325036
0.49280649 0.058123268 0.048843224
0.49369532 0.05892371 0.049361404
0.49458402 0.059720967 0.049879607
0.49461037 0.060587373 0.049874324
0.49549896 0.061379854 0.050392557
0.49552524 0.062244665 0.050387286
0.49555153 0.063109472 0.050382018
0.4964399 0.063895583 0.050900284
0.49646613 0.0647588 0.050895024
0.49649239 0.065622024 0.050889764
0.49651861 0.066485241 0.050884504
0.49654484 0.067348458 0.050879244
0.49657109 0.068211682 0.050873984
0.49573553 0.069163159 0.050345127
0.49576181 0.070027962 0.050339859
0.4957881 0.070892774 0.050334588
0.49495271 0.07185062 0.04980569
0.49497905 0.072717026 0.049800411
0.49414384 0.073679656 0.049271487
0.49330869 0.074645467 0.04874254
0.49333513 0.075515054 0.048737243
0.4925001 0.076485649 0.04820824
0.49252656 0.07735683 0.048202932
0.49169174 0.078332193 0.047673929
0.49085698 0.079310745 0.047144908
0.47770464 0.026073614 0.039452359
0.47686875 0.026980458 0.038922541
0.47603291 0.027890489 0.038392708
0.47606027 0.028790338 0.038387224
0.47608763 0.029690187 0.03838174
0.47611499 0.030590039 0.038376257
0.47614232 0.031489886 0.038370773
0.47530675 0.032409474 0.037840847
0.47533414 0.033310916 0.037835352
0.47622439 0.034189437 0.038354322
0.47625172 0.035089288 0.038348839
0.47627908 0.035989136 0.038343359
0.47716907 0.036861286 0.038862329
0.47805896 0.037730251 0.039381329
0.4780862 0.038626917 0.039375864
0.47897595 0.039491102 0.03989489
0.47900316 0.040386174 0.039889436
0.47989276 0.041245583 0.040408492
0.48078233 0.042101804 0.040927593
0.48080942 0.042993691 0.040922157
0.48169878 0.043845139 0.041441262
0.48258805 0.044693399 0.041960388
0.48347721 0.045538474 0.042479526
0.48350418 0.046425581 0.042474117
0.48439318 0.04726588 0.042993292
0.48528215 0.048102986 0.043512516
0.48530903 0.048986912 0.043507129
0.4861978 0.049819246 0.044026345
0.48708647 0.050648395 0.044545583
0.48797506 0.051474359 0.045064844
0.48800179 0.052353501 0.045059487
0.48889029 0.053174686 0.045578804
0.48977861 0.053992685 0.046098109
0.48980525 0.054868646 0.046092771
0.49069342 0.055681869 0.04661211
0.49158153 0.056491904 0.04713146
0.49246955 0.057298753 0.047650836
0.49335748 0.058102421 0.048170265
0.49338391 0.058972009 0.048164967
0.4942717 0.059770897 0.048684385
0.49515936 0.0605666 0.049203828
0.49518567 0.061433006 0.049198549
0.49607319 0.06222393 0.049718022
0.49609947 0.063088737 0.049712751
0.49612576 0.063953549 0.049707484
0.49615204 0.064818367 0.049702212
0.49617833 0.065683171 0.049696945
0.49620461 0.06654799 0.049691673
0.4962309 0.067412794 0.049686402
0.49625719 0.068277612 0.049681135
0.49628347 0.069142424 0.049675863
0.49630976 0.070007235 0.049670592
0.49547535 0.07096345 0.049140472
0.4955017 0.071829848 0.049135193
0.49552804 0.072696261 0.049129914
0.49469382 0.073658846 0.048599757
0.49385968 0.074624613 0.048069581
0.4930256 0.075593576 0.047539353
0.4930521 0.076464757 0.047534045
0.49307856 0.077335946 0.047528736
0.49224475 0.078311272 0.046998501
0.491411 0.079289779 0.04646825
0.47657573 0.026969066 0.0377018
0.47660309 0.027868915 0.037696317
0.47576833 0.028782092 0.037165198
0.47579575 0.029683536 0.037159707
0.47582313 0.030584978 0.037154213
0.47585052 0.031486422 0.037148722
0.47587794 0.032387864 0.037143227
0.47590533 0.033289306 0.037137736
0.47593272 0.034190748 0.037132241
0.47596014 0.03509219 0.037126746
0.47684926 0.035967562 0.037646968
0.47687662 0.03686741 0.037641484
0.47776553 0.037738007 0.038161702
0.47865435 0.038605418 0.038681943
0.47868162 0.039502081 0.038676482
0.4795703 0.040364716 0.039196745
0.47959751 0.041259788 0.039191291
0.48048607 0.04211764 0.039711591
0.48137456 0.042972308 0.040231936
0.48226291 0.043823794 0.040752273
0.48228997 0.044714086 0.040746845
0.48317817 0.045560792 0.041267209
0.48406628 0.046404313 0.041787595
0.48409322 0.04729142 0.041782189
0.48498118 0.048130162 0.042302597
0.48586911 0.048965719 0.042823065
0.48675686 0.04979809 0.043343514
0.48764455 0.05062728 0.043863986
0.48767132 0.051508017 0.043858621
0.48855883 0.052332424 0.044379123
0.48858556 0.05321157 0.044373766
0.48947299 0.054031197 0.044894323
0.49036026 0.054847643 0.045414876
0.49124748 0.055660907 0.045935441
0.49127403 0.05653527 0.045930114
0.49216107 0.057343755 0.046450712
0.49304801 0.058149051 0.046971325
0.49393493 0.058951162 0.047491997
0.49396136 0.059820749 0.047486696
0.49484804 0.060618084 0.048007358
0.49573466 0.061412234 0.048528045
0.49576098 0.062278636 0.048522767
0.49578732 0.063145041 0.048517488
0.49667373 0.063932821 0.049038213
0.49670002 0.064797632 0.049032945
0.4967263 0.065662436 0.049027674
0.49675259 0.066527255 0.049022403
0.49677888 0.067392059 0.049017135
0.49680516 0.068256877 0.049011864
0.49683145 0.069121689 0.049006592
0.495998 0.070076272 0.048475251
0.49602434 0.070942678 0.048469972
0.49605069 0.071809076 0.048464689
0.49521741 0.072770037 0.04793331
0.49524379 0.073638037 0.04792802
0.49441069 0.074603766 0.047396615
0.49443713 0.075473361 0.047391314
0.49360409 0.076443873 0.046859842
0.49277124 0.077417567 0.046328388
0.49279776 0.078290343 0.046323068
0.49196503 0.079268821 0.045791581
0.47550592 0.029676804 0.035935242
0.47553337 0.030579841 0.035929739
0.47556081 0.031482875 0.035924237
0.47558826 0.032385912 0.035918735
0.47561571 0.033288945 0.035913233
0.47564316 0.034191981 0.03590773
0.4765313 0.035070576 0.036429133
0.47655872 0.035972022 0.036423642
0.47744676 0.036845837 0.036945105
0.47747412 0.037745688 0.036939621
0.47836199 0.038614728 0.037461083
0.47924978 0.039480586 0.037982561
0.47927701 0.040377248 0.037977099
0.48016465 0.041238327 0.03849861
0.48105219 0.04209622 0.039020136
0.48107934 0.042989697 0.039014693
0.48196679 0.043842811 0.039536282
0.48285407 0.04469274 0.04005786
0.48288113 0.045583036 0.040052436
0.48376828 0.046428185 0.04057404
0.48465532 0.047270153 0.04109567
0.48554227 0.048108932 0.041617312
0.48642918 0.048944525 0.042139009
0.48645604 0.049828451 0.042133622
0.48734275 0.050659269 0.042655319
0.48822936 0.051486902 0.043177031
0.48825613 0.052367639 0.043171663
0.4891426 0.053190492 0.043693408
0.49002904 0.054010157 0.044215199
0.4909153 0.054826643 0.044736978
0.49094194 0.055702601 0.044731639
0.49182805 0.056514308 0.045253456
0.49271408 0.05732283 0.045775283
0.49274063 0.058195606 0.045769963
0.49362651 0.058999348 0.046291824
0.49451235 0.059799902 0.046813734
0.49453878 0.060669489 0.046808437
0.49542442 0.061465271 0.047330339
0.49545079 0.062333267 0.047325052
0.49633631 0.063124269 0.047846992
0.49636263 0.063990667 0.047841709
0.49638897 0.064857081 0.04783643
0.49641532 0.065723479 0.047831152
0.49644163 0.066589884 0.047825873
0.49646798 0.06745629 0.04782059
0.49649429 0.068322688 0.047815312
0.49652064 0.069189094 0.047810033
0.49654698 0.0700555 0.047804754
0.4965733 0.070921905 0.047799475
0.49659964 0.071788304 0.047794193
0.49576738 0.072749227 0.047261577
0.49493524 0.073713332 0.04672895
0.49496168 0.074582919 0.046723649
0.49412963 0.075551808 0.046190958
0.49415609 0.076422989 0.04618565
0.49418259 0.077294171 0.046180341
0.49335077 0.078269422 0.04564764
0.4933773 0.079142191 0.04564232
0.49254563 0.080122225 0.045109596
0.47435811 0.029684842 0.034180235
0.47438565 0.030591063 0.034174711
0.47441319 0.031497285 0.03416919
0.47444072 0.032403503 0.034163669
0.47532809 0.033288509 0.034686264
0.47535557 0.034193136 0.03468075
0.47624278 0.035073366 0.035203375
0.47627023 0.035976399 0.035197873
0.47715729 0.036851849 0.035720531
0.4780443 0.037724115 0.036243234
0.47807163 0.038623963 0.03623775
0.47895846 0.039491449 0.036760453
0.47984517 0.040355753 0.037283178
0.48073179 0.041216869 0.037805919
0.48075899 0.042111941 0.037800465
0.48164546 0.042968277 0.038323235
0.48253191 0.043821428 0.038846057
0.48255903 0.044713315 0.038840622
0.48344526 0.04556169 0.039363444
0.48347232 0.046451982 0.03935802
0.4843584 0.047295582 0.039880868
0.48524439 0.048135992 0.040403735
0.48613027 0.048973221 0.040926624
0.48701611 0.049807258 0.041449562
0.48704299 0.05069118 0.041444179
0.48792866 0.051520444 0.041967113
0.4888142 0.052346524 0.042490065
0.48969966 0.053169414 0.043013044
0.48972636 0.054048561 0.043007687
0.49061173 0.054866672 0.043530721
0.49149695 0.055681601 0.044053745
0.49152359 0.056557562 0.044048406
0.49240866 0.057367712 0.044571456
0.49329364 0.058174681 0.045094535
0.49332017 0.059047453 0.045089215
0.494205 0.059849642 0.045612313
0.49508977 0.060648639 0.046135467
0.4951162 0.06151823 0.046130165
0.4960008 0.062312454 0.046653319
0.49602717 0.063180454 0.046648029
0.49605355 0.064048447 0.046642743
0.49693796 0.064836308 0.047165927
0.49696428 0.065702707 0.047160648
0.49699062 0.066569112 0.047155369
0.49701694 0.067435518 0.04715009
0.49704328 0.068301916 0.047144812
0.49706963 0.069168322 0.047139529
0.49709594 0.070034727 0.04713425
0.49626461 0.070992418 0.046600427
0.49629101 0.071860418 0.046595138
0.49631739 0.072728418 0.046589848
0.49548623 0.073692486 0.04605598
0.49551266 0.074562073 0.046050679
0.49468163 0.075530916 0.045516755
0.49470809 0.076402098 0.045511447
0.49473459 0.077273279 0.045506138
0.49390379 0.078248493 0.044972207
0.49393031 0.079121269 0.044966891
0.49309966 0.080101267 0.044432923
0.47321427 0.029692728 0.032420266
0.47324193 0.030602133 0.032414723
0.47412845 0.031493548 0.032938514
0.47415605 0.032401361 0.032932982
0.47504249 0.033287998 0.033456832
0.47507003 0.034194216 0.033451311
0.47595626 0.035076074 0.033975158
0.4768424 0.035954751 0.034499031
0.47686985 0.036857784 0.034493528
0.47775584 0.037731681 0.035017423
0.47778326 0.038633123 0.035011932
0.47866917 0.039502237 0.035535887
0.47955492 0.04036817 0.036059834
0.48044059 0.041230917 0.036583796
0.48132613 0.042090479 0.037107781
0.48135334 0.042985551 0.037102327
0.48223877 0.043840334 0.037626337
0.48312414 0.044691931 0.038150404
0.48315126 0.045583818 0.038144968
0.48403642 0.04643064 0.038669035
0.48492149 0.047274277 0.039193116
0.48580647 0.048114724 0.039717216
0.48583344 0.049001832 0.039711811
0.48671827 0.049837504 0.04023594
0.48760307 0.05066999 0.040760119
0.48848772 0.051499292 0.041284285
0.48937225 0.052325405 0.041808479
0.48939902 0.053206142 0.041803114
0.49028343 0.054027483 0.04232733
0.49031013 0.054906629 0.042321973
0.49119446 0.055723187 0.042846251
0.4920786 0.056536559 0.043370515
0.49210525 0.05741252 0.043365177
0.49298924 0.058221117 0.04388947
0.49387318 0.059026528 0.044413783
0.4938997 0.059899304 0.044408467
0.49478346 0.060699936 0.044932809
0.49566719 0.061497383 0.045457203
0.49569362 0.062366974 0.045451902
0.49572006 0.063236564 0.045446604
0.49660355 0.064027637 0.04597101
0.49662992 0.064895637 0.04596572
0.4966563 0.065763637 0.045960434
0.49753958 0.06654834 0.046484873
0.49756593 0.067414746 0.046479594
0.49759227 0.068281144 0.046474312
0.49676183 0.069235623 0.045939274
0.4967882 0.070103616 0.045933984
0.49681461 0.070971608 0.045928698
0.49684098 0.071839608 0.045923408
0.49686736 0.072707608 0.045918118
0.49603724 0.073671632 0.045383018
0.49606368 0.074541219 0.045377716
0.49523363 0.075510032 0.04484256
0.49526012 0.076381214 0.044837251
0.49528658 0.077252395 0.044831943
0.4944568 0.078227572 0.044296779
0.4936271 0.07920593 0.043761596
0.49365366 0.080080301 0.043756269
0.47204682 0.028787868 0.030660953
0.47293252 0.029685693 0.031185936
0.47296023 0.03059669 0.031180386
0.47384578 0.031489737 0.031705398
0.47387344 0.03239914 0.031699855
0.47475886 0.03328741 0.032224897
0.47478646 0.034195222 0.032219365
0.47567177 0.035078712 0.032744471
0.47655696 0.035959017 0.033269562
0.47658446 0.036863644 0.033264048
0.4774695 0.037739169 0.033789169
0.47835442 0.038611509 0.034314312
0.47838184 0.039512951 0.034308821
0.47926667 0.040380515 0.034834012
0.48015139 0.041244891 0.0353592
0.48103598 0.042106085 0.035884414
0.48192048 0.042964093 0.036409643
0.48194769 0.043859165 0.036404185
0.48283204 0.044712394 0.036929443
0.48371637 0.045562435 0.03745475
0.48460054 0.046409294 0.037980042
0.4846276 0.047299586 0.037974618
0.4855116 0.048141669 0.038499944
0.48639554 0.048980564 0.039025284
0.48727936 0.049816273 0.039550647
0.48816314 0.050648797 0.040076062
0.48819003 0.051532723 0.040070675
0.4890736 0.052360468 0.040596087
0.48995709 0.053185027 0.041121516
0.49084046 0.054006405 0.041646965
0.4908672 0.054885551 0.041641608
0.49175051 0.055702146 0.04216712
0.49177718 0.056579698 0.042161774
0.49266025 0.057391517 0.042687278
0.49354327 0.058200154 0.043212809
0.49356985 0.059074521 0.043207478
0.49445271 0.059878379 0.043733034
0.49447924 0.060751155 0.043727718
0.49536195 0.061550234 0.044253305
0.49538842 0.062421415 0.044247992
0.49627104 0.06321571 0.044773642
0.49629748 0.064085297 0.044768341
0.49632391 0.064954892 0.044763044
0.4972063 0.065742821 0.045288697
0.49723268 0.066610813 0.045283407
0.49725905 0.067478813 0.045278117
0.49728543 0.068346813 0.045272827
0.49731183 0.069214813 0.045267537
0.49733821 0.070082806 0.045262251
0.49736458 0.070950799 0.045256961
0.49739096 0.071818799 0.045251671
0.4965618 0.072781198 0.044715352
0.49658823 0.073650785 0.044710051
0.49661466 0.074520372 0.044704754
0.49578562 0.075489148 0.044168364
0.49581212 0.076360323 0.044163056
0.49498329 0.077333868 0.043626666
0.49500981 0.078206643 0.04362135
0.49418113 0.079184964 0.043084931
0.49420768 0.080059335 0.043079603
0.4708553 0.026960712 0.028902298
0.47174025 0.027864942 0.02942851
0.47176805 0.028779127 0.029422939
0.47179583 0.029693309 0.029417368
0.47268054 0.030591171 0.029943585
0.47356513 0.031485848 0.030469822
0.47359285 0.032396846 0.030464269
0.47447729 0.033286743 0.030990535
0.47536168 0.034173459 0.03151682
0.47538927 0.035081271 0.031511288
0.47627354 0.035963204 0.032037634
0.47715765 0.036841955 0.032563969
0.47718516 0.037746582 0.032558456
0.47806913 0.038620554 0.033084814
0.478953 0.039491341 0.033611197
0.47983685 0.040358942 0.034137629
0.47986421 0.04125879 0.034132145
0.48074785 0.042121612 0.034658577
0.4816314 0.042981252 0.035185028
0.48251483 0.043837704 0.035711497
0.4833982 0.04469097 0.036237985
0.48342535 0.045584451 0.036232539
0.4843086 0.046432938 0.03675909
0.4851917 0.047278244 0.037285622
0.48607472 0.048120361 0.037812177
0.48695764 0.048959296 0.038338754
0.48698461 0.049846403 0.038333349
0.48786736 0.050680559 0.038859956
0.4887501 0.05151153 0.039386611
0.48963267 0.052339312 0.039913256
0.49051514 0.053163912 0.040439919
0.49054191 0.054044649 0.040434554
0.49142426 0.054864474 0.040961247
0.49145097 0.05574362 0.040955886
0.4923332 0.056558657 0.041482635
0.49321529 0.057370517 0.042009376
0.49324194 0.058246478 0.042004038
0.49412388 0.059053559 0.042530809
0.49415046 0.059927925 0.042525481
0.49503225 0.06073023 0.043052282
0.49505877 0.061603002 0.043046962
0.49594045 0.062400527 0.043573793
0.49596691 0.063271709 0.043568481
0.49684846 0.064064451 0.044095371
0.4968749 0.064934045 0.044090074
0.49690133 0.065803632 0.044084772
0.49692777 0.066673219 0.044079475
0.4969542 0.067542806 0.044074178
0.49783543 0.068326004 0.044601094
0.4978618 0.069193996 0.044595804
0.49788818 0.070061989 0.044590514
0.49791458 0.070929989 0.044585224
0.49708638 0.071890756 0.04404768
0.49711278 0.072760351 0.044042382
0.49713922 0.073629938 0.044037081
0.49716565 0.074499525 0.044031784
0.49633762 0.075468257 0.043494161
0.49636412 0.076339439 0.043488853
0.4955363 0.077312946 0.04295123
0.49556282 0.078185722 0.042945914
0.49473515 0.079164006 0.042408261
0.49476171 0.080038376 0.042402934
0.49393418 0.081021436 0.041865256
0.47057945 0.026948668 0.027660616
0.47146338 0.027854532 0.028188016
0.47234729 0.028757209 0.028715465
0.47237507 0.029671391 0.028709894
0.47325876 0.030569293 0.029237345
0.47328651 0.031481884 0.029231783
0.47417006 0.032375004 0.029759264
0.47419775 0.033286002 0.029753711
0.47508115 0.034174345 0.03028122
0.47596446 0.035059504 0.030808743
0.47599205 0.03596732 0.030803211
0.47687528 0.036847699 0.031330802
0.47690281 0.037753917 0.031325277
0.47778586 0.038629521 0.031852864
0.47866875 0.039501939 0.032380469
0.47955158 0.040371172 0.032908089
0.48043436 0.041237216 0.033435766
0.48046172 0.042137064 0.033430282
0.48134431 0.042998333 0.033957958
0.48222679 0.04385642 0.034485649
0.48310918 0.044711314 0.035013355
0.48399147 0.045563031 0.035541087
0.48487371 0.046411555 0.036068872
0.48490083 0.047303442 0.036063436
0.48578289 0.04814719 0.036591213
0.48666483 0.048987757 0.037119012
0.48754668 0.049825136 0.03764683
0.48842844 0.050659329 0.03817467
0.48931018 0.051490337 0.038702555
0.48933703 0.052374259 0.038697168
0.49021855 0.053200491 0.039225053
0.49109998 0.054023534 0.03975296
0.4919813 0.054843396 0.040280886
0.49200803 0.055722542 0.040275529
0.49288926 0.056537617 0.040803511
0.49291593 0.057415172 0.040798165
0.49379694 0.058225475 0.041326147
0.49382359 0.059101436 0.041320812
0.49470448 0.05990696 0.041848823
0.49473104 0.06078133 0.041843496
0.49561179 0.061582081 0.042371538
0.49563831 0.062454853 0.042366222
0.49651891 0.063250825 0.042894285
0.4965454 0.064122006 0.042888977
0.49657187 0.064993188 0.042883668
0.49745235 0.065782785 0.04341181
0.49747875 0.066652372 0.043406513
0.49750519 0.06752196 0.043401212
0.49753162 0.068391554 0.043395914
0.49755806 0.069261141 0.043390613
0.49758449 0.070130728 0.043385316
0.49761093 0.071000315 0.043380015
0.49763736 0.071869902 0.043374717
0.4976638 0.072739497 0.04336942
0.49769023 0.073609091 0.043364119
0.49771664 0.074478678 0.043358821
0.49688965 0.075447373 0.042819962
0.49691612 0.076318555 0.042814653
0.49523601 0.077394307 0.041742261
0.49526259 0.07826867 0.041736934
0.49528915 0.07914304 0.041731603
0.49446258 0.080124475 0.041192703
0.49448922 0.081000432 0.041187365
0.47116074 0.026926674 0.026950669
0.47204366 0.027832575 0.027479304
0.47292656 0.028735291 0.028007986
0.47295433 0.029649474 0.028002415
0.47298211 0.030563658 0.027996844
0.47386476 0.031460002 0.028525537
0.47389248 0.032372594 0.028519977
0.47477499 0.03326416 0.0290487
0.47565737 0.034152545 0.029577436
0.47568503 0.035061948 0.029571895
0.47656727 0.035945553 0.030100664
0.47659487 0.036853366 0.030095132
0.47747704 0.037732191 0.030623959
0.47835904 0.038607832 0.031152779
0.47838652 0.039512459 0.031147266
0.4792684 0.040383324 0.031676114
0.48015016 0.041251 0.032204978
0.48103189 0.042115491 0.032733899
0.48191348 0.042976797 0.0332628
0.48279494 0.043834921 0.033791725
0.48367631 0.044689856 0.034320671
0.48370352 0.045584928 0.034315217
0.48458478 0.046435088 0.034844186
0.48546594 0.047282059 0.035373211
0.48634699 0.048125844 0.035902221
0.48637405 0.04901614 0.035896797
0.48725495 0.04985515 0.036425836
0.48813576 0.050690975 0.036954902
0.48901644 0.051523615 0.037483975
0.4898971 0.052353065 0.038013108
0.49077761 0.053179335 0.038542226
0.49165803 0.054002419 0.039071366
0.49168479 0.054883156 0.039065998
0.49256507 0.055701464 0.039595168
0.4925918 0.056580607 0.039589807
0.49347198 0.057394132 0.040119033
0.49349865 0.058271684 0.040113688
0.49437863 0.059080433 0.040642913
0.49440524 0.059956394 0.040637575
0.49528506 0.060760364 0.041166827
0.49531165 0.061634734 0.0411615
0.49619132 0.062433928 0.041690785
0.49621788 0.063306704 0.041685466
0.4970974 0.064101115 0.042214781
0.49712387 0.064972304 0.042209473
0.49715036 0.065843485 0.042204164
0.49802977 0.066631526 0.042733543
0.4980562 0.067501113 0.042728242
0.49808264 0.0683707 0.042722944
0.49810904 0.069240294 0.042717647
0.49813548 0.070109881 0.042712346
0.49816191 0.070979469 0.042707048
0.49818835 0.071849056 0.042701747
0.49821478 0.07271865 0.04269645
0.49824122 0.073588237 0.042691149
0.49741516 0.074555308 0.042151075
0.49744165 0.075426482 0.042145766
0.4966158 0.07639832 0.041605689
0.49664232 0.077271096 0.041600369
0.49581662 0.078247711 0.041060261
0.49584317 0.079122074 0.041054934
0.49501762 0.080103472 0.040514804
0.49504423 0.080979429 0.040509466
0.49421883 0.081965603 0.039969303
0.471742 0.02690468 0.026240729
0.47262391 0.02781062 0.026770597
0.47265175 0.028726395 0.026765017
0.47353357 0.029627556 0.027294941
0.47356138 0.03054174 0.02728937
0.47358915 0.031455923 0.027283799
0.47447073 0.032350715 0.027813736
0.47535223 0.033242319 0.028343687
0.47537991 0.03415332 0.028338134
0.47626126 0.035040148 0.02886812
0.47628888 0.035949551 0.028862579
0.47717008 0.036831602 0.029392587
0.47719768 0.037739415 0.029387055
0.47807878 0.038616683 0.02991713
0.47895974 0.039490771 0.030447187
0.47984058 0.040361673 0.03097727
0.47986802 0.041264709 0.030971767
0.48074874 0.042130832 0.031501871
0.4816294 0.042993765 0.032032035
0.48250991 0.043853521 0.032562178
0.48339033 0.044710089 0.03309235
0.48427066 0.045563471 0.033622533
0.48429787 0.046458542 0.033617076
0.48517805 0.047307145 0.034147289
0.48605818 0.048152562 0.034677558
0.48693818 0.048994794 0.035207812
0.48781806 0.049833842 0.035738084
0.48869786 0.050669707 0.036268376
0.4887248 0.051556814 0.03626297
0.48960444 0.052387901 0.036793295
0.49048406 0.053215798 0.037323665
0.4913635 0.05404051 0.037854031
0.49224287 0.054862041 0.038384408
0.49226964 0.055742778 0.03837904
0.49314883 0.056559529 0.03890945
0.49317557 0.057438675 0.038904093
0.49405468 0.058250643 0.039434563
0.49408135 0.059128199 0.039429214
0.49496028 0.059935391 0.039959684
0.49498689 0.060811352 0.039954346
0.49586567 0.061613772 0.040484842
0.49589226 0.062488139 0.040479511
0.49591881 0.063362502 0.040474184
0.49679741 0.064158551 0.041004721
0.4976759 0.064951412 0.041535273
0.49770236 0.065822594 0.041529965
0.49772885 0.066693775 0.041524656
0.49775532 0.067564957 0.041519348
0.49863362 0.068349853 0.042049982
0.49866006 0.069219448 0.042044681
0.49868649 0.070089035 0.042039383
0.49871293 0.070958622 0.042034082
0.49873933 0.071828209 0.042028785
0.49876577 0.072697803 0.042023484
0.4987922 0.07356739 0.042018186
0.49796715 0.074534416 0.041476879
0.49799365 0.075405598 0.041471571
0.49716881 0.076377399 0.040930264
0.49634406 0.077352382 0.040388934
0.49637061 0.078226745 0.040383607
0.49554601 0.079206511 0.039842252
0.49557266 0.080082476 0.039836913
0.49474818 0.081067011 0.039295524
0.49392378 0.082054742 0.038754091
0.47232327 0.026882686 0.025530789
0.47235113 0.027800055 0.025525199
0.473232 0.02870444 0.026056305
0.47325984 0.029620217 0.026050724
0.47328767 0.030535992 0.026045144
0.47416839 0.031434007 0.02657632
0.4741962 0.03234819 0.02657075
0.47507671 0.033241425 0.02710193
0.47595716 0.034131479 0.027633123
0.47598484 0.035042476 0.027627571
0.47686511 0.03592775 0.028158793
0.47689277 0.036837153 0.028153252
0.47777289 0.037717652 0.02868451
0.47865298 0.038594957 0.029215813
0.47868052 0.039501179 0.02921029
0.47956043 0.040373709 0.029741589
0.48044023 0.041243058 0.030272914
0.48046768 0.042146094 0.030267412
0.48134732 0.04301066 0.030798761
0.48222694 0.043872043 0.031330161
0.48310637 0.044730242 0.031861555
0.48398575 0.045585252 0.03239296
0.48486501 0.046437081 0.032924388
0.48574418 0.047285724 0.033455838
0.48662332 0.048131179 0.033987336
0.48665041 0.049023066 0.033981901
0.48752934 0.049863745 0.034513395
0.48840818 0.050701238 0.035044912
0.4892869 0.051535547 0.035576444
0.48931387 0.052422658 0.035571039
0.49019244 0.053252187 0.0361026
0.49107099 0.054078527 0.036634222
0.49194938 0.054901689 0.037165821
0.4919762 0.055784017 0.037160445
0.49285445 0.0566024 0.037692074
0.4937326 0.057417598 0.038223732
0.49375933 0.058296744 0.038218372
0.4946374 0.059107158 0.038750082
0.49466407 0.05998471 0.038744736
0.49554193 0.060790349 0.039276443
0.49556854 0.061666314 0.039271105
0.49644625 0.062467173 0.039802849
0.49647284 0.063341543 0.039797522
0.49649942 0.064215906 0.039792191
0.49737695 0.065010406 0.040323969
0.49825436 0.06580171 0.040855762
0.49828085 0.066672891 0.040850453
0.49830732 0.067544073 0.040845145
0.49833381 0.068415254 0.040839836
0.49921104 0.069198593 0.041371718
0.49923748 0.070068181 0.041366417
0.49926391 0.070937775 0.04136112
0.49929035 0.071807362 0.041355822
0.49931678 0.072676957 0.041350521
0.49849269 0.073642351 0.040807985
0.49851918 0.074513532 0.040802676
0.49854565 0.075384714 0.040797368
0.49772182 0.076356471 0.040254828
0.49689806 0.077331416 0.039712269
0.49692464 0.078205779 0.039706942
0.49695122 0.07908015 0.039701615
0.49612769 0.080061473 0.039159011
0.49530423 0.08104597 0.038616396
0.49448082 0.082033664 0.038073726
0.49450755 0.08291281 0.038068369
0.49368435 0.083905272 0.037525699
0.49371111 0.084786013 0.037520334
0.47290453 0.026860692 0.024820844
0.47293243 0.027778061 0.024815254
0.47381228 0.028682483 0.025347598
0.47384012 0.02959826 0.025342017
0.47386795 0.030514037 0.025336437
0.47474766 0.031412087 0.025868848
0.47477543 0.032326274 0.025863277
0.47565496 0.033219546 0.026395684
0.47568271 0.034132138 0.026390122
0.47656205 0.035020635 0.026922559
0.47658974 0.035931632 0.026917007
0.47746897 0.036815353 0.027449472
0.47749662 0.037724756 0.027443931
0.4783757 0.038603697 0.027976431
0.47925472 0.039479453 0.028508978
0.47928229 0.040385671 0.028503455
0.4801611 0.041256651 0.029035999
0.48103985 0.042124443 0.02956856
0.48191851 0.042989049 0.030101143
0.48279709 0.04385047 0.030633781
0.48282444 0.044750318 0.030628297
0.48370284 0.045606963 0.031160928
0.48458114 0.04646042 0.031693578
0.48545936 0.047310695 0.032226246
0.48633748 0.048157781 0.032758936
0.48721555 0.049001683 0.033291683
0.48724264 0.049893569 0.033286247
0.48812053 0.050732695 0.033818983
0.48899829 0.051568635 0.03435174
0.48987597 0.052401386 0.034884516
0.48990291 0.053288493 0.034879111
0.49078047 0.054116469 0.035411917
0.49165794 0.054941259 0.035944778
0.49253526 0.055762865 0.036477622
0.49256209 0.056645196 0.036472246
0.49343929 0.057462022 0.037005119
0.49346605 0.058342762 0.036999751
0.4943431 0.059154812 0.037532654
0.49436983 0.060033955 0.037527297
0.49524677 0.060841221 0.038060259
0.49612358 0.06164531 0.038593214
0.4961502 0.062521271 0.038587876
0.49702686 0.063320577 0.039120857
0.49705344 0.064194947 0.03911553
0.49708003 0.06506931 0.039110199
0.49795648 0.065862253 0.039643221
0.49798301 0.066735029 0.039637901
0.49885935 0.067523181 0.040170949
0.49888581 0.06839437 0.04016564
0.4989123 0.069265552 0.040160332
0.49893877 0.070136733 0.040155023
0.49896526 0.071007915 0.040149715
0.49899173 0.071879096 0.040144406
0.49901822 0.072750278 0.040139094
0.49904469 0.073621459 0.040133785
0.49907118 0.074492648 0.040128477
0.49909765 0.075363822 0.040123168
0.49827483 0.076335549 0.039579399
0.49745208 0.077310458 0.039035607
0.49747866 0.078184821 0.039030276
0.49665609 0.079164505 0.038486458
0.4966827 0.08004047 0.03848112
0.49586028 0.081024937 0.037937265
0.49503788 0.082012586 0.037393365
0.49421564 0.083003424 0.036849476
0.4942424 0.083884157 0.036844108
0.4934203 0.084879771 0.03630019
0.49344712 0.085762098 0.036294814
0.49262515 0.086762488 0.035750866
0.47351369 0.027756067 0.024105312
0.47354156 0.028673436 0.024099723
0.47442037 0.029576305 0.024633305
0.4744482 0.03049208 0.024627725
0.47447604 0.031407855 0.024622144
0.4753547 0.032304354 0.025155798
0.47538248 0.033218537 0.025150226
0.47626093 0.034110259 0.025683876
0.47628868 0.035022847 0.025678316
0.47716698 0.035909791 0.026211994
0.47719467 0.036820788 0.026206443
0.47807285 0.037702955 0.026740152
0.47810048 0.038612358 0.026734609
0.47897851 0.039489746 0.027268354
0.47985649 0.040363945 0.027802141
0.47988403 0.041270167 0.027796621
0.4807618 0.04213959 0.028330406
0.48163947 0.043005828 0.02886421
0.48251706 0.043868881 0.029398035
0.48339462 0.044728745 0.029931912
0.484272 0.045585427 0.030465776
0.4842993 0.046483684 0.030460302
0.48517656 0.047335587 0.030994195
0.48605371 0.048184305 0.031528108
0.48693076 0.049029838 0.032062039
0.48780778 0.049872186 0.032596022
0.48783487 0.050764073 0.032590587
0.48871168 0.051601641 0.033124566
0.48958841 0.052436028 0.033658568
0.49046502 0.053267226 0.034192584
0.49049199 0.054154333 0.034187179
0.49136847 0.054980759 0.034721229
0.4922449 0.055803988 0.035255328
0.49227175 0.05668791 0.035249941
0.49314797 0.057506371 0.035784043
0.49402413 0.058321647 0.036318161
0.49405089 0.05920238 0.036312792
0.49492687 0.060012877 0.036846936
0.4949536 0.060892023 0.036841579
0.49582949 0.061697736 0.037375785
0.49670523 0.062500268 0.037909981
0.49673185 0.063376226 0.037904643
0.49760747 0.064173982 0.038438864
0.49763405 0.065048352 0.038433537
0.49766061 0.065922715 0.03842821
0.49853602 0.066714101 0.038962469
0.49856254 0.067586876 0.038957153
0.49943781 0.068373479 0.039491441
0.4994643 0.069244668 0.039486133
0.49949077 0.070115849 0.039480824
0.49951726 0.070987023 0.039475515
0.49954373 0.071858212 0.039470207
0.49957022 0.072729394 0.039464898
0.49959669 0.073600575 0.03945959
0.49962318 0.074471757 0.039454281
0.49880132 0.075441845 0.038909286
0.49882784 0.076314621 0.038903967
0.49800611 0.077289492 0.038358942
0.49803269 0.078163855 0.038353615
0.49805927 0.079038225 0.038348287
0.49723774 0.080019467 0.037803221
0.4964163 0.081003897 0.037258141
0.49559492 0.081991509 0.036713004
0.49562165 0.082870655 0.036707647
0.49480045 0.083863042 0.036162518
0.49482721 0.084743783 0.03615715
0.49400619 0.085740946 0.035611991
0.49318525 0.086741298 0.035066802
0.47409496 0.027734073 0.023395373
0.47412285 0.028651442 0.023389783
0.47415072 0.02956881 0.023384193
0.47502846 0.030470125 0.023919018
0.47505629 0.031385902 0.023913438
0.47508413 0.032301679 0.023907857
0.47596171 0.033196621 0.024442753
0.47598952 0.034110803 0.024437182
0.4768669 0.035000969 0.024972076
0.47689465 0.035913561 0.024966514
0.47777191 0.036798947 0.025501436
0.47779959 0.037709948 0.025495885
0.47867671 0.038590558 0.026030837
0.47870433 0.039499961 0.026025295
0.47958133 0.040375795 0.026560269
0.48045823 0.041248437 0.027095301
0.48133501 0.042117901 0.027630322
0.48136249 0.043022528 0.027624808
0.48223913 0.043887213 0.028159857
0.48311564 0.044748709 0.028694924
0.48399213 0.045607019 0.029230043
0.48486847 0.046462148 0.029765151
0.48574471 0.047314089 0.030300276
0.48662084 0.048162848 0.030835422
0.48664805 0.04905792 0.030829968
0.48752406 0.049901899 0.031365141
0.48840001 0.05074269 0.031900369
0.4884271 0.051634576 0.031894933
0.48930287 0.052470591 0.032430157
0.49017853 0.053303421 0.032965399
0.49105409 0.054133065 0.03350066
0.49108103 0.055020176 0.033495255
0.49195647 0.055845041 0.034030542
0.49283183 0.056666721 0.034565885
0.49285871 0.057550643 0.034560498
0.49373388 0.05836755 0.035095837
0.49460894 0.059181266 0.035631195
0.4946357 0.060062006 0.03562583
0.49551064 0.060870945 0.036161218
0.49553737 0.061750092 0.036155861
0.49641222 0.062554248 0.036691308
0.49728689 0.06335523 0.037226744
0.49731353 0.064231187 0.037221406
0.49818805 0.065027386 0.037756871
0.49821463 0.065901756 0.037751544
0.49908903 0.066693179 0.03828704
0.49911556 0.067565948 0.03828172
0.49914208 0.068438724 0.038276404
0.50001627 0.069223776 0.038811937
0.5000428 0.070094958 0.038806628
0.50006926 0.070966139 0.03880132
0.50009573 0.071837321 0.038796011
0.50012219 0.07270851 0.038790703
0.50014871 0.073579684 0.038785394
0.50017518 0.074450873 0.038780086
0.49935433 0.075420924 0.038233854
0.49938086 0.076293699 0.038228538
0.49856013 0.077268526 0.03768228
0.49858671 0.078142896 0.037676949
0.49776614 0.079122506 0.037130665
0.49779278 0.079998471 0.037125327
0.49697235 0.080982856 0.036579009
0.49615198 0.081970431 0.036032643
0.49617869 0.082849577 0.036027286
0.49535853 0.083841927 0.03548092
0.49538529 0.084722668 0.035475552
0.49541205 0.085603401 0.035470188
0.49459207 0.086602122 0.034923784
0.47382724 0.027723318 0.022143813
0.47470412 0.028629448 0.022679843
0.47473198 0.029546816 0.022674253
0.47475988 0.030464185 0.022668662
0.47478774 0.031381555 0.022663072
0.47566441 0.032279722 0.023199145
0.47569224 0.033195499 0.023193564
0.47656876 0.034088887 0.023729702
0.47659656 0.03500307 0.023724131
0.4774729 0.035891682 0.024260268
0.47750062 0.036804274 0.024254708
0.47837684 0.037688106 0.024790872
0.47840452 0.038599104 0.024785321
0.47928056 0.03947816 0.025321515
0.47930822 0.040387563 0.025315974
0.48018411 0.041261841 0.025852192
0.48105997 0.042132933 0.026388466
0.48193568 0.04300084 0.026924729
0.4828113 0.043865561 0.027461011
0.48283875 0.044768594 0.027455509
0.48371422 0.04562854 0.027991818
0.48458967 0.046485294 0.028528174
0.48546493 0.047338869 0.029064525
0.48634011 0.048189256 0.029600894
0.48721519 0.049036458 0.030137282
0.4872424 0.04993153 0.030131828
0.48811734 0.050773956 0.030668246
0.48899224 0.051613193 0.03120471
0.48901933 0.05250508 0.031199275
0.48989403 0.053339541 0.031735741
0.49076864 0.054170813 0.032272227
0.49079564 0.055059519 0.032266811
0.4916701 0.055886015 0.032803327
0.49254447 0.056709327 0.033339854
0.49341878 0.057529449 0.033876438
0.49344563 0.058413375 0.033871051
0.49431977 0.059228726 0.034407634
0.49519378 0.060040887 0.034944236
0.49522054 0.060921624 0.034938872
0.49609441 0.061729014 0.0354755
0.49612114 0.06260816 0.035470143
0.49699491 0.063410759 0.036006838
0.49786854 0.064210184 0.036543511
0.49789518 0.065086149 0.036538173
0.49876866 0.06588079 0.037074883
0.49879524 0.066755161 0.037069552
0.49966857 0.067545027 0.037606291
0.49969509 0.068417802 0.037600972
0.49972165 0.069290571 0.037595656
0.50059479 0.070074074 0.038132429
0.50062126 0.070945255 0.038127121
0.50064772 0.071816437 0.038121812
0.50067425 0.072687618 0.038116504
0.50070071 0.0735588 0.038111195
0.50072718 0.074429981 0.038105886
0.49990734 0.075399995 0.037558425
0.49993387 0.076272771 0.037553106
0.49911416 0.077247567 0.037005614
0.49914074 0.07812193 0.037000287
0.49832118 0.079101503 0.036452767
0.49834779 0.079977468 0.036447428
0.49752837 0.080961816 0.035899885
0.49670902 0.081949353 0.035352286
0.49673575 0.082828499 0.035346925
0.49591658 0.083820812 0.03479933
0.49594334 0.084701553 0.034793962
0.4959701 0.085582286 0.034788594
0.49515113 0.086580969 0.034240957
0.49433225 0.087582842 0.033693302
0.40564692 0.13183632 -0.023981396
0.40483469 0.133058 -0.024530424
0.40486673 0.13411233 -0.024536848
0.40489876 0.13516667 -0.024543274
0.40493083 0.13622101 -0.024549698
0.40496287 0.13727534 -0.024556123
0.4049949 0.13832968 -0.024562549
0.47440952 0.027701285 0.02143264
0.47443745 0.028620247 0.021427039
0.47446537 0.029539209 0.02142144
0.47534114 0.030442191 0.021958716
0.47536904 0.031359561 0.021953126
0.4753969 0.032276928 0.021947537
0.47627249 0.033173542 0.022484858
0.47630033 0.034089319 0.022479277
0.4771758 0.03498115 0.02301666
0.47720358 0.035895336 0.023011088
0.47723138 0.036809519 0.023005517
0.47810662 0.037694983 0.0235429
0.47898176 0.038577262 0.024080308
0.47900945 0.03948826 0.024074757
0.47988445 0.040365763 0.024612194
0.48075932 0.041240077 0.025149645
0.48078692 0.04214789 0.025144113
0.48166174 0.043017425 0.025681632
0.48253638 0.043883778 0.026219137
0.48341095 0.044746947 0.026756655
0.4834384 0.045649979 0.026751153
0.4843128 0.046508368 0.027288707
0.48518717 0.047363572 0.027826313
0.48606139 0.04821559 0.0283639
0.48693553 0.049064424 0.028901512
0.48780954 0.049910072 0.029439144
0.48783675 0.050805144 0.029433688
0.48871064 0.051646013 0.029971344
0.48958448 0.052483696 0.030509057
0.48961157 0.053375579 0.030503621
0.49048522 0.054208487 0.03104133
0.49135876 0.05503821 0.031579051
0.49138576 0.055926912 0.031573638
0.49225917 0.056751855 0.032111395
0.49313247 0.057573613 0.032649171
0.49400571 0.058392182 0.033186994
0.49403259 0.059276104 0.033181608
0.49490565 0.060089901 0.033719435
0.49577859 0.060900509 0.034257278
0.49580538 0.06178125 0.034251913
0.49667817 0.062587082 0.034789782
0.49755096 0.063389726 0.035327706
0.49757764 0.064267278 0.035322357
0.49845019 0.065065145 0.035860281
0.49847683 0.065941103 0.035854943
0.49934927 0.066734195 0.03639289
0.49937585 0.067608558 0.036387563
0.50024813 0.068396874 0.036925543
0.50027466 0.06926965 0.036920223
0.50030118 0.070142426 0.036914904
0.50117326 0.070924364 0.037452921
0.50119972 0.071795553 0.037447609
0.50122625 0.072666734 0.0374423
0.50125271 0.073537916 0.037436992
0.50127918 0.074409097 0.037431683
0.50046033 0.075379074 0.036882997
0.50048685 0.07625185 0.036877677
0.49966818 0.077226602 0.036328953
0.49969476 0.078100964 0.036323622
0.49972132 0.078975335 0.036318295
0.49890283 0.079956464 0.035769537
0.49808443 0.080940776 0.035220753
0.4981111 0.081818327 0.035215408
0.49729279 0.082807422 0.034666564
0.49647462 0.083799697 0.03411774
0.49650139 0.084680438 0.034112372
0.49568337 0.085677482 0.03356351
0.49571019 0.086559817 0.033558134
0.49489233 0.087561652 0.033009246
0.47501972 0.028598215 0.020715866
0.47504765 0.029517176 0.020710267
0.47507557 0.030436138 0.020704666
0.47510353 0.031355098 0.020699067
0.47597817 0.032254934 0.021237597
0.47600606 0.033172306 0.021232005
0.47603396 0.034089673 0.021226415
0.47690842 0.034983139 0.02176499
0.47693625 0.035898916 0.021759409
0.47781062 0.036787603 0.022298038
0.47783843 0.037701786 0.022292467
0.47871259 0.038585696 0.022831099
0.47958666 0.039466418 0.023369744
0.47961438 0.040377416 0.023364194
0.4804883 0.041253366 0.023902874
0.48136213 0.042126127 0.024441568
0.48223594 0.042995699 0.02498032
0.48226348 0.04390192 0.024974797
0.48313707 0.044766717 0.025513539
0.48401058 0.045628332 0.026052307
0.48488399 0.046486758 0.026591089
0.48575735 0.047341999 0.027129928
0.48578468 0.048241846 0.027124444
0.48665786 0.049092311 0.027663274
0.48753092 0.049939588 0.02820213
0.48840389 0.050783683 0.028740998
0.4884311 0.051678754 0.028735543
0.48930392 0.052518073 0.029274447
0.49017668 0.053354196 0.029813401
0.4902038 0.054246083 0.029807968
0.49107638 0.055077437 0.030346913
0.49194887 0.055905607 0.030885885
0.49197587 0.056794304 0.03088047
0.49284822 0.057617694 0.031419463
0.49372047 0.058437899 0.031958483
0.49459267 0.059254915 0.032497551
0.49461952 0.060138837 0.032492165
0.49549153 0.060951076 0.033031233
0.49636343 0.061760135 0.033570316
0.49723524 0.062566005 0.034109421
0.49726194 0.063445151 0.034104064
0.49813366 0.064246237 0.034643229
0.49816033 0.065123789 0.03463788
0.49903187 0.065920107 0.035177048
0.49905849 0.066796064 0.03517171
0.49992985 0.067587599 0.035710897
0.49995643 0.068461969 0.03570557
0.50082767 0.069248721 0.036244795
0.50085419 0.070121504 0.036239475
0.50088072 0.070994273 0.036234155
0.50175172 0.071774662 0.036773413
0.50177824 0.07264585 0.036768105
0.50180471 0.073517025 0.036762796
0.50183117 0.074388213 0.036757488
0.50101334 0.075358145 0.036207564
0.50103986 0.076230921 0.036202244
0.50022221 0.077205643 0.035652287
0.50024879 0.078080006 0.03564696
0.50027537 0.078954369 0.035641633
0.49945787 0.079935461 0.035091642
0.49948448 0.080811419 0.035086304
0.49866715 0.081797287 0.034536276
0.49784985 0.082786344 0.033986207
0.49787655 0.08366549 0.03398085
0.49705946 0.084659316 0.033430774
0.49708623 0.085540056 0.033425406
0.49626926 0.086538665 0.032875311
0.49629608 0.087420993 0.032869931
0.47475609 0.028588898 0.019459363
0.47478408 0.029509453 0.019453755
0.47565785 0.030414106 0.019993488
0.47568581 0.031333067 0.019987887
0.47571373 0.032252029 0.019982288
0.47574165 0.033170991 0.019976689
0.47661522 0.034067679 0.02051647
0.47664312 0.034985047 0.02051088
0.4775165 0.03587696 0.021050697
0.47754434 0.036792737 0.021045117
0.47841766 0.037679866 0.021584988
0.47844544 0.038594052 0.021579416
0.47931856 0.039476406 0.022119291
0.48019159 0.040355574 0.022659181
0.48021927 0.041266575 0.02265363
0.48109215 0.042140964 0.023193548
0.48196495 0.043012172 0.023733489
0.48283768 0.043880191 0.024273477
0.48286524 0.044786412 0.024267957
0.48373777 0.045649655 0.024807941
0.4846102 0.046509713 0.025347952
0.48548257 0.047366589 0.025887977
0.48635486 0.048220273 0.026428059
0.48638222 0.049120121 0.026422575
0.48725432 0.049969032 0.026962649
0.48812634 0.050814755 0.02750274
0.48899823 0.051657297 0.028042858
0.48902544 0.052552368 0.028037405
0.48989722 0.05339013 0.028577546
0.49076894 0.0542247 0.029117743
0.49079603 0.055116586 0.029112307
0.49166757 0.055946384 0.029652497
0.49253899 0.056772999 0.030192707
0.49341032 0.057596426 0.030732941
0.49343729 0.058483537 0.030727535
0.49430847 0.059302185 0.031267792
0.49517959 0.060117643 0.031808108
0.4960506 0.060929924 0.032348402
0.49607742 0.061812256 0.032343026
0.49694827 0.062619753 0.03288335
0.49781901 0.063424073 0.033423703
0.49784574 0.064303219 0.033418346
0.49871638 0.065102749 0.033958752
0.49958688 0.065899104 0.034499142
0.49961352 0.066775061 0.034493808
0.49964014 0.067651019 0.034488469
0.50051045 0.068441004 0.035028905
0.50053704 0.069315366 0.035023578
0.50140721 0.070100576 0.035564039
0.50143373 0.070973352 0.035558719
0.50146025 0.071846128 0.035553403
0.50148678 0.072718903 0.035548083
0.50235671 0.073496141 0.036088597
0.50153983 0.074464448 0.035537448
0.50156635 0.075337224 0.035532128
0.50159287 0.07621 0.035526808
0.50077623 0.077184677 0.034975626
0.50080281 0.07805904 0.034970295
0.5008294 0.07893341 0.034964968
0.50001287 0.079914466 0.034413736
0.50003952 0.080790423 0.034408402
0.49922317 0.081776246 0.033857148
0.49840689 0.082765266 0.033305842
0.49759075 0.083757468 0.032754544
0.49761751 0.084638201 0.032749176
0.49764428 0.085518941 0.032743812
0.49682835 0.086517505 0.03219248
0.49601248 0.087519266 0.031641129
0.47449443 0.028579507 0.018200362
0.47536734 0.029487383 0.018741347
0.47539532 0.030407937 0.018735738
0.47542331 0.031328492 0.018730128
0.47545129 0.032249045 0.018724518
0.47632393 0.033148959 0.019265514
0.47635186 0.034067918 0.019259915
0.47637981 0.03498688 0.019254314
0.47725224 0.035880424 0.019795349
0.47728014 0.036797792 0.019789759
0.47815245 0.037686557 0.020330822
0.47902471 0.038572133 0.020871943
0.47905248 0.039486315 0.020866374
0.47992456 0.040367119 0.021407485
0.48079652 0.041244734 0.021948617
0.4808242 0.042155731 0.021943064
0.48169604 0.043028567 0.022484226
0.48256776 0.043898221 0.023025412
0.48343945 0.044764686 0.023566643
0.48431095 0.045627967 0.024107862
0.4851824 0.046488065 0.0246491
0.48520985 0.047391098 0.024643598
0.48608112 0.048246417 0.025184872
0.48695236 0.049098548 0.02572619
0.48782349 0.049947497 0.026267497
0.48785079 0.050845753 0.026262023
0.48872173 0.051689923 0.026803358
0.48959258 0.052530907 0.027344719
0.48961979 0.053425979 0.027339265
0.4904905 0.054262187 0.027880648
0.49136117 0.055095203 0.028422084
0.49138826 0.05598709 0.028416649
0.49225873 0.056815334 0.028958082
0.4931291 0.057640392 0.029499538
0.49399936 0.058462266 0.030041011
0.49402633 0.059349373 0.030035604
0.49489647 0.060166471 0.030577105
0.49576655 0.060980376 0.031118657
0.49663648 0.0617911 0.031660199
0.49750632 0.062598638 0.03220176
0.49753308 0.063479379 0.032196395
0.49840277 0.064282142 0.032737982
0.49842951 0.065161288 0.032732625
0.49929911 0.06595926 0.033274274
0.50016856 0.066754058 0.033815913
0.50019515 0.067630023 0.033810575
0.50106448 0.068420045 0.034352243
0.50109106 0.069294408 0.034346916
0.50111765 0.070168771 0.034341585
0.50198674 0.070952423 0.034883291
0.50201327 0.071825199 0.034877971
0.50203979 0.072697975 0.034872655
0.50206631 0.073570751 0.034867335
0.50209284 0.074443527 0.034862015
0.50211936 0.075316295 0.034856699
0.50214589 0.076189071 0.03485138
0.50133026 0.077163711 0.03429896
0.50135684 0.078038082 0.034293633
0.50138342 0.078912444 0.034288306
0.50056791 0.079893462 0.033735845
0.50059456 0.08076942 0.033730507
0.49977922 0.081755206 0.03317802
0.49896395 0.082744189 0.032625478
0.49899065 0.083623335 0.032620121
0.49817556 0.084617086 0.032067586
0.49820235 0.085497819 0.032062218
0.49738741 0.086496353 0.031509653
0.49741423 0.087378688 0.031504273
0.47423482 0.028570039 0.016938932
0.47426289 0.029493779 0.016933303
0.47513476 0.030401694 0.017475484
0.4751628 0.031323839 0.017469864
0.47519082 0.032245986 0.017464245
0.47606257 0.033147529 0.018006502
0.47609055 0.034068082 0.018000893
0.47696209 0.034964848 0.018543141
0.47699001 0.03588381 0.018537542
0.4778614 0.036775798 0.019079819
0.4778893 0.037693165 0.01907423
0.47876054 0.038580377 0.019616535
0.47963175 0.039464399 0.020158894
0.47965953 0.040378582 0.020153323
0.48053053 0.041257828 0.020695679
0.48140144 0.04213389 0.021238053
0.48142913 0.043044887 0.021232501
0.48229989 0.04391617 0.021774905
0.48317057 0.04478427 0.022317333
0.48404118 0.045649178 0.022859808
0.48491165 0.046510905 0.02340227
0.48578203 0.04736945 0.023944752
0.48580948 0.048272483 0.02393925
0.4866797 0.049126249 0.02448176
0.4875499 0.049976822 0.025024321
0.48841995 0.050824217 0.02556687
0.48844725 0.051722474 0.025561398
0.48931712 0.05256509 0.026103975
0.49018693 0.053404521 0.026646577
0.49021414 0.054299593 0.026641121
0.49108377 0.055134244 0.027183749
0.49195337 0.055965707 0.02772643
0.49282286 0.056793988 0.028269095
0.49284992 0.057684284 0.028263671
0.49371922 0.058507789 0.028806366
0.49458843 0.059328105 0.029349079
0.49545756 0.06014524 0.029891813
0.49632663 0.060959183 0.030434601
0.49635348 0.061843108 0.030429216
0.49722236 0.062652275 0.030971998
0.49809116 0.063458264 0.031514801
0.49811792 0.064338997 0.031509433
0.49898654 0.06514021 0.032052264
0.49985513 0.065938227 0.032595146
0.4998818 0.066815771 0.032589801
0.50075018 0.06760902 0.03313268
0.50077683 0.068484977 0.033127341
0.50164509 0.069273442 0.03367025
0.50167167 0.070147812 0.033664923
0.50169826 0.071022175 0.033659596
0.50256628 0.071804278 0.034202542
0.5025928 0.072677054 0.034197222
0.50261933 0.073549829 0.034191906
0.50264585 0.074422598 0.034186587
0.50267237 0.075295374 0.034181267
0.5026989 0.07616815 0.034175951
0.50188428 0.077142753 0.033622298
0.50191087 0.078017116 0.033616967
0.50193745 0.078891486 0.03361164
0.50112295 0.079872459 0.03305795
0.50114959 0.080748416 0.033052612
0.50033528 0.081734173 0.032498892
0.50036192 0.082611717 0.032493543
0.49954772 0.083602257 0.03193976
0.49873364 0.084595971 0.031385992
0.4987604 0.085476704 0.031380624
0.49794647 0.086475201 0.030826828
0.49881396 0.087238185 0.031369891
0.47397724 0.028560495 0.015675042
0.47400534 0.029485827 0.015669402
0.47487628 0.030395372 0.016212806
0.47490436 0.031319112 0.016207177
0.47493243 0.032242849 0.016201548
0.47580314 0.033146024 0.016744992
0.47583118 0.034068171 0.016739372
0.4767018 0.034966566 0.017282877
0.47672978 0.035887122 0.017277267
0.47760022 0.036780741 0.017820768
0.47762814 0.037699699 0.017815169
0.47849843 0.038588542 0.018358698
0.47936863 0.039474197 0.018902248
0.48023877 0.040356666 0.01944585
0.48026657 0.041270848 0.019440278
0.4811365 0.042148542 0.019983876
0.48200637 0.043023046 0.020527495
0.48287612 0.043894369 0.021071129
0.48374578 0.044762503 0.021614784
0.48377338 0.045670319 0.021609252
0.48464292 0.046533674 0.022152971
0.48551235 0.047393847 0.022696676
0.48638168 0.048250832 0.0232404
0.48640913 0.049153868 0.023234898
0.48727828 0.050006077 0.023778651
0.48814741 0.0508551 0.024322456
0.48901638 0.051700938 0.024866248
0.48988527 0.052543592 0.02541006
0.48991254 0.053440254 0.025404597
0.49078128 0.054278132 0.025948437
