# .PCD v0.7 - Point Cloud Data file format
VERSION 0.7
FIELDS x y z
SIZE 4 4 4
TYPE F F F
COUNT 1 1 1
WIDTH 1350
HEIGHT 1
VIEWPOINT 0 0 0 1 0 0 0
POINTS 1350
DATA ascii
0.52754509 0.031754158 0.032462709
0.52674627 0.032618143 0.031886309
0.52594751 0.033485312 0.031309888
0.52432454 0.034380324 0.03016213
0.52352601 0.035255458 0.02958566
0.52272767 0.036133777 0.029009173
0.52192938 0.037015282 0.028432664
0.52195531 0.037868943 0.028427463
0.52936506 -0.034400739 0.03450321
0.53021777 -0.033460215 0.035069849
0.5302431 -0.032625657 0.035064764
0.53026849 -0.03179111 0.035059679
0.53112102 -0.030856946 0.035626389
0.53114635 -0.030023992 0.035621315
0.53199863 -0.029094609 0.036188018
0.53285086 -0.02816841 0.036754742
0.53287607 -0.027338639 0.036749687
0.53372818 -0.02641722 0.037316442
0.53375334 -0.025589041 0.037311397
0.53377855 -0.024760861 0.03730635
0.53463042 -0.023845814 0.037873141
0.53465551 -0.02301923 0.037868101
0.53468066 -0.022192642 0.037863065
0.53470576 -0.02136605 0.037858028
0.53473091 -0.020539463 0.037852991
0.534756 -0.019712875 0.037847955
0.53478116 -0.018886289 0.037842918
0.53480631 -0.018059701 0.037837882
0.5348314 -0.017233113 0.037832845
0.53485656 -0.016406525 0.037827808
0.53488165 -0.015579938 0.037822768
0.53408062 -0.014822697 0.037245788
0.53410578 -0.013994516 0.037240744
0.53413093 -0.013166335 0.037235696
0.53415614 -0.012338158 0.037230648
0.5341813 -0.011509976 0.0372256
0.53420645 -0.010681799 0.037220556
0.53423166 -0.0098536173 0.037215509
0.53425682 -0.0090254368 0.037210461
0.53428197 -0.0081972554 0.037205417
0.53430712 -0.007369074 0.037200369
0.53433233 -0.0065408926 0.037195321
0.53435749 -0.0057127154 0.037190273
0.53438264 -0.004884534 0.037185229
0.53440785 -0.0040563564 0.037180182
0.53360748 -0.0032752266 0.036603052
0.53363276 -0.0024454517 0.036597997
0.53365797 -0.0016156768 0.036592938
0.53368318 -0.00078590563 0.036587883
0.53370839 4.3869262e-05 0.036582828
0.53373361 0.00087364041 0.036577769
0.53375882 0.0017034134 0.036572713
0.53378403 0.0025331846 0.036567658
0.5338093 0.0033629595 0.036562599
0.53383452 0.0041927323 0.036557544
0.53385973 0.0050225034 0.036552489
0.53388494 0.0058522765 0.03654743
0.53391016 0.0066820513 0.036542375
0.53393537 0.0075118225 0.036537319
0.53396058 0.0083415955 0.03653226
0.53398585 0.0091713686 0.036527205
0.53401107 0.010001142 0.03652215
0.53403628 0.010830915 0.036517091
0.53406149 0.011660688 0.036512036
0.5340867 0.012490463 0.036506981
0.53411192 0.013320234 0.036501925
0.53413713 0.014150007 0.036496866
0.5341624 0.01497978 0.036491811
0.53418761 0.015809553 0.036486756
0.53421283 0.016639326 0.036481697
0.53341377 0.017461862 0.035904314
0.53343904 0.01829323 0.035899252
0.53346431 0.019124595 0.035894185
0.53348958 0.019955961 0.035889119
0.5335148 0.020787325 0.035884053
0.53354007 0.021618692 0.035878986
0.53274137 0.022452377 0.03530154
0.5327667 0.023285335 0.035296462
0.53279197 0.024118295 0.035291389
0.5328173 0.024951251 0.035286311
0.53201878 0.025792902 0.034708779
0.53204411 0.026627453 0.034703691
0.5320695 0.027462004 0.034698606
0.53127122 0.028310023 0.03412107
0.53047299 0.02916123 0.033543516
0.52967489 0.030015621 0.032965939
0.5288769 0.030873196 0.032388344
0.52807891 0.03173396 0.031810697
0.52645767 0.032619338 0.030660566
0.52566004 0.033488061 0.030082902
0.52486241 0.034359973 0.029505188
0.52324164 0.035261281 0.028354956
0.52244431 0.036141153 0.027777225
0.52247024 0.036994815 0.027772022
0.52167308 0.037879467 0.027194265
0.52989489 -0.034420785 0.033856131
0.52992028 -0.033584651 0.033851035
0.52994573 -0.032748502 0.033845939
0.52997112 -0.03191236 0.033840846
0.53082263 -0.030976569 0.034408744
0.53084803 -0.030142022 0.034403659
0.53169942 -0.029211 0.034971621
0.53172475 -0.028378041 0.034966547
0.53257596 -0.027451808 0.035534501
0.53342706 -0.026528761 0.036102481
0.53345227 -0.025698986 0.036097422
0.53347754 -0.024869215 0.036092367
0.53432846 -0.023952536 0.036660381
0.53435361 -0.023124358 0.036655337
0.53437883 -0.022296177 0.036650289
0.53440398 -0.021467995 0.036645241
0.53442913 -0.020639814 0.036640193
0.53445435 -0.019811634 0.036635149
0.5344795 -0.018983455 0.036630102
0.53450465 -0.018155275 0.036625054
0.53452981 -0.017327093 0.03662001
0.53455502 -0.016498916 0.036614962
0.53458017 -0.015670735 0.036609914
0.53460532 -0.014842553 0.036604866
0.53463054 -0.014014372 0.036599822
0.53383064 -0.013252392 0.036021579
0.53385586 -0.012422621 0.03601652
0.53388107 -0.011592847 0.036011465
0.53390628 -0.010763076 0.03600641
0.53393149 -0.009933305 0.036001351
0.53395671 -0.0091035301 0.035996296
0.53398192 -0.0082737552 0.03599124
0.53400719 -0.0074439836 0.035986181
0.5340324 -0.0066142087 0.035981126
0.53405762 -0.0057844375 0.035976071
0.53408283 -0.0049546664 0.035971012
0.53410804 -0.0041248915 0.035965957
0.53413326 -0.0032951203 0.035960902
0.53415847 -0.0024653454 0.035955846
0.53418374 -0.0016355707 0.035950787
0.53420895 -0.0008057995 0.035945732
0.53423417 2.3975374e-05 0.035940677
0.53425938 0.00085374655 0.035935618
0.53428459 0.0016835196 0.035930563
0.5343098 0.0025132906 0.035925508
0.53433502 0.0033430655 0.035920449
0.53436029 0.0041728388 0.035915393
0.5343855 0.0050026099 0.035910338
0.53441072 0.0058323829 0.035905279
0.53443593 0.0066621578 0.035900224
0.53446114 0.007491929 0.035895169
0.53448635 0.0083217015 0.03589011
0.53451157 0.0091514746 0.035885055
0.5337131 0.0099596418 0.035306528
0.53373837 0.010791006 0.035301462
0.53376365 0.011622372 0.035296395
0.53378892 0.012453739 0.035291329
0.53381419 0.013285103 0.035286263
0.53383946 0.01411647 0.035281196
0.53386474 0.014947834 0.03527613
0.53389001 0.015779201 0.035271063
0.53391528 0.016610567 0.035265997
0.53394049 0.01744193 0.035260931
0.53396577 0.018273298 0.035255864
0.53399104 0.019104663 0.035250798
0.53319317 0.019933533 0.034672149
0.5332185 0.020766491 0.034667071
0.53324383 0.021599449 0.034661997
0.53326917 0.022432407 0.03465692
0.53329444 0.023265366 0.034651846
0.53331977 0.024098324 0.034646768
0.5325222 0.024938343 0.034068014
0.53254759 0.025772894 0.034062929
0.53257293 0.026607445 0.034057844
0.53259832 0.027441995 0.034052759
0.53180099 0.028289977 0.033473987
0.53100383 0.029141145 0.0328952
0.53020674 0.029995497 0.03231639
0.52940971 0.030853035 0.031737566
0.52779031 0.031733561 0.030584961
0.52699357 0.032599062 0.030006086
0.52537447 0.033490736 0.028853415
0.52457798 0.034364201 0.028274491
0.52295929 0.035267022 0.027121786
0.52216297 0.036148451 0.026542814
0.52218896 0.037003707 0.026537603
0.52139282 0.037889913 0.025958568
0.52141887 0.038746759 0.025953347
0.52959943 -0.034546889 0.032634858
0.52962488 -0.033709154 0.032629754
0.52965033 -0.032871418 0.032624647
0.53050095 -0.031932406 0.03319376
0.53052634 -0.031096263 0.033188663
0.53137678 -0.030162031 0.033757806
0.53140217 -0.029327478 0.033752721
0.53225255 -0.028398013 0.034321927
0.53227782 -0.027565055 0.034316849
0.53312802 -0.026640376 0.034886047
0.5331533 -0.02580901 0.034880981
0.53400332 -0.02488911 0.035450209
0.53402853 -0.024059335 0.035445154
0.53405374 -0.023229564 0.035440098
0.53407896 -0.022399792 0.035435043
0.53492874 -0.021487851 0.03600432
0.53495389 -0.02065967 0.035999272
0.5349791 -0.01983149 0.035994224
0.53417987 -0.019080697 0.035414815
0.53420508 -0.018250925 0.03540976
0.53423029 -0.017421154 0.035404705
0.5342555 -0.016591379 0.035399646
0.53428072 -0.015761608 0.03539459
0.53430593 -0.014931833 0.035389535
0.53433114 -0.014102058 0.035384476
0.53435642 -0.013272287 0.035379421
0.53438163 -0.012442516 0.035374366
0.53440684 -0.011612741 0.035369307
0.53360814 -0.010844429 0.034789793
0.53363341 -0.010013064 0.034784727
0.53365868 -0.0091816997 0.03477966
0.53368396 -0.0083503304 0.034774594
0.53370923 -0.0075189662 0.034769528
0.5337345 -0.0066876011 0.034764461
0.53375977 -0.0058562364 0.034759395
0.53378505 -0.0050248718 0.034754328
0.53381026 -0.0041935067 0.034749262
0.53383553 -0.003362142 0.034744196
0.5338608 -0.0025307771 0.034739133
0.53388608 -0.0016994086 0.034734067
0.53391135 -0.0008680438 0.034729
0.53393662 -3.6675257e-05 0.034723934
0.53396189 0.00079468958 0.034718867
0.53398716 0.0016260525 0.034713801
0.53401244 0.0024574192 0.034708735
0.53403771 0.0032887859 0.034703668
0.53406298 0.0041201506 0.034698602
0.53408825 0.0049515157 0.034693535
0.53411353 0.0057828804 0.034688469
0.5341388 0.0066142469 0.034683403
0.53416407 0.007445612 0.034678336
0.53418934 0.0082769785 0.034673274
0.53421462 0.0091083432 0.034668207
0.53423989 0.0099397097 0.034663141
0.53426516 0.010771074 0.034658074
0.53429043 0.01160244 0.034653008
0.53431571 0.012433806 0.034647942
0.53434098 0.013265171 0.034642875
0.53354377 0.014082855 0.03406306
0.53356904 0.014915813 0.034057982
0.53359437 0.015748771 0.034052908
0.5336197 0.016581731 0.034047831
0.53364503 0.017414687 0.034042757
0.53367037 0.018247645 0.034037679
0.53369564 0.019080603 0.034032602
0.53372097 0.019913564 0.034027528
0.5337463 0.02074652 0.03402245
0.53377163 0.02157948 0.034017377
0.5329749 0.022414681 0.03343742
0.53300029 0.023249233 0.033432331
0.53302562 0.024083782 0.033427246
0.53305101 0.024918335 0.033422161
0.53307635 0.025752885 0.033417076
0.53310174 0.026587436 0.033411991
0.53230542 0.027433787 0.032832
0.53233081 0.02826993 0.032826904
0.53153461 0.02912106 0.032246884
0.53073853 0.029975375 0.031666845
0.52912098 0.030851046 0.030511804
0.52832514 0.031713322 0.029931713
0.52670801 0.032600142 0.028776642
0.52509099 0.033493333 0.027621496
0.52429551 0.034368351 0.027041331
0.52267891 0.035272691 0.025886152
0.52188367 0.036155675 0.025305903
0.52108854 0.037041839 0.024725668
0.52111459 0.03790028 0.024720438
0.52114069 0.038758721 0.024715206
0.52930593 -0.034673065 0.031411123
0.53015572 -0.03372924 0.031981438
0.53018117 -0.032891504 0.031976335
0.53020662 -0.032053769 0.031971227
0.53023207 -0.031216033 0.031966124
0.53108156 -0.030280167 0.032536488
0.53193098 -0.029347487 0.033106871
0.53195632 -0.02851293 0.033101782
0.53280562 -0.027585024 0.033672232
0.53283095 -0.026752066 0.033667155
0.53368002 -0.025828943 0.034237597
0.53370529 -0.024997577 0.034232531
0.53373057 -0.024166213 0.034227464
0.53457952 -0.023249457 0.034797948
0.53460473 -0.022419685 0.034792889
0.53462994 -0.021589907 0.034787834
0.53465515 -0.020760136 0.034782778
0.53468037 -0.019930365 0.03477772
0.53470558 -0.01910059 0.034772664
0.53473085 -0.018270819 0.034767609
0.53475606 -0.017441047 0.034762554
0.53478128 -0.016611272 0.034757495
0.53398329 -0.015852557 0.034176804
0.53400856 -0.015021189 0.034171738
0.53403383 -0.014189824 0.034166671
0.53405911 -0.013358459 0.034161605
0.53408438 -0.012527094 0.034156542
0.53410965 -0.011695726 0.034151476
0.53413492 -0.010864361 0.034146409
0.5341602 -0.010032997 0.034141343
0.53418547 -0.0092016319 0.034136277
0.53421074 -0.0083702626 0.03413121
0.53423595 -0.0075388979 0.034126144
0.53426123 -0.0067075333 0.034121078
0.5342865 -0.0058761686 0.034116011
0.53431177 -0.0050448035 0.034110945
0.53433704 -0.0042134388 0.034105878
0.53436232 -0.0033820739 0.034100812
0.53438759 -0.0025507093 0.034095746
0.53441286 -0.0017193407 0.034090679
0.53361583 -0.00093036058 0.033509806
0.5336411 -9.7402124e-05 0.033504728
0.53366643 0.00073555263 0.033499654
0.53369176 0.0015685111 0.033494577
0.53453922 0.002437487 0.034065351
0.53374243 0.0032344281 0.033484425
0.5337677 0.0040673865 0.033479352
0.53379303 0.0049003451 0.033474274
0.53381836 0.0057333014 0.0334692
0.5338437 0.0065662619 0.033464123
0.53386897 0.0073992186 0.033459049
0.5338943 0.0082321772 0.033453971
0.53391963 0.0090651354 0.033448897
0.53394496 0.0098980935 0.03344382
0.53397024 0.010731053 0.033438746
0.53399557 0.011564009 0.033433668
0.5340209 0.012396969 0.033428591
0.53404623 0.013229928 0.033423517
0.53407151 0.014062884 0.033418439
0.53409684 0.014895843 0.033413365
0.53412217 0.015728801 0.033408288
0.5341475 0.01656176 0.033403214
0.53335148 0.017387368 0.03282208
0.53337687 0.018221918 0.032816995
0.5334022 0.019056469 0.03281191
0.5334276 0.019891022 0.032806825
0.53345293 0.020725571 0.03280174
0.53347832 0.021560123 0.032796651
0.53350371 0.022394672 0.032791566
0.53352904 0.023229225 0.032786481
0.53355443 0.024063773 0.032781396
0.53275895 0.024905309 0.032200202
0.53278434 0.025741452 0.03219511
0.53280979 0.026577597 0.032190014
0.53283519 0.027413741 0.032184917
0.53286064 0.028249884 0.032179821
0.53124487 0.029115923 0.031022411
0.53044981 0.029971791 0.030441128
0.52965486 0.030830845 0.029859791
0.52803957 0.031712811 0.028702283
0.52724487 0.032579828 0.028120933
0.52562988 0.033472944 0.026963321
0.52483541 0.034347922 0.026381921
0.52404106 0.035226088 0.025800506
0.52242655 0.03613513 0.024642797
0.52245259 0.03699198 0.024637574
0.52247864 0.037848826 0.024632353
0.52250469 0.038705673 0.024627132
0.52983779 -0.034693189 0.030761575
0.5298633 -0.033853866 0.030756461
0.53071195 -0.032911588 0.031328019
0.5307374 -0.032073852 0.031322915
0.53076291 -0.031236118 0.031317808
0.53161138 -0.030300215 0.031889405
0.53163677 -0.02946407 0.031884309
0.53248513 -0.028532939 0.032455936
0.53251052 -0.02769839 0.032450851
0.53253585 -0.026863839 0.032445766
0.53338403 -0.025939077 0.033017464
0.53340936 -0.025106119 0.033012386
0.53425735 -0.024186146 0.033584081
0.53428262 -0.023354776 0.033579014
0.5343079 -0.022523412 0.033573948
0.53433317 -0.021692043 0.033568885
0.53435844 -0.020860678 0.033563819
0.53438371 -0.020029314 0.033558752
0.53440899 -0.019197948 0.033553686
0.53443426 -0.018366585 0.03354862
0.53445953 -0.017535219 0.033543553
0.5344848 -0.016703853 0.033538487
0.53451008 -0.01587249 0.03353342
0.53453535 -0.015041121 0.033528354
0.53456062 -0.014209756 0.033523288
0.53376383 -0.013444704 0.032941326
0.53378916 -0.012611746 0.032936249
0.53381443 -0.011778791 0.032931175
0.53383976 -0.010945832 0.032926098
0.53386509 -0.010112874 0.032921024
0.53389043 -0.0092799161 0.032915946
0.53391576 -0.0084469533 0.032910872
0.53394103 -0.0076139988 0.032905795
0.53396636 -0.0067810402 0.032900717
0.53399169 -0.0059480816 0.032895643
0.53401703 -0.0051151235 0.032890566
0.5340423 -0.0042821649 0.032885492
0.53406763 -0.00344921 0.032880414
0.53409296 -0.0026162516 0.03287534
0.53411829 -0.0017832894 0.032870263
0.53414357 -0.00095033093 0.032865189
0.5341689 -0.00011737243 0.032860111
0.53419423 0.00071558234 0.032855038
0.53421956 0.0015485408 0.03284996
0.53424484 0.0023814992 0.032844886
0.53427017 0.0032144578 0.032839809
0.5342955 0.0040474162 0.032834735
0.53432083 0.0048803748 0.032829657
0.53434616 0.005713331 0.032824583
0.53437144 0.0065462915 0.032819506
0.53439677 0.0073792483 0.032814428
0.5344221 0.0082122069 0.032809354
0.53444743 0.009045165 0.032804277
0.5344727 0.0098781232 0.032799203
0.53367734 0.010690952 0.032216918
0.53370273 0.011525501 0.032211829
0.53372806 0.012360054 0.032206744
0.53375345 0.013194606 0.032201659
0.53377879 0.014029156 0.032196574
0.53380418 0.014863706 0.032191489
0.53382957 0.015698258 0.032186404
0.5338549 0.016532809 0.032181319
0.53388029 0.017367359 0.032176234
0.53390563 0.01820191 0.032171145
0.53393102 0.019036461 0.03216606
0.53395641 0.019871013 0.032160975
0.53398174 0.020705562 0.03215589
0.53318709 0.021540688 0.0315735
0.53321248 0.022376832 0.031568404
0.53323793 0.023212977 0.031563308
0.53326333 0.02404912 0.031558216
0.53328878 0.024885263 0.031553119
0.53331417 0.025721407 0.031548023
0.53333956 0.02655755 0.031542927
0.53336501 0.027393693 0.031537835
0.53257078 0.028243154 0.030955359
0.53177667 0.029095799 0.030372862
0.53098267 0.02995163 0.029790349
0.53018868 0.030810647 0.029207779
0.52857542 0.031692535 0.028047806
0.52778172 0.032559514 0.027465221
0.52698809 0.033429679 0.026882585
0.52537531 0.034327496 0.025722515
0.52458197 0.035205621 0.025139863
0.52378875 0.036086936 0.024557196
0.52381474 0.036942191 0.024551984
0.52302158 0.037828282 0.023969248
0.52304763 0.038685132 0.023964027
0.53034407 -0.03555264 0.030117141
0.53036958 -0.034713313 0.030112026
0.53039509 -0.03387399 0.030106911
0.5304206 -0.033034652 0.030101797
0.53044611 -0.032195322 0.030096684
0.53129369 -0.031256203 0.030669495
0.53131914 -0.030418467 0.03066439
0.5321666 -0.029484116 0.031237228
0.53219199 -0.02864797 0.031232132
0.53303927 -0.027718399 0.031805001
0.53306466 -0.026883848 0.031799912
0.53309 -0.026049295 0.031794827
0.53393716 -0.025126088 0.032367773
0.53396249 -0.024293134 0.032362696
0.53398776 -0.023460176 0.032357622
0.53483468 -0.022543345 0.032930564
0.53485996 -0.021711975 0.032925498
0.53488523 -0.02088061 0.032920431
0.5349105 -0.020049246 0.032915369
0.53493577 -0.01921788 0.032910302
0.53496104 -0.018386517 0.032905236
0.53416502 -0.017629467 0.03232209
0.53419036 -0.016796509 0.032317013
0.53421563 -0.015963554 0.032311939
0.53424096 -0.015130592 0.032306861
0.53426629 -0.014297633 0.032301787
0.53429163 -0.013464674 0.03229671
0.5343169 -0.012631716 0.032291636
0.53434223 -0.011798761 0.032286558
0.53436756 -0.010965803 0.032281484
0.53439289 -0.010132845 0.032276407
0.53441817 -0.0092998855 0.032271333
0.5344435 -0.0084669236 0.032266255
0.53446883 -0.0076339687 0.032261182
0.53367347 -0.0068546259 0.031677861
0.5336988 -0.0060200738 0.031672776
0.53372419 -0.0051855254 0.031667691
0.53374952 -0.0043509733 0.031662606
0.53377491 -0.0035164249 0.031657521
0.5338003 -0.0026818726 0.031652436
0.53382564 -0.0018473206 0.031647347
0.53385103 -0.0010127685 0.031642262
0.53387636 -0.0001782163 0.031637177
0.53390175 0.00065633212 0.031632092
0.53392708 0.0014908824 0.031627007
0.53395247 0.0023254326 0.031621922
0.53397787 0.0031599847 0.031616837
0.5340032 0.0039945371 0.031611748
0.53402859 0.0048290873 0.031606663
0.53405392 0.0056636375 0.031601578
0.53407931 0.0064981896 0.031596493
0.5341047 0.0073327399 0.031591408
0.53413004 0.0081672901 0.031586323
0.53415543 0.0090018399 0.031581238
0.53418076 0.0098363925 0.031576149
0.53420615 0.010670943 0.031571064
0.53423148 0.011505493 0.031565979
0.53425688 0.012340046 0.031560894
0.53428227 0.013174597 0.031555809
0.5343076 0.014009148 0.031550724
0.53351361 0.014831494 0.03096718
0.533539 0.015667638 0.030962085
0.53356439 0.016503781 0.030956989
0.53358984 0.017339924 0.030951895
0.53361523 0.018176069 0.0309468
0.53364068 0.019012211 0.030941704
0.53366607 0.019848356 0.03093661
0.53369147 0.020684499 0.030931514
0.53371692 0.021520643 0.030926419
0.53374231 0.022356786 0.030921323
0.5337677 0.023192929 0.030916229
0.53379315 0.024029072 0.030911133
0.53381854 0.024865216 0.030906038
0.53302521 0.02570986 0.03032236
0.53305066 0.026547596 0.030317254
0.53307611 0.027385334 0.030312149
0.53310162 0.028223069 0.030307043
0.53230852 0.029075677 0.029723315
0.53151548 0.029931469 0.029139567
0.5307225 0.030790448 0.028555766
0.5299297 0.031652611 0.027971981
0.52913696 0.032517958 0.027388174
0.52752596 0.033409327 0.026225643
0.52673352 0.03428264 0.02564179
0.52594113 0.035159137 0.025057914
0.52514881 0.03603882 0.024474023
0.52435666 0.036921687 0.023890112
0.52438265 0.03777694 0.0238849
0.52440864 0.038632195 0.023879688
0.53087592 -0.035572764 0.029467596
0.53090143 -0.034733433 0.029462481
0.53092694 -0.033894114 0.029457368
0.53095245 -0.033054776 0.029452253
0.53097796 -0.032215446 0.029447138
0.53182453 -0.031276286 0.030021179
0.53184998 -0.030438552 0.030016076
0.53187543 -0.029600812 0.03001097
0.53272182 -0.028668016 0.030585051
0.53274721 -0.027831871 0.030579956
0.53359342 -0.026903855 0.031154066
0.53361881 -0.026069304 0.031148981
0.5336442 -0.025234755 0.031143894
0.53449023 -0.024313105 0.031718079
0.53451556 -0.023480147 0.031713001
0.53454089 -0.022647187 0.031707928
0.53456622 -0.021814225 0.03170285
0.5345915 -0.020981267 0.031697776
0.53461683 -0.020148313 0.031692699
0.53464216 -0.019315355 0.031687625
0.53466749 -0.018482396 0.031682547
0.53469282 -0.017649436 0.031677473
0.5347181 -0.016816478 0.031672396
0.53474343 -0.015983524 0.031667322
0.5339486 -0.015220141 0.031082869
0.53397393 -0.014385592 0.031077784
0.53399932 -0.013551041 0.031072697
0.53402466 -0.012716492 0.031067612
0.53405005 -0.01188194 0.031062527
0.53407538 -0.011047391 0.031057442
0.53410077 -0.010212839 0.031052355
0.53412616 -0.0093782907 0.03104727
0.53415149 -0.0085437344 0.031042185
0.53417689 -0.0077091828 0.0310371
0.53420222 -0.0068746344 0.031032013
0.53422761 -0.0060400823 0.031026928
0.53425294 -0.0052055339 0.031021843
0.53427833 -0.0043709818 0.031016758
0.53430372 -0.0035364332 0.031011671
0.53432906 -0.0027018811 0.031006586
0.53435445 -0.001867329 0.031001501
0.53437978 -0.0010327769 0.030996414
0.53440517 -0.00019822472 0.030991329
0.53443056 0.0006363237 0.030986244
0.5344559 0.0014708739 0.030981159
0.53448129 0.0023054243 0.030976072
0.53450662 0.0031399764 0.030970987
0.53453201 0.0039745285 0.030965902
0.53455734 0.0048090788 0.030960817
0.53458273 0.005643629 0.03095573
0.53378922 0.0064500119 0.030371051
0.53381467 0.0072861556 0.030365957
0.53384006 0.0081222979 0.030360861
0.53386545 0.0089584421 0.030355766
0.5338909 0.0097945873 0.03035067
0.53391629 0.01063073 0.030345576
0.53394175 0.011466874 0.03034048
0.53396714 0.012303017 0.030335385
0.53399253 0.013139161 0.030330289
0.53401798 0.013975304 0.030325195
0.53404337 0.014811447 0.030320099
0.53406882 0.015647592 0.030315004
0.53409421 0.016483735 0.030309908
0.53411961 0.017319879 0.030304814
0.53332686 0.018150151 0.02971999
0.53335232 0.018987887 0.029714884
0.53337777 0.019825622 0.029709779
0.53340322 0.020663358 0.029704673
0.53342873 0.021501096 0.02969957
0.53345418 0.02233883 0.029694464
0.53347963 0.023176568 0.029689359
0.53350508 0.024014303 0.029684255
0.53353053 0.024852039 0.029679149
0.53355604 0.025689775 0.029674044
0.5335815 0.026527513 0.02966894
0.53360695 0.027365249 0.029663835
0.5328148 0.028216224 0.029078884
0.53284031 0.029055553 0.029073769
0.53204829 0.029911308 0.028488789
0.53125638 0.030770248 0.027903754
0.53046453 0.031632371 0.027318737
0.5296728 0.032497682 0.026733698
0.52888119 0.033366177 0.02614864
0.52808964 0.034237862 0.025563529
0.52729821 0.035112727 0.024978433
0.5265069 0.035990778 0.024393316
0.52653283 0.036842849 0.024388123
0.52574164 0.037725676 0.023802979
0.52576756 0.038579341 0.023797777
0.52579349 0.039433002 0.023792576
0.5313822 -0.036432218 0.028823163
0.53140771 -0.035592888 0.028818049
0.53143322 -0.034753557 0.028812934
0.53145874 -0.033914234 0.028807819
0.53148425 -0.033074901 0.028802704
0.53232986 -0.032134108 0.029377971
0.53153527 -0.031396247 0.028792474
0.53238076 -0.030458637 0.02936776
0.53240627 -0.029620897 0.029362656
0.53243172 -0.028783157 0.029357551
0.53327703 -0.027851917 0.029932875
0.53330243 -0.027015775 0.029927779
0.53414762 -0.026089313 0.03050313
0.53417295 -0.025254764 0.030498045
0.53419834 -0.024420211 0.030492958
0.53422368 -0.023585662 0.030487873
0.53424907 -0.022751112 0.030482788
0.53427446 -0.021916559 0.030477703
0.53429979 -0.021082006 0.030472616
0.53432518 -0.020247458 0.030467531
0.53435051 -0.019412907 0.030462446
0.53437591 -0.018578358 0.030457361
0.53440124 -0.017743805 0.030452274
0.53442663 -0.016909253 0.030447189
0.53445202 -0.016074706 0.030442104
0.53447735 -0.01524015 0.030437017
0.53450274 -0.014405601 0.030431932
0.53452808 -0.013571049 0.030426847
0.53455347 -0.0127365 0.030421762
0.53457886 -0.011901949 0.030416675
0.53460419 -0.0110674 0.03041159
0.53381073 -0.010292908 0.029825876
0.53383613 -0.0094567658 0.029820779
0.53386158 -0.008620616 0.029815685
0.53388697 -0.0077844742 0.029810589
0.53391242 -0.0069483318 0.029805494
0.53393781 -0.0061121862 0.029800398
0.5339632 -0.0052760444 0.029795304
0.53398865 -0.004439902 0.029790208
0.53401405 -0.0036037602 0.029785113
0.5340395 -0.0027676143 0.029780017
0.53406489 -0.0019314685 0.029774923
0.53409028 -0.0010953265 0.029769827
0.53411573 -0.00025918067 0.029764732
0.53414112 0.00057696138 0.029759636
0.53416651 0.0014131034 0.029754542
0.53419197 0.0022492474 0.029749446
0.53421736 0.0030853914 0.029744351
0.53424281 0.0039215353 0.029739255
0.5342682 0.0047576772 0.029734161
0.53429359 0.0055938214 0.029729065
0.53431904 0.0064299651 0.02972397
0.53434443 0.0072661089 0.029718874
0.53436989 0.0081022512 0.02971378
0.53439528 0.0089383954 0.029708683
0.53442067 0.0097745406 0.029703589
0.53444612 0.010610683 0.029698495
0.53447151 0.011446827 0.029693399
0.53367943 0.012265913 0.029107409
0.53370488 0.013103649 0.029102303
0.53373033 0.013941385 0.029097199
0.53375578 0.014779121 0.029092094
0.53378129 0.015616858 0.029086988
0.53380674 0.016454594 0.029081885
0.53383219 0.01729233 0.029076779
0.53385764 0.018130066 0.029071674
0.53388309 0.018967802 0.02906657
0.53390861 0.019805539 0.029061465
0.53393406 0.020643273 0.029056359
0.53395951 0.021481011 0.029051254
0.53398496 0.022318745 0.02904615
0.53319353 0.02316013 0.028460024
0.53321904 0.023999456 0.028454909
0.53324455 0.024838787 0.028449794
0.53327006 0.025678115 0.028444679
0.53329557 0.026517443 0.028439565
0.53332108 0.027356772 0.02843445
0.53334659 0.028196102 0.028429335
0.53255558 0.029050225 0.027843133
0.53258115 0.029891146 0.027838008
0.5317902 0.030750049 0.027251743
0.53099936 0.031612135 0.026665492
0.53020871 0.032477409 0.026079219
0.52941811 0.033345863 0.025492929
0.52862751 0.03421751 0.024906587
0.52865332 0.035066392 0.024901414
0.52786297 0.035942815 0.024315074
0.52788883 0.036793292 0.024309892
0.52791464 0.037643768 0.024304708
0.52712446 0.038526561 0.023718331
0.52715039 0.039378632 0.023713138
0.52636039 0.040266197 0.023126731
0.53191406 -0.036452338 0.028173614
0.53193957 -0.035613012 0.028168499
0.53196508 -0.034773681 0.028163387
0.53199059 -0.033934359 0.028158272
0.5320161 -0.033095021 0.028153157
0.53204161 -0.032255694 0.028148042
0.53206712 -0.031416371 0.028142927
0.5329116 -0.030478721 0.028719446
0.53293705 -0.029640982 0.02871434
0.5329625 -0.028803242 0.028709237
0.5338068 -0.027871964 0.02928579
0.53383225 -0.027035821 0.029280694
0.53385764 -0.02619968 0.0292756
0.53388309 -0.025363538 0.029270506
0.53472716 -0.02444022 0.02984711
0.53475249 -0.023605671 0.029842025
0.53477788 -0.02277112 0.02983694
0.53480321 -0.021936568 0.029831855
0.5348286 -0.021102015 0.029826768
0.53485394 -0.020267466 0.029821683
0.53487933 -0.019432915 0.029816598
0.53490472 -0.018598367 0.029811513
0.53493005 -0.017763814 0.029806426
0.53413725 -0.017002102 0.029219553
0.53416264 -0.016165961 0.029214457
0.53418803 -0.015329811 0.029209362
0.53421348 -0.014493668 0.029204266
0.53423887 -0.013657526 0.029199172
0.53426427 -0.012821385 0.029194076
0.53428972 -0.011985239 0.029188981
0.53431511 -0.011149096 0.029183885
0.53434056 -0.010312955 0.029178791
0.53436595 -0.0094768126 0.029173695
0.53439134 -0.0086406628 0.0291686
0.53441679 -0.0078045209 0.029163504
0.53444219 -0.006968379 0.02915841
0.53446764 -0.006132233 0.029153313
0.53449303 -0.0052960911 0.029148219
0.53451842 -0.0044599487 0.029143123
0.53454387 -0.0036238069 0.029138029
0.53456926 -0.002787661 0.029132934
0.53459471 -0.0019515152 0.029127838
0.53462011 -0.0011153732 0.029122744
0.5346455 -0.00027922739 0.029117648
0.53467095 0.00055691466 0.029112553
0.53469634 0.0013930567 0.029107457
0.53472179 0.0022292007 0.029102363
0.53474718 0.0030653446 0.029097266
0.53477257 0.0039014886 0.029092172
0.53479803 0.0047376305 0.029087076
0.53400654 0.005543937 0.028499933
0.53403199 0.0063816747 0.028494829
0.53405744 0.0072194105 0.028489724
0.53408289 0.0080571463 0.028484618
0.5341084 0.0088948822 0.028479515
0.53413385 0.0097326189 0.028474409
0.5341593 0.010570355 0.028469304
0.53418475 0.011408091 0.028464198
0.53421021 0.012245828 0.028459094
0.53423572 0.013083564 0.028453989
0.53426117 0.0139213 0.028448883
0.53428662 0.014759036 0.02844378
0.53349578 0.015586047 0.027856508
0.53352129 0.016425377 0.027851393
0.53354681 0.017264703 0.027846279
0.53357232 0.018104034 0.027841164
0.53359783 0.018943362 0.027836049
0.53362334 0.01978269 0.027830934
0.53364885 0.020622019 0.027825819
0.53367436 0.021461349 0.027820705
0.53369987 0.022300677 0.02781559
0.53372538 0.023140006 0.027810475
0.53375089 0.023979334 0.027805362
0.5337764 0.024818663 0.027800247
0.53380191 0.025657991 0.027795132
0.53382742 0.026497321 0.027790017
0.5330373 0.02734822 0.027202602
0.53306282 0.028189141 0.027197478
0.53308839 0.029030064 0.027192354
0.53229845 0.029887335 0.026604863
0.53232402 0.030729849 0.026599729
0.53153425 0.0315919 0.026012246
0.53074455 0.032457132 0.025424741
0.53077024 0.033302832 0.025419587
0.52998072 0.034172844 0.024832057
0.5291912 0.035046041 0.024244472
0.529217 0.035894927 0.024239298
0.52842772 0.036772899 0.023651715
0.52845353 0.037623379 0.023646533
0.5284794 0.038473856 0.023641352
0.52769029 0.039358202 0.023053734
0.52771616 0.040210273 0.023048541
0.53242034 -0.037311792 0.027529184
0.53244585 -0.036472462 0.027524071
0.53247136 -0.035633132 0.027518956
0.53249687 -0.034793805 0.027513841
0.53252238 -0.033954483 0.027508726
0.53254789 -0.033115145 0.027503612
0.5325734 -0.032275815 0.027498497
0.53259891 -0.031436495 0.027493382
0.53262442 -0.030597165 0.027488267
0.53346789 -0.029661067 0.028066026
0.53349334 -0.028823327 0.028060921
0.53351879 -0.027985591 0.028055817
0.53354424 -0.027147856 0.028050711
0.53438747 -0.026219726 0.028628519
0.53441286 -0.025383584 0.028623423
0.53443831 -0.024547439 0.028618328
0.5344637 -0.023711296 0.028613232
0.5344891 -0.022875154 0.028608138
0.53451455 -0.022039009 0.028603042
0.53453994 -0.021202862 0.028597947
0.53456539 -0.020366721 0.028592851
0.53459078 -0.019530579 0.028587757
0.53461617 -0.018694432 0.02858266
0.53464162 -0.017858291 0.028577566
0.53466702 -0.01702215 0.028572472
0.53469241 -0.016186006 0.028567376
0.53471786 -0.015349858 0.028562281
0.53474325 -0.014513715 0.028557185
0.5347687 -0.013677573 0.028552091
0.53479409 -0.012841431 0.028546995
0.53481948 -0.012005285 0.0285419
0.53484493 -0.011169143 0.028536804
0.53487033 -0.010333001 0.02853171
0.53407902 -0.0095554022 0.027943507
0.53410447 -0.0087176589 0.027938403
0.53412992 -0.0078799231 0.027933298
0.53415537 -0.0070421873 0.027928192
0.53418082 -0.0062044514 0.027923089
0.53420633 -0.0053667198 0.027917983
0.53423178 -0.004528984 0.027912878
0.53425723 -0.0036912481 0.027907774
0.53428268 -0.0028535125 0.027902668
0.53430814 -0.0020157692 0.027897563
0.53433365 -0.0011780373 0.027892459
0.5343591 -0.00034030157 0.027887354
0.53438455 0.00049743411 0.027882248
0.53441 0.0013351717 0.027877143
0.53443545 0.0021729073 0.027872039
0.53446096 0.003010645 0.027866933
0.53448641 0.0038483806 0.027861828
0.53451186 0.0046861167 0.027856724
0.53453732 0.0055238521 0.027851619
0.53456277 0.0063615898 0.027846513
0.53458828 0.0071993256 0.02784141
0.53461373 0.0080370614 0.027836304
0.53463918 0.0088747973 0.027831199
0.53466463 0.009712535 0.027826095
0.53387451 0.010529951 0.02723765
0.53390002 0.011369279 0.027232535
0.53392553 0.01220861 0.02722742
0.53395104 0.013047937 0.027222306
0.53397655 0.013887265 0.027217191
0.53400207 0.014726594 0.027212078
0.53402758 0.015565923 0.027206963
0.53405309 0.016405253 0.027201848
0.5340786 0.017244581 0.027196733
0.53410411 0.01808391 0.027191618
0.53412962 0.018923238 0.027186504
0.5333401 0.019759767 0.026597939
0.53336561 0.020600688 0.026592815
0.53339118 0.021441611 0.026587691
0.53341675 0.022282531 0.026582567
0.53344232 0.023123452 0.026577443
0.53346789 0.023964373 0.026572319
0.53349346 0.024805294 0.026567195
0.53351897 0.025646217 0.02656207
0.53354454 0.026487138 0.026556946
0.53357011 0.027328059 0.02655182
0.53359568 0.02816898 0.026546696
0.53280663 0.029024621 0.025957985
0.53283226 0.029867135 0.025952851
0.53204346 0.030727554 0.025364146
0.53206909 0.03157166 0.025359001
0.5312804 0.032436855 0.024770265
0.53130609 0.033282556 0.024765112
0.53051758 0.03415253 0.024176348
0.53054333 0.034999821 0.024171185
0.52975488 0.035874575 0.023582354
0.52978069 0.036723457 0.023577182
0.52980649 0.037572343 0.023572007
0.52901828 0.038453467 0.022983175
0.52823019 0.039337773 0.022394324
0.52825606 0.040189844 0.022389133
0.52828199 0.041041914 0.022383939
0.52749407 0.04193259 0.021795049
0.53295219 -0.037331916 0.026879633
0.5329777 -0.036492586 0.02687452
0.53300321 -0.035653256 0.026869405
0.53302872 -0.034813926 0.02686429
0.53305423 -0.033974607 0.026859175
0.53307974 -0.033135269 0.026854061
0.53310525 -0.032295939 0.026848946
0.53313076 -0.031456616 0.026843831
0.53315628 -0.030617287 0.026838716
0.53318179 -0.029777959 0.026833601
0.53402418 -0.028843412 0.027412605
0.53404963 -0.028005676 0.027407499
0.53407508 -0.027167941 0.027402394
0.53410053 -0.026330205 0.027397288
0.53412598 -0.025492469 0.027392184
0.53415149 -0.024654733 0.027387079
0.53417695 -0.023816997 0.027381973
0.53501892 -0.022895202 0.027961053
0.53504431 -0.022059055 0.027955959
0.53506976 -0.02122291 0.027950862
0.53509516 -0.020386767 0.027945768
0.53430426 -0.019628316 0.02735645
0.53432971 -0.01879058 0.027351344
0.53435516 -0.017952845 0.02734624
0.53438061 -0.017115109 0.027341135
0.53440613 -0.016277373 0.027336029
0.53443158 -0.015439633 0.027330924
0.53445703 -0.014601897 0.02732582
0.53448248 -0.013764162 0.027320715
0.53450793 -0.012926426 0.027315609
0.53453344 -0.01208869 0.027310506
0.53455889 -0.011250955 0.0273054
0.53458434 -0.010413219 0.027300294
0.53460979 -0.0095754871 0.027295191
0.53463525 -0.0087377438 0.027290085
0.53466076 -0.007900008 0.02728498
0.53468621 -0.0070622722 0.027279876
0.53471166 -0.0062245363 0.027274771
0.53473711 -0.0053868047 0.027269665
0.53476256 -0.0045490689 0.02726456
0.53478807 -0.003711333 0.027259456
0.53481352 -0.0028735974 0.02725435
0.53483897 -0.0020358542 0.027249245
0.53486443 -0.0011981223 0.027244141
0.53488988 -0.0003603865 0.027239036
0.53491539 0.00047734921 0.02723393
0.53494084 0.0013150868 0.027228827
0.53496629 0.0021528224 0.027223721
0.53499174 0.0029905601 0.027218616
0.53501719 0.0038282957 0.027213512
0.53422773 0.0046345261 0.026623901
0.53425324 0.0054738536 0.026618788
0.53427875 0.0063131829 0.026613673
0.53430426 0.0071525122 0.026608558
0.53432977 0.0079918401 0.026603444
0.53435528 0.0088311695 0.026598329
0.53438079 0.0096704988 0.026593214
0.5344063 0.010509828 0.026588099
0.53443187 0.011349156 0.026582984
0.53445739 0.012188487 0.026577869
0.5344829 0.013027814 0.026572755
0.53369397 0.013853155 0.02598303
0.53371954 0.014694076 0.025977906
0.53374511 0.015534999 0.02597278
0.53377068 0.01637592 0.025967656
0.53379625 0.017216841 0.025962532
0.53382176 0.018057764 0.025957407
0.53384733 0.018898685 0.025952283
0.5338729 0.019739605 0.025947159
0.53389847 0.020580526 0.025942035
0.53392404 0.021421449 0.025936911
0.53394961 0.02226237 0.025931787
0.53397512 0.023103291 0.025926661
0.53318685 0.023949336 0.025336774
0.53321242 0.024791852 0.025331641
0.53323805 0.025634365 0.025326507
0.53326368 0.026476881 0.025321372
0.53328925 0.027319394 0.025316238
0.53331488 0.028161908 0.025311105
0.53334051 0.029004423 0.02530597
0.5325526 0.029863209 0.02471604
0.53257829 0.030707316 0.024710897
0.53260392 0.031551424 0.024705753
0.53181624 0.032416578 0.024115784
0.53184199 0.033262279 0.024110632
0.53105444 0.034132216 0.023520634
0.53108019 0.034979507 0.02351547
0.53110594 0.035826799 0.023510307
0.53031856 0.036703106 0.022920236
0.53034437 0.037551992 0.022915063
0.53037018 0.038400877 0.022909891
0.52958304 0.039283551 0.022319814
0.52879596 0.040169414 0.021729721
0.528009 0.041058462 0.021139607
0.52722216 0.041950695 0.020549476
0.52724814 0.042805947 0.020544264
0.53348398 -0.037352037 0.026230089
0.53350949 -0.03651271 0.026224975
0.533535 -0.03567338 0.02621986
0.53356051 -0.03483405 0.026214745
0.53358603 -0.033994727 0.02620963
0.53361154 -0.033155393 0.026204515
0.53363705 -0.032316063 0.0261994
0.53366256 -0.03147674 0.026194286
0.53368807 -0.030637411 0.026189171
0.53371358 -0.029798081 0.026184058
0.53373909 -0.028958749 0.026178943
0.5337646 -0.028119419 0.026173828
0.53460586 -0.027188025 0.026754079
0.53463137 -0.02635029 0.026748974
0.53465682 -0.025512554 0.026743868
0.53468227 -0.024674818 0.026738765
0.53470773 -0.023837082 0.026733659
0.53473318 -0.022999346 0.026728554
0.53475869 -0.022161607 0.02672345
0.53478414 -0.021323873 0.026718345
0.53480959 -0.020486137 0.026713239
0.53483504 -0.019648401 0.026708135
0.53486049 -0.018810665 0.02670303
0.534886 -0.017972929 0.026697924
0.53491145 -0.017135194 0.026692821
0.5349369 -0.016297458 0.026687715
0.53496236 -0.015459718 0.02668261
0.53498787 -0.014621982 0.026677504
0.53501332 -0.013784247 0.026672401
0.53503877 -0.012946511 0.026667295
0.53506422 -0.012108775 0.02666219
0.53427488 -0.011332846 0.026071535
0.53430039 -0.010493517 0.026066421
0.5343259 -0.0096541913 0.026061306
0.53435141 -0.0088148583 0.026056191
0.53437692 -0.0079755289 0.026051076
0.53440243 -0.0071361992 0.026045961
0.53442794 -0.0062968736 0.026040846
0.53445345 -0.0054575442 0.026035732
0.53447896 -0.0046182149 0.026030617
0.53450447 -0.0037788854 0.026025504
0.53452998 -0.0029395598 0.026020389
0.53455549 -0.0021002265 0.026015274
0.53458101 -0.0012608971 0.026010159
0.53460652 -0.00042157152 0.026005045
0.53463203 0.00041775787 0.02599993
0.53465754 0.0012570872 0.025994815
0.53468305 0.0020964148 0.0259897
0.53470856 0.002935746 0.025984585
0.53473407 0.0037750734 0.02597947
0.53475958 0.004614403 0.025974358
0.53478509 0.0054537305 0.025969243
0.5348106 0.0062930598 0.025964128
0.53483611 0.0071323891 0.025959013
0.53486162 0.007971717 0.025953898
0.53407347 0.0087874653 0.025362996
0.53409898 0.0096283881 0.025357872
0.53412455 0.010469307 0.025352748
0.53415012 0.011310228 0.025347624
0.53417569 0.012151152 0.0253425
0.53420126 0.012992073 0.025337376
0.53422683 0.013832994 0.025332252
0.53425235 0.014673915 0.025327127
0.53427792 0.015514839 0.025322001
0.53349018 0.01634651 0.024730969
0.53351581 0.017189024 0.024725836
0.53354144 0.018031539 0.0247207
0.53356701 0.018874053 0.024715567
0.53359264 0.019716568 0.024710434
0.53361827 0.02055908 0.024705298
0.53364384 0.021401595 0.024700165
0.53366947 0.022244109 0.024695031
0.53369504 0.023086624 0.024689898
0.53372067 0.023929138 0.024684763
0.5337463 0.024771651 0.024679629
0.53377187 0.025614167 0.024674496
0.5337975 0.02645668 0.02466936
0.53301048 0.027310651 0.024078229
0.53303617 0.028154759 0.024073087
0.5330618 0.028998865 0.024067942
0.53308749 0.029842971 0.024062799
0.53311312 0.030687079 0.024057655
0.5323264 0.031550605 0.023466462
0.53235209 0.032396305 0.023461308
0.53237784 0.033242002 0.023456156
0.53240353 0.034087703 0.023451002
0.53161705 0.034959193 0.022859761
0.53164279 0.035806485 0.022854598
0.53166854 0.036653776 0.022849435
0.53169429 0.037501071 0.022844272
0.53090805 0.038380526 0.022252951
0.53093386 0.039229408 0.022247778
0.53014773 0.040113639 0.021656459
0.52936178 0.041001055 0.021065122
0.5285759 0.041891657 0.020473767
0.52779007 0.042785443 0.01988239
0.5270043 0.043682419 0.019290959
0.52621871 0.044582576 0.018699547
0.53404135 -0.03653283 0.025575424
0.53406686 -0.035693504 0.025570309
0.53409237 -0.034854174 0.025565194
0.53411788 -0.034014851 0.025560079
0.53414339 -0.033175513 0.025554964
0.5341689 -0.032336187 0.025549849
0.53419441 -0.031496864 0.025544735
0.53421992 -0.030657534 0.02553962
0.53424543 -0.029818205 0.025534507
0.53427094 -0.028978871 0.025529392
0.53429645 -0.028139543 0.025524277
0.53432196 -0.027300216 0.025519162
0.53434747 -0.026460886 0.025514048
0.53437299 -0.025621558 0.025508933
0.5343985 -0.024782227 0.025503818
0.53442401 -0.023942903 0.025498703
0.53444952 -0.023103572 0.025493588
0.53447503 -0.02226424 0.025488473
0.53450054 -0.021424914 0.025483361
0.53452605 -0.020585585 0.025478246
0.53455156 -0.019746255 0.025473131
0.53457707 -0.018906927 0.025468016
0.53460258 -0.0180676 0.025462901
0.53462809 -0.017228272 0.025457786
0.5346536 -0.016388942 0.025452672
0.53467911 -0.015549612 0.025447557
0.53470463 -0.014710283 0.025442442
0.53473014 -0.013870954 0.025437327
0.53475565 -0.013031624 0.025432214
0.53478116 -0.012192299 0.025427099
0.53480667 -0.011352969 0.025421984
0.53483218 -0.01051364 0.02541687
0.53485769 -0.0096743144 0.025411755
0.5348832 -0.0088349814 0.02540664
0.53490871 -0.007995652 0.025401525
0.53493422 -0.0071563222 0.02539641
0.53495973 -0.0063169966 0.025391296
0.53498524 -0.0054776673 0.025386181
0.53501076 -0.004638338 0.025381066
0.5342229 -0.0038465178 0.024789082
0.53424841 -0.0030055984 0.024783956
0.53427398 -0.0021646717 0.024778832
0.53429955 -0.0013237523 0.024773708
0.53432512 -0.00048283304 0.024768583
0.53435069 0.00035809001 0.024763459
0.53437626 0.0011990112 0.024758335
0.53440177 0.0020399324 0.024753211
0.53442734 0.0028808536 0.024748087
0.53445292 0.0037217748 0.024742963
0.53447849 0.004562696 0.024737837
0.53450406 0.0054036169 0.024732713
0.53452963 0.0062445402 0.024727589
0.53455514 0.0070854612 0.024722464
0.53458071 0.0079263821 0.02471734
0.53460628 0.008767304 0.024712216
0.53463185 0.0096082268 0.024707092
0.53384477 0.010428712 0.024114896
0.5338704 0.011271224 0.024109762
0.53389597 0.012113742 0.024104629
0.5339216 0.012956254 0.024099493
0.53394723 0.013798767 0.02409436
0.5339728 0.014641282 0.024089226
0.53399843 0.015483797 0.024084091
0.53402406 0.016326312 0.024078958
0.53404963 0.017168825 0.024073824
0.53407526 0.018011339 0.024068689
0.53328878 0.018849345 0.02347642
0.53331441 0.019693453 0.023471275
0.5333401 0.020537559 0.023466133
0.53336573 0.021381665 0.023460988
0.53339142 0.022225773 0.023455845
0.53341705 0.023069879 0.023450701
0.53344274 0.023913985 0.023445558
0.53346837 0.024758093 0.023440413
0.53349406 0.025602199 0.023435269
0.53351969 0.026446307 0.023430126
0.53354537 0.027290413 0.023424981
0.533571 0.028134521 0.023419838
0.53359663 0.028978627 0.023414694
0.53362232 0.029822733 0.023409551
0.53283656 0.030684629 0.022817139
0.53286225 0.031530328 0.022811985
0.532888 0.032376029 0.022806831
0.53291368 0.033221729 0.022801677
0.53293937 0.034067426 0.022796525
0.5321539 0.034938879 0.022204051
0.53217965 0.035786171 0.022198888
0.5322054 0.036633462 0.022193724
0.53223121 0.037480757 0.022188561
0.53225696 0.038328048 0.022183398
0.53147173 0.039209057 0.021590833
0.53068662 0.040093251 0.020998284
0.52990168 0.040980626 0.020405713
0.52911675 0.04187119 0.019813126
0.528332 0.042764939 0.019220516
0.52754724 0.043661874 0.018627854
0.52676266 0.044561993 0.018035209
0.53457314 -0.036552954 0.024925876
0.53459865 -0.035713624 0.024920762
0.53462416 -0.034874298 0.024915647
0.53464967 -0.034034975 0.024910532
0.53467518 -0.033195637 0.024905417
0.53470069 -0.032356307 0.024900304
0.5347262 -0.031516988 0.024895189
0.53475171 -0.030677658 0.024890075
0.53477722 -0.029838327 0.02488496
0.53480273 -0.028998995 0.024879845
0.53482825 -0.028159665 0.02487473
0.53485376 -0.027320338 0.024869615
0.53487927 -0.02648101 0.0248645
0.53490478 -0.02564168 0.024859386
0.53493029 -0.024802351 0.024854271
0.5349558 -0.023963025 0.024849158
0.53498131 -0.023123696 0.024844043
0.53500682 -0.022284362 0.024838928
0.53503233 -0.021445038 0.024833813
0.53424448 -0.020685107 0.024240788
0.53427005 -0.019844187 0.024235664
0.53429562 -0.019003265 0.02423054
0.53432119 -0.018162344 0.024225416
0.53434676 -0.017321425 0.024220292
0.53437233 -0.016480502 0.024215166
0.53439784 -0.015639579 0.024210041
0.53442341 -0.014798656 0.024204917
0.53444898 -0.013957737 0.024199793
0.53447455 -0.013116814 0.024194669
0.53450012 -0.012275894 0.024189545
0.53452569 -0.011434971 0.024184421
0.5345512 -0.010594052 0.024179297
0.53457677 -0.0097531294 0.024174172
0.53460234 -0.0089122057 0.024169046
0.53462791 -0.0080712866 0.024163922
0.53465348 -0.0072303638 0.024158798
0.53467906 -0.0063894442 0.024153674
0.53470457 -0.0055485214 0.02414855
0.53473014 -0.0047076019 0.024143426
0.53475571 -0.003866679 0.024138302
0.53478128 -0.0030257597 0.024133177
0.53480685 -0.0021848329 0.024128053
0.53483242 -0.0013439136 0.024122927
0.53485793 -0.00050299423 0.024117803
0.5348835 0.0003379288 0.024112679
0.53490907 0.00117885 0.024107555
0.53493464 0.0020197711 0.024102431
0.53496021 0.0028606923 0.024097307
0.53498572 0.0037016135 0.024092183
0.53419936 0.0045109121 0.023498822
0.53422499 0.005353427 0.023493687
0.53425056 0.0061959415 0.023488553
0.53427619 0.0070384545 0.02348342
0.53430182 0.0078809699 0.023478284
0.53432739 0.0087234825 0.023473151
0.53435302 0.0095659988 0.023468018
0.53437865 0.010408512 0.023462882
0.53440422 0.011251025 0.023457749
0.53442985 0.012093542 0.023452615
0.53364402 0.01292036 0.022859182
0.53366971 0.013764466 0.022854038
0.53369534 0.014608573 0.022848895
0.53372097 0.015452682 0.02284375
0.53374666 0.016296789 0.022838607
0.53377229 0.017140893 0.022833463
0.53379798 0.017985001 0.02282832
0.53382361 0.018829107 0.022823175
0.5338493 0.019673215 0.022818033
0.53387493 0.020517321 0.022812888
0.53390062 0.021361427 0.022807745
0.53392625 0.022205535 0.022802601
0.53395188 0.023049643 0.022797458
0.53316677 0.023898758 0.022203887
0.53319246 0.024744458 0.022198733
0.5332182 0.025590157 0.022193581
0.53324389 0.026435856 0.022188427
0.53326958 0.027281556 0.022183273
0.53329527 0.028127255 0.022178119
0.53332102 0.028972955 0.022172967
0.53334671 0.029818654 0.022167813
0.5333724 0.030664355 0.022162659
0.53339815 0.031510055 0.022157505
0.53342384 0.032355752 0.022152353
0.53344953 0.033201452 0.022147199
0.53266501 0.034071274 0.021553503
0.53269076 0.034918565 0.021548342
0.53271651 0.035765857 0.021543179
0.53274232 0.036613148 0.021538015
0.53276807 0.037460443 0.021532852
0.53198379 0.03833982 0.020939063
0.5320096 0.039188705 0.020933891
0.5312255 0.040072858 0.020340109
0.53044152 0.0409602 0.019746307
0.53046745 0.041812271 0.019741114
0.52887392 0.042744435 0.018558644
0.52809018 0.043641333 0.017964749
0.52730662 0.044541415 0.01737087
0.53510493 -0.036573078 0.024276329
0.53431726 -0.03584186 0.023682246
0.53434283 -0.035000928 0.023677122
0.5343684 -0.034160014 0.023671998
0.53439391 -0.03331909 0.023666874
0.53441948 -0.032478169 0.023661749
0.53444505 -0.031637251 0.023656625
0.53447062 -0.030796329 0.023651501
0.53449619 -0.029955406 0.023646375
0.53452176 -0.029114483 0.023641251
0.53454727 -0.02827356 0.023636127
0.53457284 -0.027432641 0.023631003
0.53459841 -0.026591718 0.023625879
0.53462398 -0.025750799 0.023620754
0.53464955 -0.024909878 0.02361563
0.53467512 -0.024068955 0.023610506
0.53470063 -0.023228036 0.023605382
0.5347262 -0.02238711 0.023600256
0.53475177 -0.021546191 0.023595132
0.53477734 -0.020705268 0.023590008
0.53480291 -0.019864349 0.023584884
0.53482848 -0.019023426 0.02357976
0.53485399 -0.018182505 0.023574635
0.53487957 -0.017341586 0.023569511
0.53490514 -0.016500663 0.023564387
0.53493071 -0.01565974 0.023559263
0.53495628 -0.014818817 0.023554137
0.53498185 -0.013977898 0.023549013
0.53500736 -0.013136975 0.023543889
0.53422105 -0.012359569 0.022949489
0.53424662 -0.011517056 0.022944355
0.53427225 -0.010674544 0.02293922
0.53429782 -0.0098320302 0.022934087
0.53432345 -0.0089895139 0.022928953
0.53434908 -0.0081469966 0.02292382
0.53437465 -0.007304484 0.022918684
0.53440028 -0.006461971 0.022913551
0.53442591 -0.0056194579 0.022908418
0.53445148 -0.0047769449 0.022903282
0.53447711 -0.0039344286 0.022898149
0.53450274 -0.0030919153 0.022893015
0.53452832 -0.0022493987 0.02288788
0.53455395 -0.0014068857 0.022882747
0.53457958 -0.00056437269 0.022877613
0.53460515 0.00027814397 0.022872478
0.53463078 0.001120657 0.022867344
0.53465635 0.00196317 0.022862211
0.53468198 0.0028056847 0.022857076
0.53470761 0.0036481996 0.022851942
0.53473318 0.0044907127 0.022846809
0.53475881 0.0053332276 0.022841673
0.53478444 0.0061757425 0.02283654
0.53481001 0.0070182551 0.022831406
0.53402495 0.0078354804 0.0222368
0.53405058 0.0086795874 0.022231655
0.53407627 0.0095236963 0.022226512
0.5341019 0.010367802 0.022221368
