# .PCD v0.7 - Point Cloud Data file format
VERSION 0.7
FIELDS x y z
SIZE 4 4 4
TYPE F F F
COUNT 1 1 1
WIDTH 1395
HEIGHT 1
VIEWPOINT 0 0 0 1 0 0 0
POINTS 1395
DATA ascii
0.40671444 0.079298832 0.050405722
0.40674406 0.080273539 0.050399784
0.40768373 0.081150182 0.050858364
0.40862328 0.08202365 0.051316924
0.40865278 0.082995161 0.051311005
0.40959218 0.083863847 0.051769592
0.40962166 0.084833778 0.051763684
0.40965113 0.085803702 0.051757772
0.41059035 0.086666018 0.052216403
0.41061977 0.087634355 0.052210502
0.41064921 0.088602692 0.052204601
0.41067863 0.089571021 0.052198701
0.41070807 0.090539359 0.0521928
0.41073751 0.091507688 0.052186899
0.41076693 0.092476025 0.052180998
0.41079637 0.093444355 0.052175097
0.41082579 0.094412692 0.052169196
0.41085523 0.095381029 0.052163295
0.41088468 0.096349359 0.052157395
0.41000491 0.097442821 0.051686846
0.41003439 0.098412752 0.051680937
0.41006389 0.099382676 0.051675025
0.41009337 0.1003526 0.051669117
0.41103184 0.10119103 0.05212789
0.41106126 0.10215936 0.052121989
0.4110907 0.1031277 0.052116089
0.41112012 0.10409603 0.052110188
0.41114956 0.10506437 0.052104287
0.41027024 0.10617216 0.051633652
0.41029972 0.10714208 0.051627744
0.41032922 0.10811201 0.051621832
0.4103587 0.10908194 0.05161592
0.41038817 0.11005186 0.051610012
0.41041765 0.11102179 0.0516041
0.40953869 0.11214074 0.051133398
0.40956822 0.11311226 0.051127478
0.40959775 0.11408377 0.051121559
0.40962726 0.1150553 0.051115636
0.40965679 0.11602681 0.051109716
0.39515069 0.068563357 0.043670096
0.39518094 0.069558769 0.043664027
0.39612079 0.070475273 0.04412356
0.39706051 0.071388595 0.044583112
0.39709067 0.072380818 0.044577066
0.39803025 0.073289357 0.045036647
0.39896974 0.074194714 0.045496248
0.40081853 0.075010017 0.04642155
0.40175778 0.075907409 0.046881199
0.40269691 0.076801613 0.04734087
0.40454522 0.077600986 0.048266269
0.40548411 0.078487232 0.048725985
0.40642294 0.07937029 0.049185723
0.40736166 0.080250166 0.04964548
0.40830031 0.081126854 0.050105281
0.4083299 0.082099959 0.050099351
0.40926838 0.082971871 0.050559167
0.40929788 0.083943389 0.050553244
0.40932742 0.084914908 0.050547324
0.41026571 0.085780449 0.051007167
0.41029519 0.086750373 0.051001258
0.41032466 0.087720305 0.050995346
0.41035414 0.088690236 0.050989438
0.41038364 0.08966016 0.050983526
0.41041312 0.090630084 0.050977614
0.41044259 0.091600008 0.050971705
0.41047207 0.092569932 0.050965793
0.41050157 0.093539856 0.050959885
0.41053104 0.094509788 0.050953973
0.41056052 0.095479719 0.050948065
0.41058999 0.096449643 0.050942153
0.41061947 0.097419567 0.050936241
0.41064897 0.098389499 0.050930332
0.41067845 0.099359423 0.05092442
0.41070792 0.10032935 0.050918512
0.4107374 0.10129928 0.0509126
0.4107669 0.1022692 0.050906688
0.41079637 0.10323913 0.05090078
0.41082585 0.10420906 0.050894868
0.41085532 0.10517897 0.050888959
0.4108848 0.10614891 0.050883047
0.4109143 0.10711883 0.050877139
0.41094378 0.10808876 0.050871227
0.41006565 0.10920288 0.050399322
0.41009519 0.11017441 0.050393399
0.41012472 0.11114593 0.050387479
0.40924683 0.11226642 0.049915522
0.4092764 0.11323953 0.049909592
0.40930599 0.11421265 0.049903665
0.40933555 0.11518577 0.049897734
0.40845782 0.11631423 0.049425714
0.39669007 0.068463817 0.04336657
0.39762887 0.069380358 0.043827333
0.39765903 0.070372581 0.043821286
0.39859772 0.071284346 0.044282082
0.39862782 0.072274975 0.044276047
0.39956635 0.073181964 0.04473687
0.40050486 0.074085765 0.04519774
0.40144318 0.074986376 0.045658603
0.40238142 0.075883806 0.046119485
0.40422779 0.076688036 0.047047295
0.40516585 0.077577502 0.047508255
0.40610373 0.078463785 0.047969203
0.40704155 0.07934688 0.048430175
0.40797925 0.080226801 0.048891161
0.40800887 0.081201501 0.048885223
0.40894648 0.082076631 0.049346268
0.40897608 0.083049744 0.049340338
0.40991348 0.083920099 0.049801383
0.40994301 0.084891617 0.049795464
0.40997255 0.085863136 0.049789544
0.41000208 0.086834654 0.049783625
0.41093925 0.087697051 0.050244719
0.41096872 0.088666975 0.050238807
0.41099823 0.0896369 0.050232898
0.4110277 0.090606831 0.050226986
0.41105717 0.091576755 0.050221078
0.41108665 0.092546679 0.050215166
0.41111612 0.093516603 0.050209258
0.41114563 0.094486535 0.050203346
0.4111751 0.095456466 0.050197434
0.41120458 0.09642639 0.050191525
0.41123405 0.097396314 0.050185613
0.41126356 0.098366246 0.050179705
0.41129303 0.099336162 0.050173793
0.4113225 0.10030609 0.050167881
0.41135198 0.10127602 0.050161973
0.41138145 0.10224594 0.050156061
0.41141096 0.10321587 0.050150152
0.41144043 0.1041858 0.05014424
0.41146991 0.10515572 0.050138332
0.41059268 0.10626504 0.04966522
0.41062221 0.10723656 0.049659301
0.41065171 0.10820808 0.049653381
0.41068125 0.10917959 0.049647458
0.40980425 0.11029687 0.049174301
0.40983382 0.11126999 0.049168371
0.40986341 0.11224309 0.04916244
0.40898654 0.11336675 0.048689216
0.40901616 0.11434145 0.048683275
0.40904582 0.11531616 0.048677336
0.40816918 0.11644617 0.048204102
0.39910498 0.06729807 0.043539591
0.39822742 0.068364345 0.043065511
0.39916518 0.069279335 0.043527517
0.39919531 0.070269965 0.043521482
0.39922541 0.071260594 0.043515444
0.40016297 0.072169214 0.043977492
0.40019304 0.073158249 0.043971464
0.40203789 0.073976889 0.044901673
0.40206784 0.074962743 0.044895664
0.40391234 0.075771831 0.045825902
0.40484941 0.076664515 0.046288047
0.40578645 0.077554017 0.046750247
0.40672335 0.078440338 0.047212433
0.40766013 0.079323478 0.047674634
0.40768981 0.08029978 0.047668684
0.40862647 0.081178136 0.048130918
0.40865609 0.082152836 0.048124976
0.40959266 0.083026409 0.048587266
0.40962222 0.083999522 0.048581336
0.40965182 0.084972635 0.048575405
0.41058812 0.085839845 0.049037706
0.41061765 0.086811364 0.049031787
0.41064718 0.08778289 0.049025863
0.41067672 0.088754401 0.049019944
0.41070622 0.089725919 0.049014024
0.41073576 0.090697445 0.049008105
0.41076529 0.091668956 0.049002185
0.41079482 0.092640474 0.048996262
0.41082436 0.093611993 0.048990343
0.41085389 0.094583519 0.048984423
0.41088343 0.095555037 0.048978504
0.41091293 0.096526556 0.048972584
0.41094247 0.097498074 0.048966665
0.410972 0.098469593 0.048960742
0.41100153 0.099441111 0.048954822
0.41103107 0.10041263 0.048948903
0.4110606 0.10138415 0.048942983
0.41109011 0.10235567 0.048937064
0.41111964 0.10332719 0.04893114
0.41114917 0.10429871 0.048925221
0.41117871 0.10527022 0.048919301
0.41120824 0.10624175 0.048913382
0.41123778 0.10721327 0.048907463
0.41036168 0.10832732 0.048433088
0.41039127 0.10930043 0.048427157
0.41042084 0.11027354 0.04842123
0.40954489 0.11139397 0.047946788
0.40957451 0.11236867 0.04794085
0.40869877 0.11349387 0.047466408
0.40872845 0.11447018 0.047460459
0.40785283 0.11560015 0.046985991
0.40788254 0.11657804 0.046980031
0.39973265 0.067274317 0.042772952
0.39976278 0.068264954 0.042766917
0.39979288 0.069255583 0.042760879
0.40072954 0.070167422 0.043224141
0.40075961 0.071156465 0.043218113
0.40169618 0.072063521 0.043681432
0.40172619 0.073050968 0.043675415
0.40266255 0.073953256 0.044138733
0.40359882 0.074852347 0.044602074
0.40453497 0.075748272 0.045065429
0.40547106 0.076640993 0.04552881
0.40640709 0.077530533 0.045992233
0.40734297 0.078416899 0.046455648
0.40827876 0.079300068 0.046919085
0.40830842 0.08027637 0.046913136
0.40924406 0.081154764 0.047376599
0.40927368 0.082129471 0.047370661
0.40930331 0.083104171 0.047364723
0.41023883 0.083976194 0.047828253
0.4102684 0.084949307 0.047822323
0.41029796 0.085922413 0.047816392
0.41032755 0.086895525 0.047810461
0.41035712 0.087868638 0.047804531
0.41038671 0.088841751 0.047798604
0.41041628 0.089814864 0.047792673
0.41044587 0.090787977 0.047786742
0.41047543 0.091761082 0.047780812
0.41050503 0.092734195 0.047774885
0.41053459 0.093707308 0.047768954
0.41056418 0.094680421 0.047763024
0.41059375 0.095653534 0.047757093
0.41062334 0.096626647 0.047751162
0.41065291 0.09759976 0.047745235
0.4106825 0.098572873 0.047739305
0.41071206 0.099545978 0.047733374
0.41074166 0.10051909 0.047727443
0.41077122 0.1014922 0.047721513
0.41080081 0.10246532 0.047715586
0.41083038 0.10343843 0.047709655
0.41085997 0.10441154 0.047703724
0.41088954 0.10538465 0.047697794
0.4109191 0.10635777 0.047691863
0.41094869 0.10733087 0.047685936
0.41097826 0.10830399 0.047680005
0.41010323 0.10942119 0.047204353
0.41013286 0.1103959 0.047198415
0.40925801 0.11151788 0.046722759
0.40928769 0.11249417 0.046716809
0.40841299 0.11362093 0.046241127
0.40844274 0.11459882 0.046235166
0.40756819 0.11573035 0.045759454
0.40759796 0.11670984 0.045753483
0.4067235 0.11784616 0.045277715
0.40217176 0.067102619 0.042947344
0.40220177 0.068090066 0.042941328
0.40223178 0.069077507 0.042935312
0.40226179 0.070064954 0.042929295
0.4022918 0.071052402 0.042923275
0.40232182 0.07203985 0.042917259
0.40325722 0.072943762 0.043381803
0.40419254 0.073844492 0.043846365
0.40422246 0.074828751 0.043840367
0.40515763 0.075724714 0.044304959
0.40609267 0.076617479 0.04476957
0.40702772 0.077507056 0.045234226
0.40796259 0.078393452 0.045698877
0.4079923 0.079371341 0.045692917
0.40892702 0.080252968 0.046157587
0.40895671 0.081229262 0.046151638
0.40989128 0.082106099 0.046616346
0.40992093 0.083080806 0.046610404
0.40995055 0.084055506 0.046604466
0.40998018 0.085030213 0.046598528
0.4100098 0.086004913 0.046592586
0.41094413 0.086872198 0.047057379
0.41097373 0.087845311 0.047051448
0.41100329 0.088818423 0.047045521
0.41103289 0.089791529 0.047039591
0.41106245 0.090764642 0.04703366
0.41109204 0.091737755 0.047027729
0.41112161 0.092710868 0.047021799
0.4111512 0.093683973 0.047015872
0.41118076 0.094657086 0.047009941
0.41121036 0.095630206 0.047004011
0.41123992 0.096603319 0.04699808
0.41126952 0.097576432 0.046992149
0.41129908 0.098549537 0.046986222
0.41132864 0.09952265 0.046980292
0.41135824 0.10049576 0.046974361
0.4113878 0.10146887 0.04696843
0.41141739 0.10244198 0.0469625
0.41144696 0.1034151 0.046956573
0.41147655 0.10438821 0.046950642
0.41150612 0.10536132 0.046944711
0.41063195 0.10647371 0.046467856
0.41066158 0.10744842 0.046461917
0.4106912 0.10842312 0.046455976
0.41072083 0.10939782 0.046450038
0.40984696 0.11051817 0.045973159
0.40987664 0.11149447 0.04596721
0.4090029 0.11261959 0.045490313
0.40812927 0.11374789 0.045013387
0.40815902 0.11472739 0.045007415
0.40728548 0.11586048 0.044530433
0.40731531 0.11684155 0.044524457
0.40644196 0.11797943 0.044047471
0.40367216 0.066019155 0.042660907
0.40279743 0.067078948 0.042183176
0.40282744 0.068066396 0.042177156
0.40285745 0.069053836 0.042171139
0.40379199 0.069962569 0.042636875
0.40382197 0.070948422 0.04263087
0.40385193 0.071934275 0.042624861
0.40478629 0.072836637 0.043090645
0.40481621 0.073820896 0.043084648
0.40575039 0.074718483 0.043550465
0.40578026 0.075701147 0.043544475
0.40671432 0.076593958 0.044010323
0.40764832 0.077483572 0.044476211
0.40858221 0.078370005 0.044942096
0.40861192 0.079347894 0.044936135
0.40954566 0.080229558 0.045402035
0.40957531 0.081205852 0.045396086
0.409605 0.082182154 0.045390137
0.41053852 0.083057433 0.045856088
0.41056815 0.084032141 0.04585015
0.41059777 0.085006848 0.045844208
0.41062739 0.085981548 0.04583827
0.41065702 0.086956248 0.045832332
0.41068664 0.087930962 0.04582639
0.41071627 0.088905662 0.045820452
0.41074592 0.08988037 0.04581451
0.41077554 0.090855077 0.045808572
0.41080517 0.091829777 0.045802634
0.41083479 0.092804477 0.045796692
0.41086441 0.093779184 0.045790754
0.41089404 0.094753891 0.045784812
0.41092366 0.095728599 0.045778874
0.41095328 0.096703298 0.045772936
0.41098291 0.097678006 0.045766994
0.41101253 0.098652706 0.045761056
0.41104218 0.099627413 0.045755114
0.41107181 0.10060211 0.045749176
0.41110143 0.10157682 0.045743238
0.41113105 0.10255152 0.045737296
0.41116068 0.10352623 0.045731358
0.4111903 0.10450093 0.045725416
0.41121992 0.10547564 0.045719478
0.41124955 0.10645034 0.04571354
0.41037655 0.10756587 0.045235455
0.41040623 0.10854217 0.045229506
0.41043589 0.10951847 0.045223556
0.40956306 0.11064036 0.044745449
0.40959278 0.11161826 0.044739489
0.40872011 0.11274494 0.044261336
0.40874988 0.11372441 0.044255368
0.4078773 0.11485588 0.043777164
0.40700489 0.11599053 0.043298963
0.40703475 0.1169732 0.043292977
0.40616247 0.11811262 0.042814746
0.40619239 0.11909688 0.042808749
0.40429682 0.065995522 0.041897967
0.40432677 0.066981375 0.041891959
0.40435675 0.067967229 0.041885953
0.4043867 0.068953082 0.041879945
0.40532017 0.069860257 0.042346936
0.40535009 0.070844516 0.042340938
0.40538001 0.071828783 0.04233494
0.40540993 0.072813042 0.042328943
0.40634319 0.073712252 0.042795971
0.40637305 0.074694924 0.042789981
0.40730613 0.075589359 0.04325705
0.40823919 0.076480605 0.043724164
0.40826896 0.077460088 0.043718196
0.40920183 0.078346558 0.044185311
0.40923154 0.079324447 0.044179354
0.40926126 0.080302343 0.044173393
0.41019392 0.081182443 0.044640549
0.4102236 0.082158744 0.044634599
0.41025329 0.083135039 0.04462865
0.41028294 0.08411134 0.044622701
0.41031262 0.085087635 0.044616751
0.41124499 0.085958175 0.045083955
0.41127461 0.086932883 0.045078013
0.41130427 0.08790759 0.045072075
0.41133389 0.088882297 0.045066137
0.41136351 0.089856997 0.045060195
0.41139314 0.090831704 0.045054257
0.41142276 0.091806404 0.045048315
0.41145238 0.092781112 0.045042377
0.41148201 0.093755811 0.045036439
0.41151163 0.094730519 0.045030497
0.41154125 0.095705226 0.045024559
0.41066873 0.096803203 0.04454536
0.41069838 0.097779498 0.044539411
0.41072807 0.098755792 0.044533461
0.41075775 0.099732094 0.044527512
0.41078743 0.10070839 0.044521563
0.41081709 0.10168468 0.044515613
0.41084677 0.10266098 0.044509664
0.41087645 0.10363728 0.044503715
0.41090611 0.10461357 0.044497766
0.41093579 0.10558987 0.044491816
0.41096547 0.10656617 0.044485867
0.41099516 0.10754246 0.044479918
0.41012323 0.10866114 0.044000581
0.41015297 0.10963903 0.043994624
0.41018268 0.11061692 0.043988664
0.40931097 0.11174197 0.04350929
0.40843931 0.11287022 0.043029871
0.40846914 0.11385129 0.043023892
0.40759766 0.1149843 0.042544469
0.40762752 0.11596697 0.042538483
0.40675619 0.11710475 0.042059042
0.40678611 0.11808902 0.042053044
0.40591493 0.11923158 0.041573562
0.40582415 0.065899618 0.041609224
0.40585408 0.066883877 0.041603222
0.405884 0.067868143 0.041597225
0.40591392 0.068852402 0.041591227
0.40594384 0.069836661 0.041585229
0.40597376 0.07082092 0.041579232
0.40600365 0.071805179 0.041573234
0.40693596 0.072706029 0.042041488
0.40696582 0.073688693 0.042035498
0.40699568 0.074671365 0.042029511
0.40792778 0.075565837 0.04249781
0.40885982 0.07645712 0.042966157
0.40888959 0.077436604 0.042960189
0.40891936 0.078416087 0.042954221
0.40985116 0.079301007 0.04342258
0.40988088 0.080278903 0.043416623
0.40991059 0.081256792 0.043410663
0.41084221 0.082135335 0.043879051
0.41087189 0.083111629 0.043873101
0.41090155 0.084087931 0.043867152
0.41093123 0.085064225 0.043861203
0.41096091 0.086040527 0.043855254
0.4109906 0.087016821 0.043849304
0.41102025 0.087993123 0.043843355
0.41104993 0.088969417 0.043837406
0.41107962 0.089945711 0.043831456
0.41110927 0.090922005 0.043825507
0.41113895 0.091898307 0.043819558
0.41116863 0.092874601 0.043813609
0.41119832 0.093850896 0.043807659
0.41122797 0.09482719 0.04380171
0.41125765 0.095803499 0.043795761
0.41128734 0.096779794 0.043789811
0.41131699 0.097756088 0.043783862
0.41134667 0.09873239 0.043777913
0.41137636 0.099708684 0.043771964
0.41140604 0.10068498 0.043766014
0.4105348 0.10179247 0.043285523
0.41056451 0.10277036 0.043279566
0.41059422 0.10374825 0.043273605
0.41062397 0.10472614 0.043267649
0.41065368 0.10570403 0.043261688
0.41068339 0.10668192 0.043255728
0.41071314 0.10765981 0.043249771
0.41074285 0.1086377 0.043243811
0.40987206 0.10975952 0.042763222
0.40990183 0.110739 0.042757254
0.40903112 0.11186562 0.04227661
0.40906093 0.11284669 0.042270631
0.40819043 0.11397807 0.041789986
0.40822029 0.11496074 0.041783996
0.40734991 0.11609691 0.041303333
0.40737984 0.11708116 0.041297335
0.40650964 0.1182221 0.040816631
0.40653959 0.11920795 0.040810622
0.40656957 0.1201938 0.040804617
0.40647775 0.066860281 0.040841509
0.40650767 0.06784454 0.040835511
0.40653756 0.068828806 0.040829513
0.40656748 0.069813065 0.040823516
0.40659741 0.070797324 0.040817518
0.40752873 0.071699798 0.041287001
0.40755859 0.07268247 0.041281015
0.40758845 0.073665135 0.041275028
0.40761831 0.074647799 0.041269038
0.4085494 0.075542316 0.041738562
0.40857923 0.076523393 0.041732583
0.40951023 0.077413119 0.042202175
0.40954 0.078392603 0.042196207
0.40956977 0.079372086 0.042190235
0.4105005 0.080255456 0.042659838
0.41053021 0.081233345 0.042653881
0.41055995 0.082211234 0.042647921
0.41058967 0.083189122 0.04264196
0.41061938 0.084167011 0.042636003
0.41064912 0.0851449 0.042630043
0.41067883 0.086122788 0.042624086
0.41070855 0.087100677 0.042618126
0.41163886 0.087969713 0.043087803
0.41166854 0.088946007 0.043081854
0.41079772 0.090034351 0.042600248
0.41082746 0.091012239 0.042594291
0.41085717 0.091990128 0.042588331
0.41088688 0.092968017 0.04258237
0.41091663 0.093945906 0.042576414
0.41094634 0.094923794 0.042570453
0.41097608 0.09590169 0.042564496
0.4110058 0.096879579 0.042558536
0.41103551 0.097857468 0.042552575
0.41106525 0.098835357 0.042546619
0.41109496 0.099813245 0.042540658
0.41112468 0.10079113 0.042534702
0.41115442 0.10176903 0.042528741
0.41118413 0.10274692 0.042522781
0.41031405 0.10385914 0.042041019
0.41034383 0.10483862 0.042035051
0.4103736 0.10581811 0.042029083
0.41040337 0.10679759 0.042023111
0.41043314 0.10777707 0.042017143
0.41046292 0.10875656 0.042011175
0.41049269 0.10973603 0.042005207
0.40962294 0.11086102 0.041523341
0.40965277 0.1118421 0.041517362
0.4087832 0.11297185 0.041035503
0.40881306 0.11395451 0.041029513
0.40794367 0.11508904 0.040547617
0.40797359 0.1160733 0.040541619
0.40710434 0.1172126 0.040059689
0.40713429 0.11819846 0.040053681
0.40716428 0.11918431 0.040047675
0.40719423 0.12017017 0.040041666
0.40710139 0.066836685 0.040079802
0.40713131 0.067820944 0.040073805
0.40716124 0.068805203 0.040067807
0.40719113 0.069789462 0.040061809
0.40722105 0.070773721 0.040055811
0.40815136 0.071676239 0.040526532
0.40818122 0.072658911 0.040520545
0.40821111 0.073641576 0.040514555
0.40824097 0.07462424 0.040508568
0.40917104 0.075518794 0.040979322
0.40920088 0.076499872 0.040973347
0.41013083 0.077389635 0.041444167
0.4101606 0.078369118 0.0414382
0.41019037 0.079348601 0.041432232
0.41022015 0.080328085 0.041426264
0.41114983 0.081209898 0.041897103
0.41117954 0.082187787 0.041891143
0.41120929 0.083165675 0.041885186
0.411239 0.084143564 0.041879226
0.41126874 0.085121453 0.041873265
0.41129845 0.086099342 0.041867308
0.41132817 0.08707723 0.041861348
0.41135791 0.088055126 0.041855391
0.41138762 0.089033015 0.041849431
0.41141734 0.090010904 0.04184347
0.41144708 0.090988792 0.041837513
0.41147679 0.091966681 0.041831553
0.4115065 0.09294457 0.041825596
0.41153625 0.093922459 0.041819636
0.41156596 0.094900347 0.041813675
0.41159567 0.095878243 0.041807719
0.41072628 0.09697929 0.041324794
0.41075605 0.097958766 0.041318826
0.41078582 0.098938249 0.041312858
0.4108156 0.099917732 0.041306891
0.41084537 0.10089722 0.041300919
0.41087514 0.1018767 0.041294951
0.41090491 0.10285618 0.041288983
0.41093469 0.10383566 0.041283015
0.41096446 0.10481514 0.041277044
0.4109942 0.10579462 0.041271076
0.41012529 0.1069132 0.040788013
0.41015512 0.10789427 0.040782038
0.41018492 0.10887535 0.040776059
0.41021475 0.10985643 0.04077008
0.4093461 0.11098295 0.040287007
0.40937597 0.11196562 0.04028102
0.40940583 0.11294829 0.04027503
0.40853739 0.11408118 0.039791908
0.40856731 0.11506545 0.03978591
0.40859723 0.11604971 0.039779913
0.40772897 0.11718897 0.039296761
0.40775895 0.11817482 0.039290756
0.4077889 0.11916067 0.039284747
0.40781888 0.12014653 0.039278738
0.40695086 0.12129376 0.038795531
0.40865454 0.067722008 0.039790001
0.40778488 0.068781607 0.039306097
0.40871426 0.069687344 0.039778024
0.40874416 0.070670009 0.039772037
0.40787461 0.071734391 0.039288104
0.40880388 0.072635345 0.039760061
0.40883374 0.073618017 0.039754074
0.4088636 0.074600682 0.039748084
0.4088935 0.075583354 0.039742097
0.40982249 0.07647635 0.040214103
0.40985233 0.077457421 0.040208124
0.40988213 0.078438498 0.040202145
0.41081101 0.079325117 0.040674213
0.41084078 0.0803046 0.040668245
0.41087055 0.081284083 0.040662277
0.41090032 0.082263567 0.04065631
0.4109301 0.08324305 0.040650342
0.41095987 0.084222533 0.04064437
0.41098964 0.085202016 0.040638402
0.41101941 0.086181492 0.040632434
0.41104919 0.087160975 0.040626466
0.41107896 0.088140465 0.040620498
0.41110873 0.089119941 0.040614527
0.4111385 0.090099424 0.040608559
0.41116828 0.091078907 0.040602591
0.41119805 0.09205839 0.040596623
0.41122782 0.093037874 0.040590655
0.41125759 0.094017357 0.040584683
0.41128737 0.09499684 0.040578716
0.41131714 0.095976323 0.040572748
0.41134691 0.096955806 0.04056678
0.41137668 0.097935289 0.040560808
0.41140646 0.098914765 0.04055484
0.41143623 0.099894248 0.040548872
0.410568 0.10100322 0.04006464
0.41059783 0.1019843 0.040058661
0.41062763 0.10296538 0.040052686
0.41065747 0.10394645 0.040046707
0.41068727 0.10492752 0.040040728
0.40981942 0.10604605 0.039556466
0.40984929 0.10702872 0.039550476
0.40987915 0.10801138 0.039544489
0.40990901 0.10899405 0.039538499
0.40993887 0.10997672 0.039532512
0.40996876 0.11095939 0.039526526
0.40999863 0.11194206 0.039520536
0.40913114 0.11307333 0.039036196
0.40916106 0.11405759 0.039030198
0.40919098 0.11504184 0.0390242
0.40832368 0.11617948 0.038539819
0.40835366 0.11716533 0.038533814
0.40838361 0.11815119 0.038527805
0.40841359 0.11913703 0.038521796
0.40754652 0.12028264 0.038037375
0.40757653 0.12127008 0.038031358
0.4083786 0.067773752 0.038550392
0.40840852 0.068758011 0.038544394
0.40843844 0.06974227 0.038538396
0.40846837 0.070726529 0.038532399
0.40849829 0.071710788 0.038526397
0.40852821 0.072695047 0.038520399
0.4094564 0.073594451 0.038993601
0.40948626 0.074577123 0.038987614
0.40951613 0.075559795 0.038981624
0.40954599 0.076542459 0.038975637
0.41047394 0.077433899 0.039448883
0.41050377 0.078414977 0.039442908
0.41053358 0.079396047 0.039436929
0.41056341 0.080377132 0.03943095
0.41149119 0.081260599 0.039904274
0.41152096 0.082240082 0.039898302
0.41155073 0.083219565 0.039892334
0.4115805 0.084199049 0.039886367
0.41161025 0.085178532 0.039880399
0.41164002 0.086158015 0.039874431
0.41166979 0.087137491 0.039868459
0.41169956 0.088116981 0.039862491
0.41172934 0.089096464 0.039856523
0.41086161 0.090187877 0.039371166
0.41089144 0.091168955 0.039365187
0.41092125 0.092150025 0.039359208
0.41095108 0.093131103 0.039353229
0.41098088 0.094112173 0.039347254
0.41101071 0.09509325 0.039341275
0.41104054 0.096074328 0.039335296
0.41107035 0.097055405 0.039329316
0.41110018 0.098036483 0.039323337
0.41112998 0.09901756 0.039317358
0.41026285 0.10012648 0.038831923
0.41029271 0.10110915 0.038825933
0.41032258 0.10209182 0.038819946
0.41035244 0.10307448 0.038813956
0.4103823 0.10405716 0.03880797
0.41041219 0.10503982 0.038801983
0.41044205 0.10602249 0.038795993
0.41047192 0.10700516 0.038790006
0.41050178 0.10798782 0.038784016
0.40963513 0.10911269 0.038298484
0.40966505 0.11009694 0.038292482
0.40969497 0.11108121 0.038286485
0.40972486 0.11206546 0.038280487
0.40975478 0.11304973 0.038274489
0.4097847 0.11403399 0.038268492
0.40891838 0.11516999 0.037782889
0.40894833 0.11615585 0.037776884
0.40897831 0.11714169 0.037770875
0.40900826 0.11812755 0.037764866
0.40814218 0.11927152 0.037279215
0.40817219 0.12025896 0.037273198
0.40820223 0.12124641 0.037267182
0.40733626 0.12239676 0.036781464
0.40813467 0.068811268 0.0373023
0.40816465 0.069797114 0.037296291
0.40909201 0.070702933 0.037770685
0.40912193 0.071687192 0.037764687
0.40915185 0.072671451 0.037758689
0.40918177 0.07365571 0.037752692
0.4092117 0.074639969 0.037746694
0.40924159 0.075624235 0.037740696
0.41016865 0.076518901 0.038215153
0.41019851 0.077501565 0.038209166
0.41022837 0.07848423 0.038203176
0.41025826 0.079466902 0.03819719
0.41118506 0.08035361 0.038671698
0.41121486 0.08133468 0.038665723
0.41124469 0.082315758 0.038659744
0.41127452 0.083296828 0.038653765
0.41130432 0.084277906 0.038647786
0.41133416 0.085258983 0.038641807
0.41136396 0.086240053 0.038635831
0.41139379 0.087221131 0.038629852
0.41142359 0.088202208 0.038623873
0.41055694 0.089293584 0.038137309
0.4105868 0.090276249 0.038131319
0.41061667 0.091258913 0.038125332
0.41064653 0.092241585 0.038119342
0.41067642 0.09322425 0.038113356
0.41070628 0.094206914 0.038107369
0.41073614 0.095189586 0.038101379
0.41076601 0.096172258 0.038095392
0.4107959 0.097154923 0.038089402
0.41082576 0.098137587 0.038083415
0.41085562 0.099120252 0.038077429
0.41088548 0.10010292 0.038071439
0.41091534 0.1010856 0.038065452
0.41004935 0.10219926 0.037578758
0.41007927 0.10318352 0.03757276
0.41010919 0.10416779 0.037566762
0.41013911 0.10515204 0.037560761
0.41016904 0.10613631 0.037554763
0.41019896 0.10712057 0.037548766
0.41022885 0.10810483 0.037542768
0.41025877 0.10908909 0.03753677
0.41028869 0.11007334 0.037530772
0.41031861 0.11105761 0.037524775
0.41034853 0.11204187 0.037518777
0.41037846 0.11302613 0.037512779
0.40951309 0.1141605 0.037025955
0.40954304 0.11514635 0.037019946
0.40957302 0.11613221 0.037013937
0.40960297 0.11711806 0.037007932
0.40873784 0.1182604 0.036521055
0.40876785 0.11924784 0.036515038
0.40879789 0.12023529 0.036509022
0.4088279 0.12122273 0.036503006
0.40796295 0.12237304 0.036016054
0.40799302 0.12336208 0.036010027
0.4078328 0.067877002 0.036063768
0.40786281 0.068864442 0.036057752
0.40789285 0.06985189 0.036051735
0.40881926 0.070759334 0.036527347
0.40884924 0.071745187 0.036521338
0.40887919 0.07273104 0.036515333
0.40890917 0.073716894 0.036509324
0.40983534 0.074616373 0.036984991
0.40986526 0.075600639 0.036978994
0.40989515 0.076584898 0.036972996
0.40992507 0.077569157 0.036966998
0.41085103 0.078460671 0.037442707
0.41088089 0.079443343 0.037436716
0.41091076 0.080426015 0.03743073
0.41094062 0.081408679 0.037424743
0.41097051 0.082391344 0.037418753
0.41100037 0.083374016 0.037412766
0.41103023 0.084356681 0.037406776
0.41106009 0.085339345 0.03740079
0.41108996 0.086322017 0.037394803
0.41111985 0.087304682 0.037388813
0.41114971 0.088287354 0.037382826
0.41117957 0.089270018 0.037376836
0.41120943 0.09025269 0.037370849
0.41123933 0.091235355 0.037364859
0.41126919 0.092218027 0.037358873
0.41129905 0.093200691 0.037352886
0.41132891 0.094183356 0.037346896
0.4104636 0.09528584 0.036859035
0.41049349 0.096270107 0.036853038
0.41052341 0.097254366 0.03684704
0.41055334 0.098238625 0.036841042
0.41058326 0.099222884 0.036835045
0.41061318 0.10020715 0.036829047
0.4106431 0.1011914 0.036823049
0.41067299 0.10217567 0.036817051
0.41070291 0.10315993 0.036811054
0.41073284 0.10414419 0.036805056
0.41076276 0.10512844 0.036799058
0.41079268 0.10611271 0.036793061
0.4108226 0.10709696 0.036787063
0.41085252 0.10808123 0.036781065
0.4099879 0.1092076 0.036293052
0.41001788 0.11019345 0.036287047
0.41004783 0.11117931 0.036281038
0.41007781 0.11216516 0.036275029
0.41010776 0.11315101 0.036269024
0.41013774 0.11413686 0.036263015
0.41016769 0.11512272 0.03625701
0.41019768 0.11610857 0.036251001
0.4093335 0.11724928 0.035762906
0.40936351 0.11823673 0.03575689
0.40939352 0.11922417 0.035750873
0.40852949 0.12037126 0.035262708
0.40855956 0.12136029 0.035256684
0.40858963 0.12234933 0.035250656
0.40772584 0.12350278 0.034762479
0.40666735 0.068003699 0.034333892
0.40759295 0.06891755 0.0348107
0.40762302 0.069906585 0.034804672
0.40854853 0.07081566 0.035281539
0.40857854 0.071803108 0.035275523
0.40950385 0.072707407 0.035752386
0.40953383 0.073693253 0.035746381
0.40956378 0.074679106 0.035740372
0.40959376 0.07566496 0.035734367
0.41051883 0.076561294 0.036211286
0.41054875 0.077545553 0.036205288
0.41057867 0.07852982 0.03619929
0.41060856 0.079514079 0.036193289
0.41063848 0.080498345 0.036187291
0.41156328 0.081385121 0.036664266
0.41159314 0.082367785 0.036658276
0.411623 0.083350457 0.036652289
0.41165286 0.084333122 0.036646299
0.41168275 0.085315786 0.036640313
0.41171262 0.086298458 0.036634322
0.4108479 0.087388158 0.036145307
0.41087782 0.088372424 0.036139309
0.41090775 0.089356683 0.036133312
0.41093767 0.090340942 0.036127314
0.41096759 0.091325201 0.036121316
0.41099748 0.09230946 0.036115319
0.4110274 0.093293726 0.036109321
0.41105732 0.094277985 0.036103323
0.41108724 0.095262244 0.036097325
0.41111717 0.096246511 0.036091328
0.41114709 0.09723077 0.03608533
0.41117698 0.098215029 0.036079332
0.4112069 0.099199288 0.036073335
0.41034287 0.10031129 0.035584178
0.41037285 0.10129714 0.035578169
0.4104028 0.10228299 0.035572164
0.41043279 0.10326885 0.035566155
0.41046274 0.1042547 0.035560146
0.41049272 0.10524055 0.035554141
0.41052267 0.10622641 0.035548132
0.41055265 0.10721226 0.035542123
0.4105826 0.10819811 0.035536118
0.41061258 0.10918397 0.035530109
0.41064253 0.11016981 0.0355241
0.41067252 0.11115567 0.035518095
0.41070247 0.11214153 0.035512086
0.41073245 0.11312737 0.035506081
0.4107624 0.11411323 0.035500072
0.40989915 0.11525071 0.035010766
0.40992916 0.11623816 0.035004746
0.40995917 0.11722561 0.03499873
0.40998918 0.11821305 0.034992713
0.40912613 0.1193585 0.034503326
0.40915617 0.12034754 0.034497298
0.40918624 0.12133659 0.034491271
0.40832344 0.1224884 0.034001879
0.40835354 0.12347902 0.033995841
0.40749088 0.12463563 0.033506412
0.40547577 0.067136422 0.032605171
0.4064005 0.068055093 0.033083182
0.40732515 0.068970576 0.033561211
0.40735525 0.069961205 0.033555176
0.40827978 0.070871912 0.034033235
0.40920421 0.071779437 0.034511346
0.40923423 0.072766878 0.03450533
0.40926424 0.073754326 0.03449931
0.41018847 0.074655473 0.034977429
0.41021842 0.075641327 0.03497142
0.41024837 0.07662718 0.034965415
0.41027835 0.077613033 0.034959406
0.4103083 0.078598887 0.034953397
0.41123223 0.079490483 0.035431575
0.41126215 0.080474742 0.035425577
0.41129208 0.081459001 0.03541958
0.41132197 0.08244326 0.035413582
0.41135189 0.083427526 0.035407584
0.41138181 0.084411785 0.035401586
0.41141173 0.085396044 0.035395589
0.41144165 0.086380303 0.035389591
0.41147158 0.087364562 0.035383593
0.4115015 0.088348828 0.035377596
0.41063794 0.089443274 0.034887318
0.4106679 0.09042912 0.034881309
0.41069788 0.091414973 0.0348753
0.41072783 0.092400827 0.034869295
0.41075778 0.09338668 0.034863286
0.41078776 0.094372533 0.034857277
0.41081771 0.095358387 0.034851272
0.41084769 0.09634424 0.034845263
0.41087765 0.097330093 0.034839258
0.41090763 0.098315947 0.034833249
0.41093758 0.0993018 0.03482724
0.41096756 0.10028765 0.034821235
0.41099751 0.10127351 0.034815226
0.41102749 0.10225935 0.034809217
0.41105744 0.10324521 0.034803212
0.41108742 0.10423107 0.034797203
0.41111737 0.10521692 0.034791194
0.41114736 0.10620277 0.034785189
0.41117731 0.10718862 0.03477918
0.41120729 0.10817448 0.034773175
0.41123724 0.10916033 0.034767166
0.41126719 0.11014618 0.034761157
0.41040477 0.11127725 0.034270655
0.41043478 0.11226471 0.034264639
0.41046479 0.11325215 0.034258623
0.4104948 0.11423959 0.034252606
0.41052482 0.11522704 0.034246586
0.41055483 0.11621449 0.03424057
0.41058484 0.11720193 0.034234554
0.40972275 0.11834576 0.03374394
0.40975282 0.11933479 0.033737916
0.4088909 0.12048339 0.033247307
0.408921 0.12147401 0.033241272
0.40805924 0.12262739 0.032750633
0.4080894 0.12361961 0.032744586
0.40722778 0.12477776 0.032253921
0.40247032 0.065406285 0.029907063
0.40428796 0.066262625 0.030871535
0.4052119 0.06718611 0.031350777
0.40524217 0.068181515 0.031344712
0.40705937 0.069023527 0.032309264
0.40798295 0.069937453 0.032788545
0.40801305 0.070928082 0.032782506
0.4089365 0.071837239 0.033261809
0.40896657 0.072826281 0.033255782
0.40988991 0.073730648 0.033735141
0.40991992 0.074718095 0.033729121
0.40994993 0.075705543 0.033723105
0.40997994 0.076692984 0.033717088
0.41090301 0.077589393 0.03419647
0.41093296 0.078575246 0.034190461
0.41096294 0.079561099 0.034184452
0.41099289 0.08054696 0.034178447
0.41102287 0.081532814 0.034172438
0.41105282 0.082518667 0.034166429
0.4110828 0.08350452 0.034160424
0.41111276 0.084490366 0.034154415
0.41114274 0.08547622 0.034148406
0.41117269 0.086462073 0.034142401
0.41120267 0.087447926 0.034136392
0.41123262 0.08843378 0.034130387
0.4112626 0.089419633 0.034124378
0.41129255 0.090405487 0.034118369
0.41132253 0.09139134 0.034112364
0.41135249 0.092377193 0.034106355
0.41138247 0.093363047 0.034100346
0.41141242 0.094348893 0.034094341
0.41055021 0.095454454 0.033602759
0.41058022 0.096441902 0.033596743
0.41061023 0.09742935 0.033590727
0.41064027 0.09841679 0.03358471
0.41067028 0.099404238 0.03357869
0.41070029 0.10039168 0.033572674
0.4107303 0.10137912 0.033566657
0.41076031 0.10236657 0.033560641
0.41079032 0.10335401 0.033554625
0.41082034 0.10434146 0.033548605
0.41085035 0.10532891 0.033542588
0.41088036 0.10631636 0.033536572
0.41091037 0.1073038 0.033530556
0.41094041 0.10829125 0.033524536
0.41097042 0.10927869 0.033518519
0.41100043 0.11026613 0.033512503
0.41103044 0.11125358 0.033506487
0.41106045 0.11224103 0.033500466
0.41109046 0.11322847 0.03349445
0.41112047 0.11421592 0.033488434
0.41115049 0.11520337 0.033482417
0.41028929 0.11634397 0.032990597
0.41031936 0.117333 0.03298457
0.41034943 0.11832205 0.032978542
0.40948847 0.119469 0.032486711
0.4095186 0.12045964 0.032480676
0.40865779 0.12161137 0.031988807
0.40868795 0.1226036 0.031982761
0.40782729 0.12376011 0.031490874
0.40696675 0.12491982 0.030998962
0.40610623 0.12608273 0.030507008
0.4043552 0.12741788 0.02952918
0.40128821 0.064519525 0.028166104
0.40310407 0.065382302 0.029133029
0.40402707 0.066310607 0.029613448
0.40494999 0.067235723 0.030093888
0.40587288 0.068157651 0.030574372
0.40679559 0.069076404 0.031054849
0.40771821 0.069991961 0.031535346
0.40864074 0.070904337 0.032015864
0.40867087 0.071894966 0.032009825
0.40959325 0.072802566 0.032490373
0.4096233 0.073791601 0.032484345
0.40965337 0.074780643 0.032478318
0.41057563 0.075681865 0.032958928
0.41060564 0.076669313 0.032952912
0.41063565 0.077656761 0.032946892
0.41066566 0.078644201 0.032940876
0.41069567 0.079631649 0.032934859
0.41072568 0.080619097 0.032928843
0.41164753 0.081509173 0.033409495
0.4107857 0.082593985 0.032916807
0.41081572 0.083581433 0.03291079
0.41084573 0.084568873 0.032904774
0.41087574 0.085556321 0.032898758
0.41090578 0.086543769 0.032892738
0.41093579 0.087531209 0.032886721
0.4109658 0.088518664 0.032880705
0.41099581 0.089506105 0.032874689
0.41102582 0.090493552 0.032868668
0.41105583 0.091481 0.032862652
0.41108584 0.092468441 0.032856636
0.41111585 0.093455888 0.032850619
0.41114587 0.094443329 0.032844599
0.41117588 0.095430776 0.032838583
0.41120592 0.096418224 0.032832567
0.41123593 0.097405672 0.03282655
0.41126594 0.098393112 0.03282053
0.41129595 0.09938056 0.032814514
0.41132596 0.10036801 0.032808498
0.41135597 0.10135545 0.032802481
0.41138598 0.1023429 0.032796465
0.41141599 0.10333034 0.032790445
0.41144601 0.10431779 0.032784428
0.41147602 0.10530523 0.032778412
0.41150603 0.10629269 0.032772396
0.41153607 0.10728013 0.032766376
0.41156608 0.10826757 0.032760359
0.41159609 0.10925502 0.032754343
0.4116261 0.11024246 0.032748327
0.41165611 0.1112299 0.032742307
0.41079572 0.11236411 0.032249294
0.41082579 0.11335314 0.032243267
0.41085586 0.11434218 0.032237239
0.41088593 0.11533122 0.032231215
0.41091597 0.11632026 0.032225188
0.41005594 0.11746399 0.031732142
0.41008607 0.11845463 0.031726103
0.41011617 0.11944525 0.031720068
0.40925634 0.12059537 0.031226983
0.4092865 0.12158759 0.031220937
0.40842679 0.12274247 0.030727822
0.4075672 0.12390055 0.030234691
0.40670764 0.12506182 0.029741511
0.40584823 0.12622626 0.02924834
0.40498894 0.12739389 0.028755149
0.40324008 0.12873535 0.02777479
0.402381 0.12991093 0.027281551
0.40152204 0.13108972 0.026788291
0.40155265 0.13209626 0.026782157
0.40100172 0.06355916 0.026908007
0.40192395 0.064495467 0.02738961
0.40284616 0.065428577 0.02787126
0.40376821 0.066358514 0.028352903
0.40469018 0.067285262 0.028834565
0.40561202 0.068208829 0.029316247
0.40653384 0.069129199 0.029797975
0.4074555 0.070046388 0.030279694
0.40837708 0.070960395 0.030761434
0.40929854 0.071871221 0.031243194
0.40932867 0.07286185 0.031237157
0.40935877 0.073852479 0.03123112
0.41028005 0.074756928 0.031712912
0.41031012 0.07574597 0.031706885
0.41034016 0.076735005 0.031700861
0.41037023 0.077724047 0.031694833
0.4104003 0.078713082 0.031688806
0.41132134 0.079607971 0.032170694
0.41135135 0.080595426 0.032164678
0.41138136 0.081582867 0.032158658
0.41141137 0.082570314 0.032152642
0.41144139 0.083557762 0.032146625
0.4114714 0.084545203 0.032140609
0.41150141 0.08553265 0.032134589
0.41153142 0.086520091 0.032128572
0.41156143 0.087507538 0.032122556
0.41159147 0.088494986 0.03211654
0.41162148 0.089482434 0.03211052
0.41076103 0.090581551 0.031616483
0.4107911 0.091570586 0.031610455
0.41082117 0.092559621 0.031604428
0.41085124 0.093548663 0.0315984
0.41088128 0.094537698 0.031592373
0.41091135 0.095526733 0.031586349
0.41094142 0.096515775 0.031580321
0.41097149 0.097504817 0.031574294
0.41100153 0.098493852 0.031568266
0.4110316 0.099482886 0.031562239
0.41106167 0.10047193 0.031556211
0.41109172 0.10146097 0.031550188
0.41112179 0.10245001 0.03154416
0.41115186 0.10343904 0.031538133
0.41118193 0.10442808 0.031532105
0.41121197 0.10541712 0.031526078
0.41124204 0.10640616 0.03152005
0.41127211 0.1073952 0.031514022
0.41130215 0.10838424 0.031507999
0.41133222 0.10937327 0.031501971
0.41136229 0.11036231 0.031495944
0.41139236 0.11135135 0.031489916
0.4114224 0.11234039 0.031483889
0.41145247 0.11332943 0.031477861
0.41148254 0.11431847 0.031471837
0.4106234 0.11545898 0.030977583
0.41065353 0.11644962 0.030971546
0.41068363 0.11744024 0.030965509
0.41071373 0.11843088 0.030959472
0.40985486 0.11957935 0.030465163
0.40988502 0.12057158 0.030459117
0.40991518 0.1215638 0.030453071
0.40816766 0.12288128 0.029470423
0.40819791 0.12387668 0.029464358
0.40733936 0.12503792 0.028969945
0.40648097 0.12620233 0.028475542
0.40473405 0.1275389 0.027492777
0.40387583 0.1287113 0.026998296
0.40301779 0.12988684 0.026503824
0.40215981 0.13106558 0.026009331
0.40130195 0.13224751 0.025514819
0.40133262 0.13325566 0.025508676
0.40071717 0.062595539 0.025647456
0.40163851 0.063535064 0.026130274
0.40255973 0.064471409 0.026613105
0.40348092 0.065404564 0.027095988
0.40440196 0.066334531 0.027578864
0.40532291 0.067261316 0.028061761
0.40624377 0.06818492 0.028544676
0.40716457 0.069105335 0.029027637
0.40719482 0.07010074 0.02902157
0.40811542 0.071016379 0.029504528
0.40903595 0.071928829 0.02998751
0.40995634 0.072838098 0.030470513
0.40998647 0.073828727 0.030464476
0.41001657 0.074819356 0.030458441
0.4100467 0.075809993 0.030452404
0.41096684 0.076711297 0.030935455
0.41099691 0.077700332 0.030929428
0.41102698 0.078689374 0.0309234
0.41105703 0.079678409 0.030917374
0.4110871 0.080667451 0.030911347
0.41111717 0.081656486 0.030905319
0.41114724 0.082645528 0.030899294
0.41117728 0.083634563 0.030893266
0.41120735 0.084623605 0.030887239
0.41123742 0.08561264 0.030881211
0.41126746 0.086601675 0.030875186
0.41129753 0.087590717 0.030869158
0.4113276 0.088579759 0.03086313
0.41135767 0.089568794 0.030857105
0.41138771 0.090557836 0.030851077
0.41141778 0.091546871 0.03084505
0.41144785 0.092535906 0.030839024
0.41147792 0.093524948 0.030832997
0.41150796 0.094513983 0.030826969
0.41153803 0.095503025 0.030820943
0.41156811 0.096492067 0.030814916
0.41159815 0.097481102 0.030808888
0.41162822 0.098470144 0.030802863
0.41165829 0.099459171 0.030796835
0.41168836 0.10044822 0.030790808
0.4117184 0.10143726 0.030784782
0.41174847 0.10242629 0.030778755
0.41177854 0.10341533 0.030772727
0.41180858 0.10440437 0.030766699
0.41183865 0.10539341 0.030760674
0.41186872 0.10638244 0.030754646
0.41189879 0.10737149 0.030748619
0.41192883 0.10836053 0.030742593
0.4119589 0.10934956 0.030736566
0.41110057 0.11048207 0.030241121
0.41113067 0.1114727 0.030235086
0.41116077 0.11246334 0.030229049
0.4111909 0.11345397 0.030223012
0.411221 0.1144446 0.030216975
0.4112511 0.11543523 0.030210938
0.41128123 0.11642587 0.030204901
0.41042325 0.11757112 0.02970938
0.41045341 0.11856335 0.029703334
0.41048357 0.11955556 0.029697286
0.4096258 0.1207072 0.029201725
0.40876812 0.121862 0.028706152
0.40879837 0.12285741 0.028700085
0.4079408 0.12401701 0.02820445
0.40708336 0.12517978 0.027708821
0.40711373 0.12617838 0.027702736
0.4053688 0.12751488 0.026717506
0.4045116 0.12868723 0.026221791
0.40365455 0.12986274 0.025726091
0.40279761 0.13104145 0.025230365
0.40282819 0.132048 0.025224231
0.4019714 0.13323149 0.024728477
0.4011147 0.13441816 0.024232702
0.40135494 0.062571406 0.024868496
0.40227526 0.063510969 0.025352541
0.4031955 0.064447351 0.025836613
0.40322599 0.065450728 0.025830498
0.4050357 0.066310555 0.026804838
0.4050661 0.067310736 0.026798744
0.40598601 0.068235971 0.027282877
0.4069058 0.069158018 0.027767034
0.40782553 0.070076875 0.028251238
0.40874514 0.070992552 0.028735429
0.40966463 0.071905039 0.029219646
0.40969479 0.072897263 0.0292136
0.41061416 0.073804975 0.029697839
0.41064426 0.074795604 0.029691802
0.41067436 0.07578624 0.029685766
0.41070449 0.07677687 0.029679729
0.41073459 0.077767499 0.029673692
0.41076469 0.078758128 0.029667655
0.41079482 0.079748765 0.029661618
0.41082492 0.080739401 0.029655583
0.41085503 0.08173003 0.029649546
0.41088516 0.08272066 0.02964351
0.41091526 0.083711289 0.029637473
0.41094536 0.084701918 0.029631436
0.41097549 0.085692547 0.029625399
0.41100559 0.086683176 0.029619362
0.41103569 0.087673813 0.029613325
0.41106582 0.08866445 0.029607289
0.41109592 0.089655079 0.029601252
0.41112602 0.090645708 0.029595217
0.41115615 0.091636337 0.02958918
0.41118625 0.092626967 0.029583143
0.41121635 0.093617596 0.029577106
0.41124648 0.094608232 0.029571069
0.41127658 0.095598862 0.029565033
0.41130668 0.096589491 0.029558996
0.41133681 0.09758012 0.029552959
0.41136691 0.098570757 0.029546922
0.41139704 0.099561386 0.029540887
0.41142714 0.10055202 0.02953485
0.41145724 0.10154264 0.029528813
0.41148737 0.10253327 0.029522777
0.41151747 0.1035239 0.02951674
0.41154757 0.10451454 0.029510703
0.4115777 0.10550517 0.029504666
0.4116078 0.10649581 0.029498629
0.4116379 0.10748643 0.029492592
0.41166803 0.10847706 0.029486557
0.41169813 0.10946769 0.029480521
0.41172823 0.11045832 0.029474484
0.41175836 0.11144895 0.029468447
0.41178846 0.11243959 0.02946241
0.41093132 0.11357844 0.028965699
0.41096148 0.11457065 0.028959652
0.41099164 0.11556289 0.028953606
0.4110218 0.11655511 0.02894756
0.41105196 0.11754733 0.028941514
0.41108212 0.11853956 0.028935468
0.4102253 0.11968955 0.028438684
0.40936857 0.12084273 0.027941884
0.40939882 0.12183814 0.02793582
0.40854222 0.12299611 0.027438959
0.40768576 0.12415725 0.026942108
0.4077161 0.12515585 0.026936023
0.40685976 0.12632176 0.026439147
0.40511686 0.1276598 0.025451414
0.40514734 0.12866318 0.025445299
0.40429133 0.12983866 0.024948359
0.40343538 0.13101731 0.024451407
0.40346599 0.13202387 0.024445273
0.40261018 0.13320732 0.023948284
0.40264082 0.13421547 0.023942141
0.40196213 0.061540715 0.02409566
0.4028815 0.062481914 0.024580933
0.40291205 0.063486874 0.024574811
0.40383127 0.0644233 0.025060108
0.40475044 0.065356523 0.025545457
0.40478089 0.066358306 0.025539353
0.40569985 0.06728676 0.026024707
0.40661874 0.068212032 0.026510073
0.40753752 0.069134116 0.026995463
0.40845627 0.070053011 0.0274809
0.40848652 0.071048416 0.027474834
0.40940505 0.071962543 0.027960269
0.4103235 0.072873473 0.028445723
0.41035366 0.073865697 0.028439676
0.41038382 0.07485792 0.02843363
0.41041398 0.075850144 0.028427582
0.41133216 0.076753117 0.02891309
0.41136229 0.077743754 0.028907055
0.41139239 0.078734383 0.028901018
0.41142249 0.079725012 0.028894981
0.41145262 0.080715649 0.028888945
0.41148272 0.081706278 0.028882908
0.41151282 0.082696907 0.028876871
0.41154295 0.083687536 0.028870834
0.41157305 0.084678166 0.028864797
0.41160315 0.085668802 0.02885876
0.41163328 0.086659431 0.028852725
0.41166338 0.087650061 0.028846689
0.41080603 0.088749059 0.02834898
0.41083619 0.089741282 0.028342934
0.41086635 0.090733506 0.028336888
0.41089651 0.091725729 0.028330842
0.41092667 0.092717946 0.028324796
0.41095683 0.093710169 0.02831875
0.41098699 0.094702393 0.028312704
0.41101715 0.095694616 0.028306656
0.41104731 0.096686848 0.028300609
0.41107747 0.097679071 0.028294563
0.41110763 0.098671295 0.028288517
0.41113779 0.099663518 0.028282471
0.41116795 0.10065574 0.028276425
0.41119811 0.10164797 0.028270379
0.41122827 0.10264019 0.028264333
0.41125843 0.10363241 0.028258286
0.41128859 0.10462464 0.028252238
0.41131875 0.10561686 0.028246192
0.41134891 0.10660908 0.028240146
0.41137907 0.10760131 0.0282341
0.41140923 0.10859353 0.028228054
0.41143939 0.10958575 0.028222008
0.41146955 0.11057798 0.028215962
0.41149971 0.1115702 0.028209915
0.41152987 0.11256243 0.028203869
0.41156003 0.11355465 0.028197823
0.41159016 0.11454687 0.028191775
0.41073418 0.11569045 0.027693802
0.4107644 0.11668428 0.027687747
0.41079459 0.11767809 0.02768169
0.41082481 0.11867191 0.027675634
0.40996903 0.11982345 0.027177613
0.40999931 0.12081887 0.027171547
0.40914363 0.12197521 0.026673464
0.40917394 0.12297221 0.026667388
0.40831849 0.1241333 0.026169304
0.4074631 0.12529761 0.025671205
0.4074935 0.12629779 0.025665108
0.40575263 0.12763575 0.024674909
0.40489754 0.1288096 0.024176752
0.40492809 0.12981457 0.024170628
0.40407318 0.13099319 0.023672435
0.40410376 0.13199975 0.023666302
0.40413436 0.1330063 0.023660168
0.40327963 0.1341913 0.023161942
0.40242496 0.13537948 0.022663698
0.40256932 0.060510028 0.023322828
0.40348771 0.061452854 0.023809319
0.40351826 0.062457819 0.023803197
0.40443653 0.063395865 0.024289723
0.40446702 0.064399242 0.02428361
0.4053852 0.06533251 0.024770193
0.4063032 0.066262595 0.025256762
0.4063336 0.067262776 0.025250668
0.40725148 0.068188086 0.025737267
0.40816924 0.069110215 0.026223887
0.40908697 0.070029147 0.026710557
0.40911722 0.071024552 0.02670449
0.41003475 0.071938716 0.027191164
0.41006497 0.072932526 0.027185109
0.41009519 0.073926345 0.027179051
0.4110125 0.074834138 0.027665759
0.41104266 0.075826362 0.027659712
0.41107282 0.076818585 0.027653666
0.41110298 0.077810809 0.027647618
0.41113314 0.078803033 0.027641572
0.4111633 0.079795249 0.027635526
0.41119346 0.08078748 0.02762948
0.41122362 0.081779703 0.027623434
0.41125378 0.082771927 0.027617387
0.41128394 0.083764151 0.027611341
0.4113141 0.084756374 0.027605295
0.41134426 0.085748598 0.027599249
0.41137442 0.086740814 0.027593203
0.41140458 0.087733038 0.027587155
0.41143474 0.088725269 0.027581109
0.4114649 0.089717492 0.027575063
0.41149506 0.090709716 0.027569016
0.41152522 0.09170194 0.02756297
0.41155538 0.092694163 0.027556924
0.41158554 0.093686387 0.027550878
0.4116157 0.094678611 0.027544832
0.41164586 0.095670834 0.027538786
0.41167602 0.096663058 0.02753274
0.41170618 0.097655281 0.027526692
0.41173634 0.098647505 0.027520645
0.4117665 0.099639729 0.027514599
0.41179666 0.10063195 0.027508553
0.41182682 0.10162418 0.027502507
0.41185695 0.1026164 0.027496461
0.41188711 0.10360862 0.027490415
0.41191727 0.10460085 0.027484369
0.41194743 0.10559307 0.027478322
0.41197759 0.10658529 0.027472274
0.41200775 0.10757752 0.027466228
0.41203791 0.10856974 0.027460182
0.41118264 0.10970373 0.026961034
0.41121286 0.11069755 0.026954979
0.41124305 0.11169136 0.026948921
0.41127327 0.11268518 0.026942866
0.41130346 0.113679 0.02693681
0.41044849 0.11482254 0.026437597
0.41047874 0.11581796 0.026431533
0.41050899 0.11681337 0.026425466
0.41053927 0.11780877 0.026419401
