# .PCD v0.7 - Point Cloud Data file format
VERSION 0.7
FIELDS x y z
SIZE 4 4 4
TYPE F F F
COUNT 1 1 1
WIDTH 1411
HEIGHT 1
VIEWPOINT 0 0 0 1 0 0 0
POINTS 1411
DATA ascii
0.51041293 0.11365456 0.04328246
0.51043892 0.11450981 0.043277249
0.51046491 0.11536507 0.043272037
0.51049089 0.11622033 0.043266825
0.51051688 0.11707558 0.043261614
0.51054287 0.11793084 0.043256402
0.51056886 0.11878609 0.04325119
0.51059484 0.11964135 0.043245979
0.51062089 0.1204966 0.043240767
0.51064688 0.12135185 0.043235555
0.50982916 0.12239514 0.042687614
0.50985521 0.123252 0.042682391
0.50988126 0.12410884 0.042677172
0.50990731 0.12496568 0.042671949
0.50993335 0.12582253 0.04266673
0.5099594 0.12667938 0.042661507
0.50998545 0.12753624 0.042656284
0.50916821 0.12859224 0.042108297
0.50919431 0.12945069 0.042103067
0.50922042 0.13030913 0.042097837
0.50924653 0.13116756 0.042092606
0.50927258 0.13202602 0.042087376
0.50929868 0.13288446 0.042082142
0.5084818 0.13395162 0.041534089
0.50850791 0.13481165 0.041528847
0.50853407 0.13567168 0.041523609
0.50856024 0.13653173 0.041518368
0.50858635 0.13739176 0.041513126
0.50861251 0.13825178 0.041507885
0.50863862 0.13911182 0.041502643
0.50866479 0.13997185 0.041497402
0.50869089 0.14083189 0.041492164
0.50787449 0.14191498 0.04094401
0.50790071 0.14277659 0.040938761
0.50792688 0.14363822 0.040933512
0.50347126 0.090706617 0.038417973
0.50608331 0.092913888 0.040032871
0.50695384 0.093643263 0.040571239
0.50782424 0.094369464 0.041109595
0.50785041 0.095229499 0.041104358
0.50872064 0.095950924 0.041642744
0.50874674 0.096809357 0.041637514
0.50961685 0.097526006 0.042175926
0.5096429 0.098382853 0.042170703
0.51051289 0.099094711 0.042709183
0.51053888 0.099949971 0.042703971
0.51056486 0.10080522 0.04269876
0.51143461 0.10151072 0.043237247
0.5114606 0.10236438 0.043232042
0.51148653 0.10321804 0.043226842
0.51151246 0.10407171 0.043221638
0.51153845 0.10492537 0.043216437
0.51156437 0.10577904 0.043211237
0.5115903 0.10663269 0.043206032
0.51077282 0.10764727 0.042657066
0.51079881 0.10850251 0.042651854
0.51082486 0.10935777 0.042646643
0.51085085 0.11021303 0.042641431
0.51087683 0.11106829 0.042636219
0.51090282 0.11192355 0.042631008
0.51008564 0.11294927 0.042081941
0.51011169 0.11380612 0.042076718
0.51013774 0.11466297 0.042071499
0.51016378 0.11551982 0.042066276
0.51018983 0.11637666 0.042061053
0.51021588 0.11723351 0.042055834
0.51024187 0.11809036 0.042050611
0.51026791 0.11894721 0.042045392
0.51029396 0.11980405 0.042040169
0.51032001 0.1206609 0.042034946
0.51034606 0.12151776 0.042029727
0.5103721 0.1223746 0.042024504
0.51039815 0.12323145 0.042019282
0.5104242 0.12408829 0.042014062
0.51045024 0.12494514 0.04200884
0.5096339 0.12599635 0.041459657
0.50965995 0.12685479 0.041454423
0.50968605 0.12771322 0.041449193
0.50971216 0.12857166 0.041443963
0.50973827 0.12943012 0.041438732
0.50892216 0.13049087 0.040889483
0.50894833 0.13135089 0.040884241
0.50897443 0.13221094 0.040879
0.5090006 0.13307096 0.040873758
0.50902671 0.133931 0.040868521
0.50905287 0.13479103 0.040863279
0.50907904 0.13565107 0.040858038
0.50910515 0.1365111 0.040852796
0.50913131 0.13737114 0.040847555
0.50915742 0.13823117 0.040842317
0.50834191 0.13930945 0.04029296
0.50836807 0.14017107 0.040287711
0.50839424 0.14103268 0.040282458
0.50842047 0.14189433 0.040277209
0.50844663 0.14275594 0.040271956
0.50847286 0.14361757 0.040266708
0.50849903 0.1444792 0.040261459
0.50578696 0.093025394 0.03882001
0.50665653 0.093756415 0.039359573
0.50752598 0.094484232 0.039899189
0.50755215 0.095345862 0.03989394
0.50842148 0.096068911 0.040433545
0.50929064 0.096788779 0.040973175
0.50931674 0.09764722 0.040967941
0.51018578 0.098362304 0.041507602
0.51021183 0.099219158 0.041502379
0.51023787 0.10007601 0.04149716
0.51110679 0.10078472 0.042036887
0.51113278 0.10163998 0.042031676
0.51115876 0.10249523 0.042026464
0.51118475 0.10335048 0.042021252
0.5112108 0.10420574 0.042016041
0.51123679 0.10506099 0.042010829
0.51126277 0.10591625 0.042005617
0.51128876 0.10677151 0.042000405
0.51131475 0.10762677 0.041995194
0.51134074 0.10848201 0.041989982
0.51052439 0.10950133 0.041439723
0.51055044 0.11035819 0.0414345
0.51057649 0.11121503 0.041429281
0.51060253 0.11207188 0.041424058
0.51062852 0.11292873 0.041418836
0.51065457 0.11378558 0.041413616
0.51068062 0.11464243 0.041408394
0.51070666 0.11549927 0.041403174
0.51073271 0.11635612 0.041397952
0.51075876 0.11721297 0.041392729
0.5107848 0.11806982 0.04138751
0.51081085 0.11892666 0.041382287
0.50999516 0.11996669 0.040831935
0.51002127 0.12082511 0.040826704
0.51004732 0.12168356 0.040821474
0.51007342 0.122542 0.04081624
0.51009953 0.12340044 0.04081101
0.51012564 0.12425888 0.040805779
0.51015168 0.12511732 0.040800549
0.51017779 0.12597577 0.040795315
0.5102039 0.1268342 0.040790085
0.51023 0.12769264 0.040784854
0.50941485 0.12875018 0.040234394
0.50944096 0.12961021 0.040229153
0.50946712 0.13047025 0.040223911
0.50949323 0.13133028 0.040218674
0.5095194 0.13219032 0.040213432
0.50954551 0.13305035 0.040208191
0.50873071 0.13411903 0.039657667
0.50875688 0.13498065 0.039652415
0.5087831 0.13584228 0.039647166
0.50880927 0.13670391 0.039641913
0.50883543 0.13756554 0.039636664
0.50886166 0.13842715 0.039631415
0.50888783 0.13928878 0.039626162
0.50891399 0.14015041 0.039620914
0.50894022 0.14101203 0.039615661
0.50896639 0.14187366 0.039610412
0.50815207 0.14295988 0.039059743
0.50817829 0.1438231 0.039054483
0.50820452 0.14468631 0.039049223
0.50201738 0.090174392 0.035441715
0.50462401 0.09240099 0.037063926
0.50549263 0.093136825 0.03760469
0.50636125 0.09386947 0.038145471
0.50722969 0.094598934 0.038686275
0.50725591 0.095462151 0.038681015
0.50812429 0.096186832 0.039221879
0.50899255 0.096908323 0.039762732
0.50986069 0.097626634 0.040303603
0.5098868 0.098485082 0.040298369
0.50991285 0.099343523 0.040293138
0.51078081 0.10005547 0.040834051
0.51080686 0.10091231 0.040828828
0.51083291 0.10176916 0.040823605
0.51085895 0.10262601 0.040818386
0.51172668 0.10332998 0.041359376
0.51091105 0.1043397 0.040807944
0.51093709 0.10519655 0.040802721
0.51096314 0.1060534 0.040797498
0.51098919 0.10691025 0.040792279
0.51101524 0.1077671 0.040787056
0.51104122 0.10862394 0.040781837
0.51106727 0.10948079 0.040776614
0.51025206 0.11050326 0.040225133
0.51027817 0.11136169 0.040219903
0.51030427 0.11222013 0.040214673
0.51033038 0.11307857 0.040209442
0.51035643 0.11393702 0.040204208
0.51038253 0.11479545 0.040198978
0.51040864 0.11565389 0.040193748
0.51043475 0.11651234 0.040188517
0.51046079 0.11737077 0.040183287
0.5104869 0.11822922 0.040178053
0.51051301 0.11908766 0.040172823
0.51053911 0.1199461 0.040167592
0.51056516 0.12080453 0.040162362
0.51059127 0.12166298 0.040157132
0.51061738 0.12252142 0.040151898
0.51064348 0.12337986 0.040146668
0.51066953 0.1242383 0.040141437
0.50985521 0.12528943 0.039589785
0.50988132 0.12614946 0.039584544
0.50990748 0.1270095 0.039579306
0.50993365 0.12786953 0.039574064
0.50995976 0.12872957 0.039568823
0.50998592 0.12958959 0.039563581
0.51001203 0.13044964 0.03955834
0.50919807 0.13151349 0.039006609
0.5092243 0.13237512 0.039001357
0.50925046 0.13323674 0.038996108
0.50927663 0.13409838 0.038990859
0.50930285 0.13496 0.038985606
0.50932902 0.13582163 0.038980357
0.50935525 0.13668326 0.038975105
0.50854158 0.13775986 0.038423263
0.50856781 0.13862309 0.038418002
0.5085941 0.13948631 0.038412742
0.50862032 0.14034952 0.038407482
0.50864655 0.14121273 0.038402222
0.50867277 0.14207597 0.038396962
0.508699 0.14293918 0.038391702
0.50872529 0.1438024 0.038386442
0.5079121 0.14489335 0.037834547
0.50086081 0.089529015 0.033677127
0.50172889 0.090279222 0.034219038
0.50343829 0.090898894 0.035308223
0.50433266 0.092510715 0.035844918
0.50520033 0.093248181 0.036386903
0.50606799 0.093982458 0.036928907
0.50693548 0.094713546 0.037470937
0.5078029 0.095441453 0.038012978
0.50867027 0.096166171 0.038555078
0.50869644 0.097027794 0.038549826
0.50956362 0.097747743 0.039091922
0.50958979 0.098607771 0.039086681
0.5104568 0.099322937 0.039628804
0.51048291 0.10018139 0.03962357
0.51050895 0.10103982 0.039618339
0.51137584 0.10174862 0.0401605
0.51140189 0.10260547 0.04015528
0.51142788 0.10346231 0.040150058
0.51145393 0.10431916 0.040144838
0.51147997 0.10517601 0.040139616
0.51150602 0.10603286 0.040134393
0.51069164 0.1070489 0.039581724
0.51071775 0.10790735 0.039576493
0.5107438 0.10876578 0.039571259
0.5107699 0.10962423 0.039566029
0.51079601 0.11048268 0.039560799
0.51082212 0.1113411 0.039555568
0.51000804 0.11236831 0.039002828
0.51003414 0.11322834 0.038997587
0.51006031 0.11408837 0.038992345
0.51008642 0.11494841 0.038987108
0.51011258 0.11580843 0.038981866
0.51013875 0.11666848 0.038976625
0.51016486 0.11752851 0.038971383
0.51019102 0.11838854 0.038966142
0.51021713 0.11924858 0.0389609
0.5102433 0.1201086 0.038955662
0.51026946 0.12096864 0.038950421
0.51029557 0.12182868 0.038945179
0.51032174 0.1226887 0.038939938
0.51034784 0.12354874 0.038934696
0.51037401 0.12440878 0.038929459
0.51040012 0.1252688 0.038924217
0.51042628 0.12612884 0.038918976
0.51045245 0.12698887 0.038913734
0.51047856 0.12784891 0.038908493
0.50966549 0.12890795 0.038355559
0.50969166 0.12976958 0.038350306
0.50971782 0.13063121 0.038345058
0.50974405 0.13149284 0.038339805
0.50977021 0.13235447 0.038334556
0.50895739 0.13342308 0.037781529
0.50898361 0.1342863 0.037776269
0.50900984 0.13514951 0.037771009
0.50903606 0.13601273 0.037765749
0.50906229 0.13687596 0.037760489
0.50908858 0.13773917 0.037755229
0.5091148 0.13860239 0.037749968
0.50914103 0.13946562 0.037744708
0.50916725 0.14032882 0.037739448
0.50919348 0.14119205 0.037734188
0.50921977 0.14205527 0.037728928
0.50924599 0.14291848 0.037723668
0.50843382 0.1440078 0.037170548
0.5084601 0.14487261 0.03716528
0.50138921 0.088632055 0.033004571
0.50141585 0.089508012 0.032999232
0.50228292 0.090258256 0.033542376
0.50399029 0.090878002 0.034634028
0.50488365 0.092489868 0.035171952
0.50575036 0.093227372 0.03571517
0.50661695 0.093961686 0.036258407
0.50748342 0.094692819 0.03680167
0.50834984 0.095420763 0.037344944
0.50837606 0.096283972 0.037339684
0.50840235 0.097147197 0.037334424
0.50926858 0.097868763 0.037877772
0.5101347 0.098587155 0.038421109
0.51016086 0.099447191 0.038415868
0.51018697 0.10030722 0.038410626
0.51105291 0.10101923 0.038954005
0.51107901 0.10187768 0.038948774
0.51110512 0.10273613 0.03894354
0.51113117 0.10359456 0.03893831
0.51115727 0.104453 0.03893308
0.51118338 0.10531144 0.038927849
0.51120949 0.10616989 0.038922619
0.51123554 0.10702832 0.038917385
0.51042229 0.10804752 0.03836346
0.5104484 0.10890755 0.038358219
0.51047456 0.10976759 0.038352977
0.51050067 0.11062763 0.038347736
0.51052684 0.11148765 0.038342498
0.51055294 0.11234769 0.038337257
0.51057911 0.11320772 0.038332015
0.50976616 0.11423966 0.037778012
0.50979239 0.11510128 0.037772764
0.50981855 0.11596292 0.037767511
0.50984478 0.11682454 0.037762262
0.50987095 0.11768616 0.037757013
0.50989711 0.11854779 0.03775176
0.50992334 0.11940941 0.037746511
0.50994951 0.12027104 0.037741259
0.50997573 0.12113266 0.03773601
0.5100019 0.12199429 0.037730757
0.51002806 0.12285592 0.037725508
0.51005429 0.12371755 0.037720259
0.51008046 0.12457918 0.037715007
0.51010662 0.12544079 0.037709758
0.51013285 0.12630242 0.037704505
0.51015902 0.12716405 0.037699256
0.51018524 0.12802567 0.037694007
0.51021141 0.1288873 0.037688754
0.51023757 0.12974893 0.037683506
0.50942558 0.13081273 0.037129276
0.50945187 0.13167594 0.037124015
0.50947809 0.13253917 0.037118755
0.50950432 0.13340238 0.037113495
0.50953054 0.1342656 0.037108235
0.50955677 0.13512881 0.037102975
0.50958306 0.13599204 0.037097715
0.50960928 0.13685526 0.037092455
0.50963551 0.13771847 0.037087195
0.50966173 0.13858169 0.037081935
0.50968796 0.13944492 0.037076674
0.50971425 0.14030813 0.037071414
0.50890291 0.14139262 0.036517091
0.50892919 0.14225744 0.036511824
0.50895548 0.14312224 0.036506552
0.50898176 0.14398706 0.036501281
0.50817066 0.14507952 0.035946909
0.50819701 0.14594592 0.035941631
0.5019176 0.087735094 0.032332011
0.50194424 0.088611059 0.032326676
0.50281036 0.089362927 0.032871038
0.50367641 0.090111613 0.033415426
0.50454229 0.090857118 0.033959828
0.50456882 0.0917283 0.03395452
0.50543463 0.092469022 0.034498982
0.50630033 0.093206562 0.035043437
0.50716591 0.093940914 0.035587907
0.50719225 0.094807319 0.035582628
0.50805771 0.095536895 0.036127128
0.508084 0.096401706 0.03612186
0.50894928 0.097126499 0.03666639
0.50897551 0.097989716 0.036661129
0.50984073 0.098709732 0.037205718
0.50986689 0.099571355 0.03720047
0.51073194 0.1002866 0.037745059
0.51075804 0.10114663 0.037739817
0.51078421 0.10200667 0.037734576
0.51081038 0.1028667 0.037729334
0.51083648 0.10372674 0.037724093
0.51086265 0.10458677 0.037718855
0.51088876 0.1054468 0.037713613
0.51091492 0.10630684 0.037708372
0.51094103 0.10716686 0.03770313
0.5109672 0.1080269 0.037697889
0.51015502 0.10904924 0.037142713
0.51018119 0.10991088 0.037137464
0.51020736 0.1107725 0.037132211
0.51023358 0.11163412 0.037126962
0.51025975 0.11249575 0.037121713
0.51028597 0.11335737 0.037116461
0.50947404 0.11439088 0.036561184
0.50950027 0.11525409 0.036555924
0.50952649 0.11611731 0.036550663
0.50955278 0.11698054 0.036545403
0.509579 0.11784375 0.036540143
0.50960523 0.11870698 0.036534883
0.50963145 0.11957019 0.036529623
0.50965768 0.12043341 0.036524363
0.51052165 0.12111201 0.037069205
0.50971019 0.12215985 0.036513843
0.50973642 0.12302306 0.036508583
0.50976264 0.12388629 0.036503322
0.50978887 0.1247495 0.036498062
0.50981516 0.12561272 0.036492802
0.50984138 0.12647595 0.036487542
0.50986761 0.12733915 0.036482282
0.50989383 0.12820238 0.036477022
0.50992006 0.12906559 0.036471762
0.50994635 0.12992881 0.036466502
0.50997257 0.13079204 0.036461242
0.5099988 0.13165525 0.036455981
0.51002502 0.13251847 0.036450721
0.51005125 0.13338168 0.036445461
0.51007754 0.1342449 0.036440201
0.50926685 0.1353182 0.035884712
0.50929314 0.13618302 0.035879444
0.50931942 0.13704784 0.035874173
0.50934571 0.13791265 0.035868902
0.509372 0.13877746 0.035863634
0.50939828 0.13964227 0.035858363
0.50942457 0.14050709 0.035853092
0.50945085 0.14137189 0.035847824
0.50947714 0.14223671 0.035842553
0.50950342 0.14310151 0.035837281
0.50952971 0.14396633 0.035832014
0.50871968 0.14505875 0.035276409
0.50874597 0.14592515 0.035271131
0.50709981 0.14725314 0.034165144
0.50331122 0.087593235 0.032205034
0.5033378 0.088467598 0.032199707
0.50336438 0.089341968 0.03219438
0.50422943 0.090090692 0.032739993
0.50509435 0.090836234 0.033285629
0.50512081 0.091707408 0.03328032
0.50598562 0.092448168 0.03382602
0.50601208 0.093317762 0.033820722
0.50687671 0.094053745 0.034366414
0.50774121 0.094786547 0.034912128
0.50776756 0.095652945 0.034906849
0.50863194 0.096380971 0.035452593
0.50865823 0.097245783 0.035447322
0.5095225 0.097969025 0.035993092
0.50954872 0.098832242 0.035987832
0.50957495 0.099695459 0.035982572
0.51043904 0.10041232 0.036528416
0.51046526 0.10127395 0.036523167
0.51049143 0.10213558 0.036517914
0.5105176 0.10299721 0.036512665
0.51054382 0.10385883 0.036507413
0.51056999 0.10472047 0.036502164
0.51059622 0.10558208 0.036496911
0.51062238 0.10644371 0.036491662
0.51064855 0.10730533 0.036486413
0.51067477 0.10816696 0.036481161
0.50986356 0.10919087 0.03592471
0.50988978 0.11005408 0.03591945
0.50991607 0.11091731 0.03591419
0.50994229 0.11178052 0.03590893
0.50996852 0.11264375 0.03590367
0.50999475 0.11350696 0.03589841
0.51002097 0.11437018 0.03589315
0.51004726 0.1152334 0.03588789
0.51007348 0.11609662 0.035882629
0.51009971 0.11695984 0.035877369
0.51012594 0.11782306 0.035872109
0.51015216 0.11868628 0.035866849
0.51017845 0.11954949 0.035861585
0.51020467 0.12041271 0.035856325
0.5102309 0.12127592 0.035851065
0.51025712 0.12213915 0.035845805
0.51028335 0.12300237 0.035840545
0.51030964 0.12386559 0.035835285
0.51033586 0.12472881 0.035830025
0.51036209 0.12559202 0.035824765
0.51038831 0.12645525 0.035819504
0.51041454 0.12731846 0.035814244
0.51044083 0.12818168 0.035808984
0.51046705 0.12904491 0.035803724
0.50965708 0.13010861 0.035247065
0.50968337 0.13097343 0.035241794
0.50970966 0.13183823 0.035236526
0.50973594 0.13270305 0.035231255
0.50976223 0.13356785 0.035225987
0.50978857 0.13443267 0.035220716
0.50981486 0.13529748 0.035215445
0.50984114 0.1361623 0.035210177
0.50986743 0.13702711 0.035204906
0.50989372 0.13789192 0.035199635
0.50992 0.13875672 0.035194367
0.50994629 0.13962153 0.035189096
0.50997257 0.14048634 0.035183825
0.50999886 0.14135116 0.035178557
0.51002514 0.14221597 0.035173286
0.50921595 0.14330515 0.03461647
0.5092423 0.14417158 0.034611188
0.50926864 0.14503798 0.034605909
0.50845969 0.14613354 0.034049053
0.50681549 0.14746305 0.032940563
0.5051716 0.14879894 0.031832065
0.504363 0.14990725 0.031275131
0.5027194 0.15125428 0.030166529
0.50024098 0.1528448 0.028506299
0.49943277 0.15396746 0.027949249
0.50381207 0.085823528 0.031539027
0.50383866 0.086697899 0.031533699
0.50386524 0.087572269 0.031528372
0.50389183 0.088446639 0.031523041
0.50475591 0.089196995 0.032069881
0.50478244 0.090069763 0.032064565
0.50564635 0.090815343 0.032611433
0.50567281 0.091686524 0.032606125
0.5065366 0.092427321 0.033153053
0.50740027 0.093164936 0.033699971
0.50742668 0.094032936 0.033694685
0.50829017 0.094765775 0.034241628
0.50831652 0.095632173 0.034236349
0.50917989 0.096360236 0.034783322
0.50920618 0.097225048 0.034778055
0.50923246 0.098089851 0.034772784
0.51009566 0.098811544 0.035319798
0.51012188 0.099674769 0.035314538
0.51014817 0.10053799 0.035309277
0.51017439 0.1014012 0.035304017
0.51020062 0.10226443 0.035298757
0.51022685 0.10312764 0.035293497
0.51025307 0.10399086 0.035288237
0.51027936 0.10485408 0.035282977
0.51030558 0.10571729 0.035277717
0.51033181 0.10658052 0.035272457
0.51035804 0.10744374 0.035267197
0.51038426 0.10830695 0.035261936
0.51041055 0.10917017 0.035256676
0.51043677 0.11003339 0.035251416
0.50962681 0.11106203 0.034693733
0.50965309 0.11192684 0.034688465
0.50967938 0.11279165 0.034683194
0.50970566 0.11365646 0.034677923
0.50973195 0.11452127 0.034672655
0.50975823 0.11538608 0.034667384
0.50978452 0.11625089 0.034662116
0.50981081 0.11711571 0.034656845
0.50983709 0.11798052 0.034651574
0.50986338 0.11884534 0.034646306
0.50988966 0.11971014 0.034641035
0.50991595 0.12057496 0.034635764
0.50994223 0.12143976 0.034630496
0.50996852 0.12230457 0.034625225
0.5099948 0.12316938 0.034619957
0.51002109 0.1240342 0.034614686
0.51004738 0.12489901 0.034609415
0.51007366 0.12576382 0.034604147
0.51009995 0.12662864 0.034598876
0.51012623 0.12749344 0.034593605
0.51015252 0.12835826 0.034588337
0.5101788 0.12922306 0.034583066
0.51020509 0.13008788 0.034577794
0.51023138 0.13095269 0.034572527
0.51025766 0.1318175 0.034567256
0.51028395 0.13268231 0.034561988
0.51031023 0.13354713 0.034556717
0.51033652 0.13441193 0.034551445
0.5103628 0.13527673 0.034546178
0.50955427 0.13635316 0.033988208
0.50958061 0.13721956 0.033982925
0.50960696 0.13808598 0.033977646
0.50963324 0.13895237 0.033972368
0.50965959 0.13981877 0.033967089
0.50968593 0.14068519 0.033961806
0.50971228 0.14155158 0.033956528
0.50973862 0.14241798 0.033951249
0.50976497 0.14328438 0.03394597
0.50895691 0.14437674 0.033387903
0.50898325 0.14524475 0.033382613
0.50817537 0.14634185 0.032824513
0.50736749 0.14744218 0.032266364
0.50572562 0.14877798 0.0311554
0.50491804 0.14988625 0.030597234
0.50327647 0.15123321 0.029486168
0.50163507 0.15258652 0.0283751
0.49999386 0.15394624 0.027263958
0.49918681 0.15507202 0.026705684
0.49754599 0.15644287 0.025594508
0.5043661 0.08580257 0.030862365
0.50439268 0.08667694 0.030857036
0.50441927 0.087551303 0.030851707
0.50444585 0.088425674 0.03084638
0.50530893 0.089176066 0.031394452
0.50533545 0.090048842 0.031389132
0.50619835 0.090794459 0.031937234
0.50622481 0.09166564 0.031931926
0.50708759 0.092406474 0.032480091
0.50711405 0.093276061 0.03247479
0.50797665 0.094012126 0.033022951
0.50883919 0.094745003 0.033571128
0.50886554 0.095611401 0.033565849
0.50889182 0.096477814 0.03356057
0.50975418 0.097204313 0.034108788
0.50978047 0.098069116 0.034103516
0.50980675 0.098933935 0.034098245
0.50983304 0.099798746 0.034092978
0.5106951 0.10051729 0.034641244
0.51072133 0.10138051 0.034635983
0.51074761 0.10224373 0.034630723
0.51077384 0.10310695 0.034625463
0.51080006 0.10397017 0.034620203
0.51082629 0.10483339 0.034614943
0.51001704 0.10585243 0.034056086
0.51004332 0.10671724 0.034050819
0.51006961 0.10758205 0.034045547
0.51009589 0.10844686 0.034040276
0.51012218 0.10931167 0.034035008
0.51014847 0.11017648 0.034029737
0.51017475 0.1110413 0.034024466
0.51020104 0.1119061 0.034019198
0.51022732 0.11277092 0.034013927
0.50941855 0.11380588 0.033454977
0.50944489 0.11467229 0.033449698
0.50947124 0.11553869 0.033444416
0.50949752 0.1164051 0.033439137
0.50952387 0.11727151 0.033433858
0.50955021 0.1181379 0.03342858
0.50957656 0.11900432 0.033423297
0.5096029 0.11987071 0.033418018
0.50962919 0.12073712 0.03341274
0.50965554 0.12160352 0.033407461
0.50968188 0.12246993 0.033402178
0.50970823 0.12333633 0.0333969
0.50973457 0.12420274 0.033391621
0.51059532 0.12487828 0.033940148
0.51062161 0.12574309 0.03393488
0.51064789 0.12660789 0.033929609
0.51067418 0.12747271 0.033924337
0.50986624 0.12853475 0.033365224
0.50989258 0.12940115 0.033359945
0.50991887 0.13026756 0.033354662
0.50994521 0.13113397 0.033349384
0.50997156 0.13200037 0.033344105
0.5099979 0.13286678 0.033338826
0.51002425 0.13373318 0.033333544
0.51005059 0.13459958 0.033328265
0.51007688 0.13546598 0.033322986
0.51010323 0.13633239 0.033317707
0.51012957 0.13719879 0.033312425
0.51015592 0.1380652 0.033307146
0.51018226 0.1389316 0.033301868
0.51020861 0.139798 0.033296589
0.51023489 0.14066441 0.033291306
0.50942773 0.14175193 0.032732036
0.50945413 0.14261994 0.032726746
0.50948048 0.14348793 0.032721456
0.50867349 0.14458182 0.032162149
0.50869995 0.14545141 0.032156847
0.50872636 0.146321 0.03215155
0.50708628 0.14765197 0.031038115
0.50627965 0.14875701 0.030478736
0.50463998 0.15009911 0.029365269
0.50383347 0.15121213 0.028805807
0.50219417 0.15256537 0.027692273
0.50138795 0.15368634 0.027132798
0.49974892 0.15505074 0.026019162
0.498943 0.15617968 0.025459638
0.49813718 0.1573118 0.024900092
0.50492013 0.085781604 0.030185701
0.50578231 0.086536817 0.030734977
0.50580883 0.087409593 0.030729657
0.50583535 0.088282369 0.030724339
0.50586194 0.089155145 0.030719021
0.50672388 0.089902394 0.031268347
0.50675035 0.090773568 0.031263039
0.50761217 0.091516033 0.031812422
0.50763863 0.092385627 0.031807125
0.50850028 0.093123317 0.032356504
0.50852662 0.093991317 0.032351218
0.50938815 0.09472423 0.032900628
0.50941449 0.095590629 0.032895349
0.50944084 0.096457042 0.03289007
0.50946718 0.09732344 0.032884788
0.51032841 0.098048389 0.033434246
0.5103547 0.0989132 0.033428978
0.51038098 0.099778011 0.033423707
0.51040727 0.10064282 0.033418436
0.51043355 0.10150763 0.033413168
0.51045984 0.10237245 0.033407897
0.51048613 0.10323726 0.033402629
0.51051241 0.10410207 0.033397358
0.5105387 0.10496689 0.033392087
0.51056498 0.10583169 0.033386819
0.51059127 0.10669651 0.033381548
0.51061755 0.10756131 0.033376276
0.50980949 0.10858669 0.032816153
0.50983584 0.1094531 0.032810874
0.50986218 0.1103195 0.032805596
0.50988853 0.11118591 0.032800317
0.50991482 0.11205231 0.032795034
0.50994116 0.11291871 0.032789756
0.50996751 0.11378511 0.032784477
0.50999385 0.11465152 0.032779198
0.5100202 0.11551792 0.032773916
0.51004654 0.11638433 0.032768637
0.51007283 0.11725073 0.032763358
0.51009917 0.11811713 0.032758079
0.51012552 0.11898354 0.032752797
0.51015186 0.11984994 0.032747518
0.51017821 0.12071635 0.03274224
0.51020455 0.12158275 0.032736961
0.51023084 0.12244916 0.032731682
0.51025718 0.12331556 0.0327264
0.51028353 0.12418196 0.032721121
0.51030988 0.12504837 0.032715842
0.51033622 0.12591477 0.032710563
0.51036251 0.12678118 0.032705281
0.51038885 0.12764758 0.032700002
0.5104152 0.12851398 0.032694723
0.51044154 0.12938038 0.032689445
0.51046789 0.13024679 0.032684162
0.51049423 0.1311132 0.032678884
0.51052052 0.1319796 0.032673605
0.51054686 0.13284601 0.032668326
0.51057321 0.13371241 0.032663044
0.51059955 0.13457881 0.032657765
0.5106259 0.13544521 0.032652486
0.50981939 0.13652314 0.032092039
0.50984579 0.13739115 0.032086749
0.5098722 0.13825914 0.032081462
0.50989854 0.13912714 0.032076173
0.50992495 0.13999513 0.032070883
0.50995135 0.14086314 0.032065593
0.5091452 0.1419522 0.031505078
0.50917166 0.1428218 0.031499781
0.50919807 0.14369139 0.03149448
0.50922447 0.14456098 0.031489182
0.50925094 0.14543056 0.031483881
0.50844502 0.14652923 0.030923277
0.50680709 0.14786167 0.029807402
0.50600147 0.14896828 0.029246781
0.50519598 0.15007807 0.028686142
0.50355846 0.15142646 0.027570138
0.5027532 0.15254422 0.027009448
0.50194806 0.15366516 0.02644874
0.50114292 0.15478928 0.025887979
0.50033796 0.15591659 0.025327232
0.49870127 0.15729046 0.024211105
0.50547415 0.085760638 0.029509034
0.50633532 0.086515896 0.030059543
0.50636184 0.087388672 0.030054225
0.50722289 0.088139139 0.030604761
0.50724936 0.089010321 0.030599451
0.50727588 0.089881502 0.030594142
0.50813675 0.090625592 0.031144751
0.50816315 0.091495186 0.031139452
0.50818962 0.092364773 0.031134155
0.50905025 0.093102507 0.031684771
0.50907665 0.093970507 0.031679481
0.50993711 0.094703458 0.032230124
0.50996345 0.095569856 0.032224841
0.5099898 0.09643627 0.032219563
0.51001614 0.097302668 0.032214284
0.51004249 0.098169073 0.032209005
0.51006883 0.099035472 0.032203723
0.51009512 0.099901877 0.032198444
0.51012146 0.10076828 0.032193165
0.51098156 0.1014869 0.032743897
0.51100785 0.10235172 0.032738626
0.5102005 0.1033675 0.032177325
0.51022679 0.1042339 0.032172047
0.51025313 0.1051003 0.032166768
0.51027948 0.1059667 0.032161489
0.51030582 0.10683311 0.032156207
0.51033217 0.10769951 0.032150928
0.51035851 0.10856592 0.032145649
0.5103848 0.10943232 0.03214037
0.51041114 0.11029873 0.032135088
0.51043749 0.11116514 0.032129809
0.50963068 0.11219843 0.031568404
0.50965708 0.11306643 0.031563114
0.50968343 0.11393442 0.031557824
0.50970984 0.11480242 0.031552538
0.50973618 0.11567042 0.031547248
0.50976259 0.11653842 0.031541958
0.50978899 0.11740642 0.031536669
0.50981534 0.11827441 0.031531379
0.50984174 0.11914241 0.031526089
0.50986814 0.1200104 0.031520799
0.50989449 0.1208784 0.031515513
0.5099209 0.12174639 0.031510223
0.5099473 0.12261439 0.031504933
0.50997365 0.12348238 0.031499643
0.51000005 0.12435038 0.031494353
0.5100264 0.12521838 0.031489063
0.5100528 0.12608637 0.031483777
0.51007921 0.12695438 0.031478487
0.51010555 0.12782237 0.031473197
0.51013196 0.12869038 0.031467907
0.51015836 0.12955837 0.031462617
0.51018471 0.13042636 0.031457327
0.51021111 0.13129437 0.031452037
0.51023751 0.13216235 0.031446751
0.51026386 0.13303035 0.031441461
0.51029027 0.13389835 0.031436171
0.51031661 0.13476634 0.031430881
0.51034302 0.13563433 0.031425592
0.51036942 0.13650234 0.031420302
0.50956404 0.13758342 0.030858604
0.50959045 0.13845301 0.030853305
0.50961691 0.13932259 0.030848006
0.50964332 0.14019218 0.030842707
0.50966978 0.14106177 0.030837407
0.50969619 0.14193135 0.030832108
0.50889111 0.14302361 0.03027031
0.50891763 0.14389478 0.030265
0.50894409 0.14476596 0.030259691
0.50897056 0.14563715 0.030254383
0.50816578 0.14673734 0.02969257
0.50736111 0.14784072 0.029130735
0.50655651 0.14894727 0.028568882
0.5049209 0.15029083 0.02745044
0.5049476 0.15116997 0.027445083
0.50331229 0.15252307 0.026326619
0.50250816 0.15364397 0.02576468
0.50170404 0.15476805 0.025202686
0.50090009 0.15589532 0.024640705
0.5000962 0.15702577 0.024078708
0.49929246 0.1581594 0.023516688
0.50686181 0.085622191 0.029389432
0.50688833 0.086494967 0.029384112
0.50691485 0.087367743 0.029378794
0.50777489 0.088118255 0.029930564
0.50780135 0.088989437 0.029925255
0.50782788 0.089860618 0.029919947
0.50868773 0.090604745 0.030471789
0.50871414 0.091474339 0.030466489
0.5087406 0.092343926 0.03046119
0.50960022 0.093081698 0.031013036
0.50962663 0.093949698 0.031007748
0.50965297 0.094817691 0.031002458
0.51051247 0.095549084 0.031554341
0.51053876 0.096415497 0.031549063
0.5105651 0.097281896 0.031543784
0.51059145 0.098148301 0.031538505
0.51061779 0.099014699 0.031533226
0.51064414 0.099881105 0.031527944
0.51067042 0.10074751 0.031522665
0.51069677 0.10161391 0.031517386
0.51072311 0.10248031 0.031512108
0.51074946 0.10334673 0.031506825
0.5107758 0.10421313 0.031501547
0.51080215 0.10507953 0.031496268
0.51082844 0.10594593 0.031490989
0.51085478 0.10681234 0.031485707
0.51004875 0.10783763 0.030923119
0.51007515 0.10870563 0.030917829
0.5101015 0.10957363 0.030912539
0.5101279 0.11044163 0.030907249
0.51015431 0.11130963 0.030901961
0.51018065 0.11217762 0.030896671
0.50937498 0.11321407 0.030334013
0.50940138 0.11408366 0.030328713
0.50942785 0.11495325 0.030323416
0.50945425 0.11582283 0.030318117
0.50948066 0.11669242 0.030312818
0.50950712 0.11756202 0.030307518
0.50953352 0.11843161 0.030302219
0.50955999 0.1193012 0.03029692
0.50958639 0.12017078 0.030291621
0.50961286 0.12104037 0.030286321
0.50963926 0.12190996 0.030281022
0.50966573 0.12277956 0.030275723
0.50969213 0.12364914 0.030270426
0.50971854 0.12451873 0.030265126
0.509745 0.12538832 0.030259827
0.50977141 0.12625791 0.030254528
0.50979787 0.1271275 0.030249229
0.50982428 0.12799709 0.030243929
0.50985074 0.12886667 0.03023863
0.50987715 0.12973626 0.030233331
0.50990361 0.13060586 0.030228032
0.50993001 0.13147545 0.030222733
0.50995642 0.13234502 0.030217435
0.50998288 0.13321462 0.030212136
0.51000929 0.13408421 0.030206837
0.51003575 0.1349538 0.030201538
0.51006216 0.13582338 0.030196238
0.51008862 0.13669297 0.030190939
0.51011503 0.13756257 0.03018564
0.51014149 0.13843216 0.030180341
0.50933719 0.13951799 0.029617347
0.50936371 0.14038917 0.029612038
0.50939018 0.14126036 0.02960673
0.50941664 0.14213154 0.029601421
0.5094431 0.14300272 0.029596113
0.50946963 0.14387389 0.029590804
0.50866574 0.14497086 0.029027777
0.50869226 0.14584364 0.029022459
0.50788856 0.14694539 0.028459402
0.50708491 0.14805032 0.027896324
0.50628138 0.14915843 0.02733323
0.50547791 0.15026975 0.02677008
0.50467461 0.15138423 0.026206946
0.50387132 0.15250191 0.025643794
0.50306821 0.15362278 0.025080621
0.5022651 0.15474683 0.024517395
0.50146216 0.15587406 0.023954183
0.50148916 0.15676115 0.023948777
0.50068635 0.15789317 0.023385534
0.50071335 0.15878187 0.023380119
0.50736177 0.083855718 0.028724639
0.50738829 0.084728494 0.028719319
0.50824744 0.085483819 0.029272292
0.50827396 0.086355001 0.029266983
0.50830042 0.08722619 0.029261675
0.50832689 0.088097364 0.029256366
0.50835341 0.088968545 0.029251058
0.50921232 0.089714311 0.02980412
0.50923872 0.090583898 0.029798822
0.50926518 0.091453485 0.029793523
0.51012385 0.092192888 0.030346593
0.51015019 0.093060888 0.030341303
0.5101766 0.093928881 0.030336013
0.510203 0.094796881 0.030330725
0.51022935 0.095664874 0.030325435
0.51108778 0.096394725 0.030878564
0.51111406 0.097261123 0.030873284
0.51114041 0.098127529 0.030868005
0.51116675 0.098993927 0.030862724
0.5111931 0.099860333 0.030857446
0.51121944 0.10072674 0.030852165
0.51124579 0.10159314 0.030846886
0.51044041 0.10260885 0.030283121
0.51046681 0.10347685 0.030277831
0.51049322 0.10434484 0.030272542
0.51051956 0.10521284 0.030267254
0.51054597 0.10608083 0.030261964
0.51057237 0.10694883 0.030256674
0.51059872 0.10781682 0.030251384
0.50979382 0.10884528 0.029687542
0.50982022 0.10971486 0.029682243
0.50984663 0.11058445 0.029676944
0.50987309 0.11145404 0.029671645
0.5098995 0.11232363 0.029666346
0.50992596 0.11319322 0.029661046
0.50995237 0.11406281 0.029655747
0.50997883 0.1149324 0.029650448
0.51000524 0.11580198 0.029645149
0.5100317 0.11667158 0.029639851
0.5100581 0.11754117 0.029634552
0.51008451 0.11841076 0.029629253
0.51011097 0.11928035 0.029623954
0.51013738 0.12014993 0.029618654
0.51016384 0.12101953 0.029613355
0.51019025 0.12188911 0.029608056
0.51021671 0.1227587 0.029602757
0.51024312 0.12362828 0.029597457
0.51026958 0.12449788 0.029592158
0.51029599 0.12536748 0.029586861
0.51032245 0.12623706 0.029581562
0.51034886 0.12710665 0.029576262
0.51037526 0.12797624 0.029570963
0.51040173 0.12884583 0.029565664
0.51042813 0.12971541 0.029560365
0.5104546 0.130585 0.029555066
0.510481 0.1314546 0.029549766
0.51050746 0.13232417 0.029544467
0.51053387 0.13319378 0.029539168
0.50973034 0.13427001 0.028975002
0.5097568 0.13514119 0.028969694
0.50978327 0.13601236 0.028964385
0.50980979 0.13688356 0.028959077
0.50983626 0.13775474 0.028953768
0.50986272 0.13862592 0.02894846
0.50988925 0.1394971 0.028943149
0.50991571 0.14036828 0.028937841
0.50911266 0.14145884 0.02837362
0.50913918 0.14233162 0.028368302
0.5091657 0.14320439 0.028362984
0.50919223 0.14407717 0.028357664
0.50838941 0.14517568 0.027793394
0.508416 0.14605007 0.027788067
0.50761336 0.14715336 0.027223768
0.50763994 0.14802931 0.027218429
0.50683743 0.14913739 0.026654102
0.50603497 0.15024868 0.02608972
0.50523263 0.15136312 0.025525352
0.50443041 0.15248075 0.024960967
0.50362831 0.15360159 0.024396561
0.50282621 0.1547256 0.023832103
0.5028531 0.15561111 0.023826707
0.50205123 0.15673989 0.023262253
0.50207818 0.157627 0.023256848
0.50127643 0.15876056 0.022692364
0.50791478 0.083834797 0.028049208
0.50794131 0.084707573 0.028043889
0.50879949 0.085462935 0.028598092
0.50882596 0.086334117 0.028592784
0.50885242 0.087205298 0.028587475
0.50887889 0.08807648 0.028582167
0.50890541 0.088947661 0.028576858
0.5097633 0.089693464 0.029131157
0.50978971 0.090563051 0.029125858
0.50981617 0.091432638 0.029120559
0.51067382 0.092172079 0.02967486
0.51070023 0.093040079 0.02966957
0.51072657 0.093908072 0.02966428
0.51075298 0.094776072 0.029658992
0.51077938 0.095644064 0.029653702
0.51080573 0.096512057 0.029648412
0.51083213 0.097380057 0.029643124
0.51085848 0.09824805 0.029637834
0.51088488 0.09911605 0.029632544
0.51091129 0.09998405 0.029627256
0.51093763 0.10085205 0.029621966
0.51096404 0.10172004 0.029616676
0.51099044 0.10258804 0.029611388
0.51101679 0.10345604 0.029606098
0.51104319 0.10432404 0.029600808
0.5110696 0.10519204 0.029595518
0.51026547 0.10621566 0.029030476
0.51029193 0.10708524 0.029025177
0.51031834 0.10795483 0.029019877
0.5103448 0.10882442 0.029014578
0.51037121 0.10969401 0.029009279
0.51039767 0.11056361 0.02900398
0.51042408 0.11143319 0.02899868
0.50962037 0.11246957 0.028433522
0.50964683 0.11334076 0.028428212
0.5096733 0.11421194 0.028422903
0.50969976 0.11508312 0.028417595
0.50972629 0.1159543 0.028412286
0.50975275 0.11682548 0.028406978
0.50977921 0.11769667 0.028401669
0.50980568 0.11856785 0.028396361
0.5098322 0.11943904 0.028391052
0.50985867 0.12031021 0.028385743
0.50988513 0.1211814 0.028380435
0.5099116 0.12205257 0.028375125
0.50993812 0.12292375 0.028369816
0.50996459 0.12379494 0.028364507
0.50999105 0.12466612 0.028359199
0.51001751 0.12553731 0.02835389
0.51004404 0.12640849 0.028348582
0.5100705 0.12727967 0.028343273
0.51009697 0.12815085 0.028337965
0.51012349 0.12902203 0.028332656
0.51014996 0.12989321 0.028327346
0.51017642 0.13076439 0.028322037
0.51020288 0.13163558 0.028316729
0.51022941 0.13250676 0.02831142
0.51025587 0.13337795 0.028306112
0.51028234 0.13424912 0.028300803
0.5103088 0.1351203 0.028295495
0.51033533 0.13599148 0.028290186
0.51036179 0.13686267 0.028284878
0.50955957 0.13794683 0.027719464
0.5095861 0.13881959 0.027714144
0.50961262 0.13969237 0.027708827
0.50963914 0.14056514 0.027703509
0.50966567 0.14143792 0.027698189
0.50886369 0.14253162 0.027132716
0.50889027 0.14340599 0.027127387
0.50891685 0.14428036 0.02712206
0.50894344 0.14515473 0.027116731
0.50814176 0.1462564 0.026551209
0.50816834 0.14713235 0.026545871
0.50736684 0.14823881 0.025980322
0.50739348 0.14911635 0.025974974
0.50659204 0.15022759 0.025409359
0.50579071 0.151342 0.024843762
0.5049895 0.15245961 0.024278142
0.50418836 0.15358038 0.023712503
0.50421524 0.1544643 0.023707116
0.50341421 0.15558988 0.023141416
0.5034411 0.15647539 0.02313602
0.50346804 0.15736091 0.023130624
0.50266725 0.15849283 0.022564918
0.50846779 0.083813868 0.027373778
0.50932497 0.084570862 0.027929204
0.50935149 0.085442044 0.027923895
0.50937796 0.086313225 0.027918587
0.50940442 0.087184414 0.027913278
0.51026142 0.087933436 0.028468788
0.51028788 0.088803023 0.02846349
0.51031429 0.089672618 0.028458191
0.51034069 0.090542205 0.028452892
0.51036716 0.091411792 0.028447593
0.51039356 0.092281379 0.028442293
0.5112502 0.093019269 0.028997837
0.51127654 0.093887262 0.028992547
0.51130295 0.094755262 0.028987259
0.51132935 0.095623255 0.028981969
0.5113557 0.096491247 0.028976679
0.5113821 0.097359248 0.028971391
0.51140851 0.09822724 0.028966101
0.51143485 0.099095233 0.028960811
0.51146126 0.099963233 0.028955523
0.51148766 0.10083123 0.028950233
0.51068431 0.10184687 0.028384004
0.51071078 0.10271645 0.028378705
0.51073718 0.10358604 0.028373405
0.51076365 0.10445563 0.028368106
0.51079005 0.10532522 0.028362807
0.51081651 0.10619481 0.02835751
0.51084292 0.1070644 0.02835221
0.51086932 0.10793398 0.028346911
0.51006645 0.10896397 0.027780559
0.51009291 0.10983513 0.02777525
0.51011938 0.11070632 0.027769942
0.51014584 0.11157751 0.027764633
0.51017237 0.11244868 0.027759325
0.51019883 0.11331987 0.027754016
0.5102253 0.11419106 0.027748708
0.51025176 0.11506223 0.027743399
0.51027828 0.11593341 0.027738089
0.51030475 0.1168046 0.02773278
0.51033121 0.11767578 0.027727472
0.51035768 0.11854696 0.027722163
0.5103842 0.11941814 0.027716855
0.51041067 0.12028932 0.027711546
0.51043713 0.12116051 0.027706238
0.50963503 0.12221595 0.027139766
0.50966156 0.12308872 0.027134446
0.50968808 0.12396149 0.027129129
0.5097146 0.12483428 0.027123811
0.50974119 0.12570706 0.027118491
0.50976771 0.12657982 0.027113173
0.50979424 0.12745261 0.027107855
0.50982076 0.12832537 0.027102536
0.50984728 0.12919815 0.027097218
0.50987381 0.13007092 0.0270919
0.50990033 0.1309437 0.02708658
0.50992686 0.13181648 0.027081262
0.50995338 0.13268925 0.027075944
0.5099799 0.13356203 0.027070625
0.51000643 0.13443479 0.027065307
0.51003295 0.13530757 0.027059989
0.51005948 0.13618034 0.027054671
0.510086 0.13705312 0.027049351
0.51011258 0.13792589 0.027044034
0.50931144 0.13901319 0.026477365
0.50933802 0.13988756 0.026472036
0.5093646 0.14076193 0.026466709
0.50939113 0.1416363 0.02646138
0.50941771 0.14251065 0.026456052
0.50861692 0.14360751 0.025889328
0.50864351 0.14448348 0.025883991
0.50867015 0.14535943 0.025878653
0.50869679 0.14623541 0.025873315
0.50789618 0.14734021 0.02530654
0.50792283 0.14821777 0.025301192
0.50712234 0.14932737 0.024734356
0.50714904 0.15020652 0.024728999
0.50634879 0.15132089 0.024162168
0.50637555 0.15220162 0.024156801
0.50557536 0.15332079 0.023589941
0.50477529 0.15444311 0.02302306
0.50480217 0.15532704 0.023017673
0.50400221 0.15645416 0.022450728
0.5040291 0.15733968 0.022445332
0.50322932 0.15847157 0.021878395
0.50987697 0.084549978 0.027255008
0.50990349 0.08542116 0.027249699
0.50992996 0.086292341 0.027244389
0.50995642 0.087163523 0.027239081
0.5108124 0.087912589 0.027795821
0.51083887 0.088782176 0.027790522
0.51086527 0.089651763 0.027785225
0.51089174 0.090521351 0.027779926
0.51091814 0.091390945 0.027774626
0.5109446 0.092260532 0.027769327
0.51097101 0.093130127 0.027764028
0.51182657 0.093866453 0.028320817
0.51185292 0.094734453 0.028315527
0.51187932 0.095602445 0.028310239
0.51107675 0.096608482 0.027742831
0.51110315 0.097478069 0.027737532
0.51112962 0.098347656 0.027732234
0.51115602 0.099217251 0.027726935
0.51118249 0.10008684 0.027721636
0.51120889 0.10095643 0.027716337
0.5112353 0.10182601 0.027711038
0.51126176 0.1026956 0.027705738
0.51128817 0.10356519 0.027700439
0.51131463 0.10443478 0.02769514
0.51051253 0.10545835 0.027127597
0.510539 0.10632953 0.027122289
0.51056546 0.10720071 0.02711698
0.51059192 0.10807189 0.027111672
0.51061845 0.10894307 0.027106363
0.51064491 0.10981425 0.027101053
0.51067138 0.11068544 0.027095744
0.51069784 0.11155663 0.027090436
0.50989622 0.1125945 0.026522838
0.5099228 0.11346728 0.02651752
0.50994933 0.11434005 0.026512202
0.50997585 0.11521283 0.026506882
0.51000237 0.1160856 0.026501564
0.5100289 0.11695838 0.026496246
0.51005542 0.11783116 0.026490927
0.51008195 0.11870392 0.026485609
0.51010847 0.11957671 0.026480291
0.51013499 0.12044948 0.026474971
0.51016152 0.12132226 0.026469653
0.51018804 0.12219502 0.026464336
0.51021457 0.1230678 0.026459016
0.51024109 0.12394057 0.026453698
0.51026762 0.12481335 0.02644838
0.5102942 0.12568614 0.02644306
0.51032072 0.1265589 0.026437743
0.51034725 0.12743168 0.026432425
0.51037377 0.12830445 0.026427107
0.5104003 0.12917723 0.026421787
0.51042682 0.13004999 0.026416469
0.51045334 0.13092278 0.026411152
0.51047987 0.13179556 0.026405832
0.50967944 0.13287166 0.025837999
0.50970596 0.13374603 0.02583267
0.50973254 0.13462038 0.025827343
0.50975913 0.13549477 0.025822014
0.50978571 0.13636912 0.025816686
0.5098123 0.13724349 0.025811357
0.50983888 0.13811786 0.02580603
0.50986546 0.13899222 0.025800701
0.50989205 0.13986661 0.025795372
0.50909203 0.14095864 0.025227444
0.50911868 0.14183459 0.025222108
0.50914532 0.14271055 0.025216769
0.5091719 0.14358652 0.025211431
0.50837219 0.14468651 0.024643455
0.50839889 0.14556406 0.024638107
0.50842553 0.14644162 0.024632759
0.50845224 0.14731917 0.024627412
0.5076527 0.14842716 0.024059352
0.5076794 0.1493063 0.024053995
0.50770611 0.15018544 0.024048638
0.50690681 0.15129977 0.023480574
0.50693357 0.15218051 0.023475207
0.50613445 0.15329963 0.022907114
0.50533539 0.15442193 0.022339001
0.50536227 0.15530585 0.022333615
0.50538909 0.15618977 0.022328228
0.50459021 0.15731846 0.021760043
0.50461709 0.15820396 0.021754647
0.50381839 0.15933742 0.021186465
0.51042902 0.084529094 0.026580807
0.51045549 0.085400268 0.026575498
0.51048195 0.086271457 0.02657019
0.51050842 0.087142639 0.026564881
0.51136339 0.087891743 0.027122859
0.51056141 0.088885002 0.026554264
0.51141626 0.089630917 0.02711226
0.51144272 0.090500504 0.027106961
0.51146913 0.091370091 0.027101662
0.51149559 0.092239685 0.027096363
0.511522 0.093109272 0.027091064
0.51154846 0.093978867 0.027085764
0.51157486 0.094848454 0.027080465
0.51160127 0.095718041 0.027075168
0.51162773 0.096587636 0.027069869
0.51165414 0.097457215 0.027064569
0.5116806 0.098326802 0.02705927
0.51170701 0.099196397 0.027053971
0.51173347 0.10006598 0.027048672
0.51093209 0.10108155 0.026479941
0.51095861 0.10195272 0.026474632
0.51098508 0.10282391 0.026469324
0.51101154 0.1036951 0.026464015
0.51103801 0.10456628 0.026458707
0.51106453 0.10543746 0.026453398
0.51109099 0.10630864 0.02644809
0.51111746 0.10717982 0.026442779
0.51114398 0.108051 0.026437471
0.51034313 0.10908248 0.025868682
0.51036966 0.10995526 0.025863362
0.51039618 0.11082803 0.025858045
0.51042271 0.11170081 0.025852727
0.51044923 0.11257358 0.025847407
0.51047581 0.11344636 0.025842089
0.51050234 0.11431912 0.025836771
0.51052886 0.11519191 0.025831452
0.51055539 0.11606468 0.025826134
0.51058191 0.11693745 0.025820816
0.51060843 0.11781023 0.025815496
0.51063496 0.118683 0.025810178
0.51066148 0.11955579 0.025804861
0.51068801 0.12042855 0.025799543
0.50988793 0.12148393 0.025230603
0.50991452 0.12235828 0.025225276
0.5099411 0.12323266 0.025219947
0.50996768 0.12410703 0.02521462
0.50999427 0.12498139 0.025209291
0.51002079 0.12585576 0.025203962
0.51004738 0.12673013 0.025198635
0.51007396 0.1276045 0.025193306
0.51010054 0.12847885 0.025187979
0.51012713 0.12935323 0.025182649
0.51015371 0.13022758 0.025177322
0.51018029 0.13110197 0.025171993
0.51020688 0.13197634 0.025166666
0.51023346 0.13285069 0.025161337
0.51025999 0.13372506 0.02515601
0.51028657 0.13459943 0.025150681
0.51031315 0.1354738 0.025145354
0.51033974 0.13634816 0.025140025
0.50954056 0.1374338 0.024570903
0.5095672 0.13830976 0.024565564
0.50959384 0.13918571 0.024560226
0.50962043 0.14006168 0.02455489
0.50964707 0.14093763 0.024549551
0.50967371 0.14181359 0.024544213
0.50887489 0.14291036 0.023975022
0.50890154 0.14378792 0.023969674
0.50892824 0.14466546 0.023964327
0.50812954 0.14576864 0.023395063
0.5081563 0.14664778 0.023389706
0.508183 0.14752692 0.023384349
0.50820971 0.14840607 0.023378991
0.50823647 0.14928521 0.023373634
0.50743812 0.15039793 0.02280435
0.50746489 0.15127866 0.022798983
0.50749165 0.15215939 0.022793615
0.50669348 0.15327847 0.022224288
0.5067203 0.1541608 0.022218913
0.50592232 0.15528466 0.021649556
0.5059492 0.15616857 0.021644171
0.50597608 0.1570525 0.021638785
0.50517821 0.15818273 0.021069355
0.50520509 0.15906824 0.021063959
0.51098102 0.084508203 0.025906611
0.51100749 0.085379384 0.025901301
0.51103395 0.086250566 0.025895992
0.51106042 0.087121755 0.025890684
0.51108694 0.087992936 0.025885375
0.51111341 0.08886411 0.025880067
0.51113987 0.089735299 0.025874758
0.51199371 0.090479657 0.026433995
0.51202011 0.091349244 0.026428696
0.51204658 0.092218839 0.026423397
0.51207298 0.093088426 0.026418097
0.51209944 0.09395802 0.026412798
0.51212585 0.0948276 0.026407499
0.51215231 0.095697187 0.0264022
0.51217872 0.096566781 0.026396902
0.51137817 0.097575933 0.025826979
0.51140469 0.098447122 0.025821671
0.51143116 0.099318296 0.025816362
0.51145762 0.10018948 0.025811054
0.51148415 0.10106067 0.025805743
0.51151061 0.10193184 0.025800435
0.51153708 0.10280303 0.025795126
0.510737 0.10382491 0.025225163
0.51076353 0.10469769 0.025219843
0.51079005 0.10557046 0.025214525
0.51081657 0.10644323 0.025209207
0.5108431 0.10731601 0.025203887
0.51086962 0.10818879 0.02519857
0.51089615 0.10906155 0.025193252
0.51092267 0.10993433 0.025187932
0.51094919 0.11080711 0.025182614
0.51097572 0.11167989 0.025177296
0.51017618 0.11271929 0.024607221
0.51020277 0.11359365 0.024601893
0.51022935 0.11446802 0.024596564
0.51025593 0.11534239 0.024591237
0.51028252 0.11621675 0.024585908
0.5103091 0.11709113 0.024580581
0.51033562 0.1179655 0.024575252
0.51036221 0.11883985 0.024569925
0.51038879 0.11971423 0.024564596
0.51041538 0.12058859 0.024559269
0.51044196 0.12146296 0.02455394
0.51046854 0.12233733 0.024548613
0.51049513 0.12321169 0.024543284
0.51052171 0.12408606 0.024537956
0.51054829 0.12496043 0.024532627
0.51057482 0.12583481 0.024527298
0.5106014 0.12670916 0.024521971
0.51062799 0.12758353 0.024516642
0.51065457 0.1284579 0.024511315
0.51068115 0.12933226 0.024505986
0.50988263 0.13040511 0.023935709
0.50990921 0.13128108 0.023930371
0.50993586 0.13215703 0.023925032
0.5099625 0.13303299 0.023919694
0.50998908 0.13390896 0.023914358
0.51001573 0.13478491 0.023909019
0.51004237 0.13566087 0.023903681
0.51006901 0.13653684 0.023898343
0.5100956 0.13741279 0.023893006
0.51012224 0.13828875 0.023887668
0.51014888 0.1391647 0.023882329
0.5093509 0.14025667 0.023311937
0.5093776 0.14113423 0.02330659
0.50940424 0.14201178 0.023301242
0.50943094 0.14288934 0.023295896
0.50863314 0.14398926 0.02272542
0.5086599 0.1448684 0.022720063
0.5086866 0.14574756 0.022714706
0.5087133 0.14662671 0.022709347
0.50874007 0.14750585 0.02270399
0.50794262 0.14861533 0.02213349
0.50796938 0.14949606 0.022128122
0.50799614 0.1503768 0.022122756
0.50802296 0.15125754 0.022117389
0.50804973 0.15213828 0.022112021
0.50725257 0.15325733 0.021541461
0.5072794 0.15413964 0.021536086
0.50648242 0.15526347 0.0209655
0.50650924 0.15614738 0.020960113
0.50571239 0.15727599 0.020389462
0.50573927 0.15816151 0.020384068
0.50576621 0.15904701 0.020378672
0.51153302 0.084487319 0.02523241
0.51155949 0.0853585 0.025227102
0.51158595 0.086229682 0.025221793
0.51161242 0.087100863 0.025216484
0.51163894 0.087972045 0.025211176
0.5116654 0.088843226 0.025205867
0.51169187 0.089714408 0.025200559
