# .PCD v0.7 - Point Cloud Data file format
VERSION 0.7
FIELDS x y z
SIZE 4 4 4
TYPE F F F
COUNT 1 1 1
WIDTH 1353
HEIGHT 1
VIEWPOINT 0 0 0 1 0 0 0
POINTS 1353
DATA ascii
0.70869696 0.056043513 0.0051001469
0.70868659 0.057478126 0.0050761439
0.70867616 0.058912735 0.0050521414
0.70866573 0.060347348 0.0050281384
0.7086553 0.061781961 0.0050041354
0.70864487 0.063216574 0.0049801324
0.70863444 0.064651184 0.0049561299
0.70862401 0.066085801 0.004932127
0.70994931 0.067659654 0.0063973153
0.70993888 0.06909027 0.0063733794
0.70992851 0.070520893 0.006349443
0.70991808 0.071951516 0.0063255071
0.70990771 0.073382139 0.0063015711
0.70989734 0.074812762 0.0062776348
0.71055484 0.076301031 0.0069984738
0.71054447 0.077729657 0.0069745709
0.7105341 0.079158284 0.0069506681
0.71052372 0.08058691 0.0069267657
0.71051329 0.082015537 0.0069028628
0.71050292 0.083444163 0.0068789599
0.71049255 0.08487279 0.0068550576
0.71048218 0.086301416 0.0068311547
0.71047181 0.087730043 0.0068072518
0.71046144 0.089158669 0.0067833494
0.71045107 0.090587296 0.0067594466
0.71044064 0.092015922 0.0067355442
0.71043026 0.093444549 0.0067116413
0.71041989 0.094873175 0.0066877385
0.71040952 0.096301802 0.0066638361
0.71039915 0.097730428 0.0066399332
0.71038878 0.099159054 0.0066160304
0.71037841 0.10058767 0.006592128
0.71036798 0.10201631 0.0065682251
0.71035761 0.10344493 0.0065443222
0.71034724 0.10487355 0.0065204198
0.71033686 0.10630218 0.006496517
0.71032649 0.10773081 0.0064726141
0.71031612 0.10915943 0.0064487117
0.71030575 0.11058806 0.0064248089
0.71029532 0.11201669 0.0064009065
0.71028495 0.11344531 0.0063770036
0.71027458 0.11487394 0.0063531008
0.71026421 0.11630256 0.0063291984
0.71025383 0.11773119 0.0063052955
0.71024346 0.11915982 0.0062813926
0.71156979 0.12058003 0.0077491095
0.71155941 0.12200467 0.0077252733
0.7115491 0.12342931 0.0077014375
0.71020192 0.12487432 0.0061857821
0.71019155 0.12630296 0.0061618793
0.71018118 0.12773158 0.0061379764
0.71017081 0.12916021 0.006114074
0.71016043 0.13058883 0.0060901712
0.71015 0.13201746 0.0060662683
0.71013963 0.13344608 0.0060423659
0.71012926 0.13487472 0.0060184631
0.71011889 0.13630334 0.0059945607
0.71010852 0.13773197 0.0059706578
0.71009815 0.13916059 0.0059467549
0.71142489 0.14052494 0.0074154064
0.71141452 0.14194958 0.0073915706
0.71140414 0.1433742 0.0073677343
0.71139383 0.14479885 0.0073438985
0.71138346 0.14622349 0.0073200627
0.71137309 0.14764811 0.0072962269
0.71136278 0.14907275 0.0072723906
0.71135241 0.15049739 0.0072485548
0.7113421 0.15192202 0.007224719
0.71133173 0.15334666 0.0072008832
0.71132135 0.1547713 0.007177047
0.71131104 0.15619592 0.0071532112
0.71130067 0.15762056 0.0071293754
0.7112903 0.1590452 0.0071055396
0.71127999 0.16046983 0.0070817033
0.71126962 0.16189447 0.0070578675
0.71125925 0.16331911 0.0070340317
0.71124893 0.16474374 0.0070101959
0.71123856 0.16616838 0.0069863596
0.71122819 0.16759302 0.0069625238
0.71121788 0.16901766 0.006938688
0.71120751 0.17044228 0.0069148517
0.71119714 0.17186692 0.0068910159
0.71118683 0.17329156 0.0068671801
0.71117646 0.1747162 0.0068433443
0.71116608 0.17614083 0.006819508
0.71115577 0.17756547 0.0067956722
0.7111454 0.17899011 0.0067718364
0.71113503 0.18041474 0.0067480002
0.71112472 0.18183938 0.0067241644
0.71111435 0.18326402 0.0067003286
0.71110398 0.18468864 0.0066764927
0.71109366 0.18611328 0.0066526569
0.71108329 0.18753792 0.0066288207
0.71107292 0.18896256 0.0066049849
0.71106261 0.19038719 0.0065811491
0.70971406 0.19201976 0.0050623552
0.70970368 0.19344839 0.0050384528
0.70969331 0.19487701 0.0050145499
0.70968294 0.19630565 0.0049906475
0.70967257 0.19773427 0.0049667447
0.7096622 0.1991629 0.0049428418
0.70965177 0.20059152 0.0049189394
0.7096414 0.20202015 0.0048950366
0.70963103 0.20344877 0.0048711337
0.70962065 0.20487741 0.0048472309
0.70894104 0.20642996 0.0040755155
0.70893067 0.20786057 0.0040515796
0.70892024 0.2092912 0.0040276437
0.70957911 0.21059191 0.0047516203
0.70956874 0.21202053 0.0047277175
0.70955837 0.21344917 0.0047038151
0.709548 0.21487778 0.0046799122
0.70953763 0.21630642 0.0046560094
0.70952725 0.21773504 0.004632107
0.70951688 0.21916366 0.0046082041
0.70950645 0.22059229 0.0045843017
0.70949608 0.22202091 0.0045603989
0.70948571 0.22344954 0.004536496
0.70947534 0.22487818 0.0045125936
0.70946497 0.2263068 0.0044886908
0.7094546 0.22773543 0.0044647879
0.70944422 0.22916405 0.0044408855
0.70943379 0.23059267 0.0044169826
0.70942342 0.2320213 0.0043930798
0.70941305 0.23344992 0.0043691774
0.70940268 0.23487855 0.0043452745
0.70939231 0.23630719 0.0043213717
0.70938194 0.23773581 0.0042974693
0.70937157 0.23916444 0.0042735664
0.70936114 0.24059306 0.004249664
0.70935076 0.24202169 0.0042257612
0.70934039 0.24345031 0.0042018583
0.70933002 0.24487895 0.0041779554
0.70931965 0.24630757 0.0041540531
0.71064854 0.24737261 0.0056277118
0.71063823 0.24879725 0.005603876
0.71062785 0.25022188 0.0055800402
0.71061754 0.25164652 0.0055562044
0.71060717 0.25307116 0.0055323681
0.7105968 0.2544958 0.0055085323
0.71058649 0.25592044 0.0054846965
0.71057612 0.25734505 0.0054608607
0.71056575 0.25876969 0.0054370244
0.71055543 0.26019433 0.0054131886
0.71054506 0.26161897 0.0053893528
0.71053469 0.26304361 0.0053655165
0.71052438 0.26446825 0.0053416807
0.71051401 0.26589289 0.0053178449
0.71050364 0.2673175 0.0052940091
0.71049333 0.26874214 0.0052701728
0.71048295 0.27016678 0.005246337
0.71047258 0.27159142 0.0052225012
0.71046227 0.27301607 0.0051986654
0.7104519 0.27444068 0.0051748296
0.71044153 0.27586532 0.0051509934
0.71043122 0.27728996 0.0051271576
0.71042085 0.2787146 0.0051033217
0.71041048 0.28013924 0.0050794855
0.71040016 0.28156388 0.0050556497
0.71038979 0.28298852 0.0050318139
0.71037942 0.28441316 0.0050079776
0.71036911 0.28583777 0.0049841418
0.71102881 0.28702477 0.0057100216
0.71101844 0.28844741 0.0056862189
0.71100813 0.28987005 0.0056624166
0.71099782 0.2912927 0.0056386138
0.71098745 0.29271531 0.0056148116
0.71097714 0.29413795 0.0055910088
0.71096677 0.29556063 0.0055672061
0.71095645 0.29698324 0.0055434038
0.71094608 0.29840589 0.0055196011
0.71093577 0.29982853 0.0054957983
0.71092546 0.30125117 0.005471996
0.71091509 0.30267382 0.0054481933
0.71090478 0.30409646 0.005424391
0.71089441 0.30551907 0.0054005883
0.71088409 0.30694172 0.005376786
0.71087378 0.30836439 0.0053529833
0.71086341 0.30978701 0.005329181
0.71018279 0.31148124 0.004555095
0.71017241 0.31290585 0.0045312592
0.7101621 0.31433049 0.0045074234
0.71015173 0.31575513 0.0044835876
0.71014136 0.31717977 0.0044597518
0.71013105 0.31860441 0.0044359155
0.71012068 0.32002902 0.0044120797
0.71078074 0.32116815 0.0051387604
0.71077037 0.32259077 0.0051149582
0.71076006 0.32401341 0.0050911554
0.71209067 0.324853 0.0065686288
0.71208036 0.32627165 0.0065448931
0.71207005 0.3276903 0.0065211575
0.71205974 0.32910895 0.0064974218
0.71204942 0.3305276 0.0064736861
0.71203911 0.33194625 0.0064499499
0.7120288 0.3333649 0.0064262142
0.71201849 0.33478355 0.0064024786
0.71200818 0.3362022 0.0063787429
0.71199787 0.33762085 0.0063550072
0.71198756 0.3390395 0.006331271
0.7119773 0.34045815 0.0063075353
0.71196699 0.3418768 0.0062837997
0.71195668 0.34329545 0.006260064
0.71194637 0.34471411 0.0062363283
0.71193606 0.34613276 0.0062125921
0.71192575 0.34755141 0.0061888564
0.71191543 0.34897006 0.0061651208
0.71190512 0.35038871 0.0061413851
0.71189481 0.35180736 0.0061176494
0.7118845 0.35322601 0.0060939137
0.71187419 0.35464466 0.0060701775
0.71186388 0.35606331 0.0060464418
0.71185356 0.35748196 0.0060227062
0.71184325 0.35890061 0.00599897
0.711833 0.36031926 0.0059752343
0.71182269 0.36173791 0.0059514986
0.71181238 0.36315653 0.0059277634
0.71247292 0.3642278 0.006655579
0.7124626 0.36564445 0.0066318768
0.71245229 0.36706114 0.0066081737
0.70617086 -0.099563062 0.0014708692
0.70616031 -0.098114491 0.0014466328
0.70681459 -0.096370794 0.002164593
0.70680404 -0.094924226 0.0021403902
0.70679355 -0.093477637 0.002116187
0.70678306 -0.092031047 0.0020919838
0.70677251 -0.090584457 0.0020677806
0.70809174 -0.088567629 0.0035283053
0.70808125 -0.087125048 0.0035041692
0.70807076 -0.085682452 0.0034800328
0.70806026 -0.084239863 0.0034558964
0.70804977 -0.082797267 0.0034317598
0.70803928 -0.08135467 0.0034076234
0.70802879 -0.079912074 0.003383487
0.70801836 -0.078469478 0.0033593506
0.70800787 -0.077026889 0.0033352142
0.70799738 -0.075584292 0.0033110778
0.70665693 -0.074672043 0.001801546
0.70664638 -0.073225453 0.0017773428
0.70663589 -0.071778864 0.0017531395
0.70795548 -0.069813929 0.0032145325
0.70794499 -0.068371333 0.0031903961
0.7079345 -0.066928737 0.0031662597
0.70792401 -0.065486141 0.0031421233
0.70791352 -0.064043544 0.003117987
0.70790303 -0.062600955 0.0030938506
0.70789254 -0.061158359 0.0030697142
0.70788211 -0.059715763 0.0030455778
0.70787162 -0.05827317 0.0030214412
0.70786113 -0.056830589 0.002997305
0.70785064 -0.055387992 0.0029731686
0.70784014 -0.0539454 0.0029490322
0.70782965 -0.052502804 0.0029248958
0.70781922 -0.051060211 0.0029007595
0.70780873 -0.049617615 0.0028766231
0.70779824 -0.048175022 0.0028524867
0.70778775 -0.046732426 0.0028283503
0.70777726 -0.045289829 0.0028042139
0.70843208 -0.043623965 0.0035234736
0.70842165 -0.042183369 0.0034993708
0.70774585 -0.040962063 0.002731805
0.70773536 -0.039519466 0.0027076686
0.70839024 -0.037861574 0.0034270617
0.70837975 -0.036420975 0.0034029586
0.70836931 -0.034980375 0.0033788558
0.70835882 -0.033539779 0.0033547527
0.70834833 -0.03209918 0.0033306498
0.70767248 -0.030863898 0.00256285
0.70766199 -0.029421303 0.0025387136
0.7076515 -0.027978709 0.0025145772
0.70764101 -0.026536129 0.0024904411
0.70763052 -0.025093533 0.0024663047
0.70828557 -0.02345559 0.0031860317
0.70827508 -0.02201499 0.0031619286
0.70826465 -0.020574393 0.0031378258
0.70825416 -0.019133803 0.0031137229
0.70824367 -0.017693203 0.0030896198
0.70823324 -0.016252605 0.0030655169
0.70822275 -0.014812007 0.0030414138
0.70821232 -0.013371408 0.0030173108
0.70820183 -0.01193081 0.0029932079
0.70819134 -0.010490212 0.0029691048
0.7081809 -0.009049613 0.0029450019
0.70817041 -0.0076090149 0.0029208988
0.70815998 -0.0061684167 0.0028967957
0.70948094 -0.0043890248 0.0043613357
0.70947045 -0.0029524195 0.0043372996
0.70946002 -0.0015158139 0.0043132631
0.70944959 -7.9200974e-05 0.0042892271
0.70943916 0.0013574045 0.0042651906
0.70942873 0.0027940101 0.0042411545
0.7094183 0.0042306157 0.0042171185
0.70940787 0.0056672283 0.004193082
0.70939744 0.0071038338 0.0041690459
0.709387 0.0085404394 0.0041450094
0.70937651 0.0099770445 0.0041209734
0.70936608 0.011413658 0.0040969369
0.71002156 0.012995725 0.004817599
0.71001112 0.014430334 0.004793596
0.71000069 0.01586495 0.004769593
0.70999026 0.017299559 0.0047455905
0.7113117 0.019009121 0.0062112985
0.71130133 0.020439744 0.0061873626
0.71129096 0.021870369 0.0061634262
0.71128052 0.023300985 0.0061394903
0.71127015 0.024731608 0.0061155544
0.71125978 0.026162231 0.006091618
0.71124935 0.027592849 0.0060676821
0.71123898 0.029023472 0.0060437461
0.71122855 0.030454095 0.0060198097
0.71121818 0.031884719 0.0059958738
0.71120781 0.033315334 0.0059719379
0.71119738 0.034745958 0.0059480015
0.71118701 0.036176585 0.0059240656
0.71117657 0.037607208 0.0059001292
0.7111662 0.039037824 0.0058761933
0.71115583 0.040468439 0.0058522574
0.7111454 0.041899063 0.0058283214
0.71113503 0.043329686 0.0058043851
0.7111246 0.044760305 0.0057804491
0.71111423 0.046190929 0.0057565132
0.71110386 0.047621548 0.0057325768
0.71175969 0.049147747 0.0064541763
0.71174932 0.05057637 0.0064302734
0.71173888 0.052004997 0.006406371
0.71172851 0.053433623 0.0063824682
0.71171814 0.054862253 0.0063585653
0.71170777 0.056290876 0.0063346629
0.7116974 0.057719503 0.00631076
0.71168703 0.059148129 0.0062868576
0.71167666 0.060576756 0.0062629548
0.71166623 0.062005386 0.0062390519
0.71165586 0.063434005 0.0062151495
0.71164548 0.064862639 0.0061912467
0.71163511 0.066291265 0.0061673438
0.71162474 0.067719892 0.0061434414
0.71161437 0.069148511 0.0061195386
0.711604 0.070577137 0.0060956357
0.71159357 0.072005771 0.0060717333
0.7115832 0.073434398 0.0060478305
0.71290582 0.074982338 0.0075162002
0.71289545 0.076406971 0.0074923644
0.71288508 0.077831604 0.0074685286
0.71287477 0.079256244 0.0074446928
0.7128644 0.080680877 0.0074208565
0.71285409 0.08210551 0.0073970207
0.71284372 0.08353015 0.0073731849
0.71283334 0.084954783 0.0073493491
0.71282303 0.086379424 0.0073255128
0.71347928 0.087845758 0.0080481134
0.71346891 0.089268394 0.0080243116
0.7134586 0.090691037 0.0080005089
0.71278161 0.092077963 0.0072301691
0.71277124 0.093502596 0.0072063333
0.71276093 0.094927236 0.0071824975
0.71341723 0.096381597 0.0079052988
0.71274018 0.09777651 0.0071348255
0.71339661 0.099226877 0.0078576934
0.71338624 0.10064952 0.0078338906
0.71337593 0.10207216 0.0078100883
0.71336555 0.1034948 0.0077862856
0.71335524 0.10491744 0.0077624833
0.71334493 0.10634008 0.0077386806
0.71333456 0.10776272 0.0077148783
0.71465796 0.1092089 0.0091849929
0.71464765 0.11062755 0.0091612572
0.71463734 0.1120462 0.0091375215
0.71462703 0.11346485 0.0091137858
0.71461672 0.1148835 0.0090900501
0.7146064 0.11630215 0.0090663144
0.71459609 0.11772081 0.0090425778
0.71458578 0.11913946 0.0090188421
0.71457547 0.12055811 0.0089951064
0.71456516 0.12197676 0.0089713708
0.71455485 0.12339541 0.0089476351
0.71454453 0.12481406 0.0089238994
0.71453428 0.1262327 0.0089001637
0.71452397 0.12765135 0.008876428
0.71451366 0.12907 0.0088526923
0.71316916 0.13052496 0.0073340377
0.71315885 0.13194761 0.0073102349
0.71314853 0.13337025 0.0072864322
0.71313816 0.13479289 0.0072626299
0.71312785 0.13621554 0.0072388272
0.71311748 0.13763817 0.0072150249
0.71444148 0.13900055 0.0086865416
0.71443117 0.1404192 0.0086628059
0.71442086 0.14183785 0.0086390702
0.71441054 0.1432565 0.0086153345
0.71440029 0.14467515 0.0085915988
0.71438998 0.1460938 0.0085678631
0.71304518 0.14759666 0.0070484071
0.71303481 0.1490193 0.0070246044
0.7130245 0.15044193 0.0070008021
0.71301413 0.15186457 0.0069769993
0.71300381 0.15328722 0.0069531966
0.71299344 0.15470986 0.0069293943
0.7143178 0.15602435 0.0084017124
0.71430749 0.157443 0.0083779767
0.71429718 0.15886165 0.008354241
0.71428686 0.1602803 0.0083305053
0.71427655 0.16169895 0.0083067697
0.71426624 0.1631176 0.008283033
0.71425599 0.16453625 0.0082592973
0.71424568 0.1659549 0.0082355617
0.71423537 0.16737355 0.008211826
0.71422505 0.1687922 0.0081880903
0.71421474 0.17021085 0.0081643546
0.71420443 0.1716295 0.0081406189
0.71419412 0.17304815 0.0081168832
0.71284878 0.17462683 0.0065961587
0.71283841 0.17604946 0.006572356
0.7128281 0.17747211 0.0065485537
0.71281773 0.17889474 0.006524751
0.71280742 0.18031739 0.0065009487
0.71279711 0.18174003 0.0064771459
0.71211916 0.18325466 0.0057046697
0.71210879 0.18467928 0.0056808339
0.71209848 0.18610393 0.0056569981
0.71208811 0.18752857 0.0056331619
0.71207774 0.18895321 0.0056093261
0.71206743 0.19037783 0.0055854903
0.71272475 0.19169851 0.0063105281
0.71271437 0.19312115 0.0062867254
0.71270406 0.19454379 0.0062629231
0.71269369 0.19596644 0.0062391204
0.71268338 0.19738907 0.0062153181
0.71200532 0.19892564 0.0054424745
0.71199495 0.20035028 0.0054186387
0.71198457 0.20177491 0.0053948029
0.71197426 0.20319955 0.0053709671
0.71196389 0.20462419 0.0053471308
0.71195352 0.20604883 0.005323295
0.71194321 0.20747346 0.0052994592
0.71193284 0.2088981 0.0052756234
0.71192247 0.21032274 0.0052517871
0.71191216 0.21174738 0.0052279513
0.71190178 0.213172 0.0052041155
0.71189141 0.21459664 0.0051802797
0.7118811 0.21602127 0.0051564435
0.71253866 0.21730603 0.0058820825
0.71252835 0.21872868 0.0058582798
0.71251798 0.22015132 0.005834477
0.71250767 0.22157396 0.0058106747
0.71383333 0.22270089 0.0072861309
0.71248698 0.22441924 0.0057630697
0.71247667 0.22584188 0.005739267
0.7124663 0.22726452 0.0057154647
0.71245599 0.22868717 0.005691662
0.71244562 0.2301098 0.0056678597
0.71243531 0.23153245 0.0056440569
0.71242499 0.23295508 0.0056202547
0.71241462 0.23437773 0.0055964519
0.71240431 0.23580037 0.0055726492
0.71239394 0.237223 0.0055488469
0.71238363 0.23864564 0.0055250442
0.71237332 0.24006829 0.0055012414
0.71236295 0.24149092 0.0054774391
0.71235263 0.24291357 0.0054536364
0.71367878 0.24398063 0.0069300942
0.71366847 0.2453993 0.0069063585
0.71365815 0.24681795 0.0068826228
0.71364784 0.2482366 0.0068588867
0.71363753 0.24965523 0.0068351515
0.71362722 0.2510739 0.0068114153
0.71361691 0.25249255 0.0067876796
0.7136066 0.2539112 0.0067639439
0.71359628 0.25532985 0.0067402082
0.71358597 0.25674847 0.0067164726
0.71357566 0.25816715 0.0066927364
0.71356535 0.2595858 0.0066690007
0.71355504 0.26100445 0.006645265
0.71354479 0.2624231 0.0066215293
0.71353447 0.26384175 0.0065977932
0.71352416 0.26526037 0.006574058
0.71351385 0.26667905 0.0065503218
0.71350354 0.2680977 0.0065265861
0.71349323 0.26951635 0.0065028504
0.71348292 0.270935 0.0064791143
0.7134726 0.27235362 0.0064553791
0.71346229 0.27377227 0.0064316429
0.71345198 0.27519095 0.0064079072
0.71344167 0.2766096 0.0063841715
0.71343136 0.27802825 0.0063604359
0.71342105 0.2794469 0.0063366997
0.71341074 0.28086552 0.0063129645
0.71340048 0.28228417 0.0062892283
0.71339017 0.28370282 0.0062654926
0.71337986 0.2851215 0.006241757
0.71403819 0.28630251 0.0069691287
0.71402788 0.28771916 0.0069454261
0.71401757 0.28913581 0.006921724
0.71400732 0.29055247 0.0068980218
0.71399701 0.29196912 0.0068743192
0.71398669 0.29338577 0.006850617
0.71397644 0.29480243 0.0068269144
0.71396613 0.29621908 0.0068032122
0.71395582 0.29763573 0.0067795096
0.71394557 0.29905239 0.006755807
0.71393526 0.30046904 0.0067321048
0.71325618 0.3021453 0.0059569273
0.71324587 0.30356395 0.0059331916
0.71323556 0.30498257 0.0059094559
0.71322525 0.30640122 0.0058857203
0.71321493 0.30781987 0.0058619846
0.71320462 0.30923852 0.0058382484
0.71319431 0.3106572 0.0058145127
0.713184 0.31207582 0.005790777
0.71317369 0.31349447 0.0057670414
0.71316338 0.31491312 0.0057433057
0.71315306 0.31633177 0.0057195695
0.71314275 0.31775042 0.0056958338
0.71313244 0.3191691 0.0056720981
0.71312213 0.32058772 0.0056483625
0.71378088 0.32171887 0.0063765692
0.71377057 0.32313552 0.0063528665
0.71376026 0.32455218 0.0063291644
0.71375 0.32596883 0.0063054617
0.71373969 0.32738549 0.0062817591
0.71372938 0.32880214 0.006258057
0.71371913 0.33021879 0.0062343548
0.71370882 0.33163545 0.0062106522
0.71369851 0.3330521 0.00618695
0.71368825 0.33446875 0.0061632474
0.71367794 0.33588541 0.0061395452
0.71366763 0.33730206 0.0061158426
0.71365738 0.33871871 0.0060921405
0.71364707 0.34013537 0.0060684378
0.71363676 0.34155205 0.0060447352
0.71362644 0.3429687 0.006021033
0.71361619 0.34438533 0.0059973309
0.71360588 0.34580198 0.0059736283
0.71359557 0.34721863 0.0059499261
0.71358532 0.34863532 0.0059262235
0.71357501 0.35005197 0.0059025213
0.71356469 0.35146862 0.0058788187
0.71355444 0.35288528 0.0058551165
0.71354413 0.35430193 0.0058314139
0.71353382 0.35571858 0.0058077113
0.71352357 0.35713524 0.0057840091
0.71351326 0.35855189 0.0057603065
0.71350294 0.35996854 0.0057366043
0.71349269 0.3613852 0.0057129017
0.71348238 0.36280185 0.0056891995
0.71481103 0.36352372 0.007171433
0.71480078 0.36493638 0.0071477974
0.71479046 0.36634907 0.0071241618
0.71478021 0.36776173 0.0071005258
0.70785588 -0.099273473 0.0012020018
0.70784533 -0.097826883 0.0011777986
0.70916158 -0.095790081 0.0026407768
0.70915109 -0.094347484 0.0026166404
0.7091406 -0.092904888 0.002592504
0.70913017 -0.091462292 0.0025683676
0.70911968 -0.090019703 0.0025442312
0.70910919 -0.088577107 0.0025200949
0.7090987 -0.087134525 0.0024959587
0.70908821 -0.085691929 0.0024718223
0.70907772 -0.084249333 0.0024476859
0.70906729 -0.082806744 0.0024235495
0.70905679 -0.081364147 0.0023994131
0.7090463 -0.079921551 0.0023752768
0.70903581 -0.078478955 0.0023511404
0.70902532 -0.077036358 0.002327004
0.70901483 -0.07559377 0.0023028674
0.70900434 -0.074151173 0.002278731
0.70899391 -0.072708592 0.0022545948
0.70898342 -0.071265996 0.0022304584
0.70897293 -0.069823399 0.002206322
0.70896244 -0.06838081 0.0021821856
0.70895195 -0.066938214 0.0021580493
0.70894146 -0.065495618 0.0021339129
0.70959467 -0.063801803 0.0028541002
0.70958424 -0.062361207 0.0028299973
0.70957375 -0.060920611 0.0028058942
0.70956331 -0.059480011 0.0027817911
0.70955282 -0.058039412 0.0027576883
0.70954233 -0.056598812 0.0027335852
0.7095319 -0.055158217 0.0027094823
0.70952141 -0.053717617 0.0026853792
0.70951098 -0.052277017 0.0026612761
0.70950049 -0.050836422 0.0026371733
0.70949 -0.049395822 0.0026130702
0.70947957 -0.047955222 0.0025889673
0.70946908 -0.046514627 0.0025648642
0.70945865 -0.045074027 0.0025407611
0.70944816 -0.043633427 0.0025166583
0.70943767 -0.042192832 0.0024925552
0.70942724 -0.040752232 0.0024684523
0.70941675 -0.039311633 0.0024443492
0.70940632 -0.037871037 0.0024202461
0.70939583 -0.036430437 0.0023961433
0.70938534 -0.034989838 0.0023720402
0.7093749 -0.033549242 0.0023479373
0.70936441 -0.032108642 0.0023238342
0.70935398 -0.030668044 0.0022997311
0.70934349 -0.029227445 0.0022756283
0.709333 -0.027786847 0.0022515252
0.70932257 -0.02634625 0.0022274223
0.70931208 -0.02490565 0.0022033192
0.70930165 -0.023465052 0.0021792161
0.71061939 -0.021637751 0.0036457446
0.71060896 -0.020201145 0.0036217086
0.71059853 -0.018764539 0.0035976723
0.7105881 -0.017327933 0.0035736361
0.71057767 -0.015891321 0.0035495998
0.71056724 -0.014454715 0.0035255635
0.71055681 -0.01301811 0.0035015275
0.71054637 -0.011581504 0.0034774912
0.71053588 -0.010144891 0.0034534549
0.71052545 -0.0087082852 0.0034294187
0.71051502 -0.00727168 0.0034053824
0.71050459 -0.005835067 0.0033813461
0.71115845 -0.004229045 0.0041030026
0.71114802 -0.0027944359 0.0040789996
0.71113759 -0.0013598193 0.0040549967
0.71245587 0.00040164578 0.0055226265
0.7124455 0.001832262 0.0054986905
0.71243507 0.0032628856 0.0054747546
0.7124247 0.0046935095 0.0054508182
0.71241432 0.0061241332 0.0054268823
0.71240389 0.007554749 0.0054029464
0.71239352 0.0089853732 0.0053790105
0.71238309 0.010415996 0.0053550741
0.71237272 0.011846613 0.0053311381
0.71236235 0.013277236 0.0053072022
0.71235192 0.014707861 0.0052832658
0.71234155 0.016138485 0.0052593299
0.71233112 0.0175691 0.005235394
0.71232074 0.018999724 0.0052114576
0.71231037 0.020430347 0.0051875217
0.71229994 0.02186097 0.0051635853
0.71228957 0.023291588 0.0051396494
0.71294373 0.024851713 0.0058620735
0.71293336 0.026280342 0.0058381706
0.71292299 0.027708968 0.0058142683
0.71291262 0.029137596 0.0057903654
0.71290225 0.030566216 0.005766463
0.71289188 0.031994842 0.0057425601
0.71288145 0.033423468 0.0057186573
0.71220642 0.034736563 0.0049481611
0.71219599 0.036167186 0.0049242247
0.71218562 0.037597809 0.0049002888
0.71217525 0.039028425 0.0048763528
0.71216482 0.040459041 0.0048524165
0.71281922 0.041995227 0.0055752415
0.71280879 0.043423858 0.0055513387
0.71279842 0.04485248 0.0055274358
0.71278805 0.046281107 0.0055035334
0.71277767 0.047709737 0.0054796305
0.7140969 0.04932953 0.0069495887
0.71408659 0.050754167 0.0069257524
0.71407622 0.052178804 0.0069019166
0.71406585 0.053603437 0.0068780808
0.71405554 0.055028073 0.006854245
0.71404517 0.05645271 0.0068304087
0.7140348 0.057877347 0.0068065729
0.71402448 0.05930198 0.0067827371
0.71401411 0.060726617 0.0067589008
0.7140038 0.062151253 0.006735065
0.71399343 0.063575886 0.0067112292
0.71398306 0.065000527 0.0066873934
0.71397275 0.06642516 0.0066635571
0.71396238 0.0678498 0.0066397213
0.713952 0.069274433 0.0066158855
0.71394169 0.070699066 0.0065920497
0.71393132 0.072123706 0.0065682135
0.71392095 0.073548339 0.0065443777
0.71391064 0.07497298 0.0065205419
0.71390027 0.076397613 0.0064967056
0.7138899 0.077822246 0.0064728698
0.71454471 0.079300568 0.0071966625
0.71453434 0.080723204 0.0071728602
0.71452403 0.082145847 0.0071490575
0.71451366 0.083568491 0.0071252552
0.71450335 0.084991127 0.0071014524
0.71449304 0.086413771 0.0070776502
0.71581316 0.087919839 0.0085495533
0.71580285 0.089338489 0.0085258177
0.71579254 0.090757139 0.008502082
0.71578223 0.092175789 0.0084783453
0.71577191 0.093594439 0.0084546097
0.7157616 0.095013089 0.008430874
0.71575129 0.09643174 0.0084071383
0.71574098 0.09785039 0.0083834026
0.71573067 0.09926904 0.0083596669
0.71572036 0.10068768 0.0083359312
0.71571004 0.10210633 0.0083121955
0.71569973 0.10352498 0.0082884599
0.71568942 0.10494363 0.0082647242
0.71567917 0.10636228 0.0082409875
0.71566886 0.10778093 0.0082172519
0.71565855 0.10919958 0.0081935162
0.71631366 0.11062802 0.0089181466
0.71630335 0.11204468 0.0088944444
0.71562761 0.11345553 0.0081223091
0.7156173 0.11487418 0.0080985734
0.71560699 0.11629283 0.0080748377
0.71559668 0.11771148 0.008051102
0.71558636 0.11913013 0.0080273664
0.71557605 0.12054878 0.0080036307
0.71556574 0.12196743 0.0079798941
0.71555543 0.12338609 0.0079561584
0.71554512 0.12480474 0.0079324227
0.71553487 0.12622339 0.007908687
0.71552455 0.12764204 0.0078849513
0.71551424 0.12906069 0.0078612156
0.71550393 0.13047934 0.0078374799
0.71549362 0.13189799 0.0078137442
0.71548331 0.13331664 0.0077900081
0.715473 0.13473529 0.0077662724
0.71546268 0.13615394 0.0077425367
0.71545237 0.13757259 0.007718801
0.71544206 0.13899124 0.0076950653
0.71543175 0.14040989 0.0076713292
0.71542144 0.14182854 0.0076475935
0.71541113 0.14324719 0.0076238578
0.71540082 0.14466584 0.0076001221
0.71539056 0.14608449 0.0075763864
0.71538025 0.14750314 0.0075526503
0.71536994 0.14892179 0.0075289146
0.71535963 0.15034044 0.0075051789
0.71534932 0.15175909 0.0074814432
0.715339 0.15317774 0.0074577075
0.71532869 0.15459639 0.0074339714
0.71531838 0.15601504 0.0074102357
0.71530807 0.15743369 0.0073865
0.71529776 0.15885234 0.0073627643
0.71528745 0.16027099 0.0073390286
0.71527714 0.16168964 0.007315293
0.71526682 0.16310829 0.0072915568
0.71525657 0.16452694 0.0072678211
0.71591222 0.16587755 0.0079937531
0.71390384 0.16750428 0.005720905
0.71389353 0.16892692 0.0056971023
0.71388316 0.17034955 0.0056733
0.71387285 0.1717722 0.0056494973
0.71386248 0.17319484 0.005625695
0.71385217 0.17461748 0.0056018922
0.7138418 0.17604011 0.00557809
0.71383148 0.17746276 0.0055542872
0.71382117 0.1788854 0.0055304845
0.7138108 0.18030804 0.0055066822
0.71380049 0.18173069 0.0054828795
0.71379012 0.18315332 0.0054590772
0.71377981 0.18457596 0.0054352744
0.71510196 0.18580668 0.0069117844
0.71509165 0.18722534 0.0068880487
0.71508133 0.18864398 0.006864313
0.71507102 0.19006263 0.0068405773
0.71506071 0.19148129 0.0068168412
0.7150504 0.19289993 0.0067931055
0.71504009 0.19431858 0.0067693698
0.71502978 0.19573723 0.0067456341
0.71368676 0.19737972 0.0052210516
0.71367645 0.19880237 0.0051972489
0.71366608 0.20022501 0.0051734466
0.71365577 0.20164764 0.0051496439
0.71364546 0.2030703 0.0051258416
0.71363509 0.20449293 0.0051020388
0.71362478 0.20591557 0.0050782366
0.7136144 0.20733821 0.0050544338
0.71360409 0.20876086 0.0050306311
0.71359378 0.21018349 0.0050068288
0.71358341 0.21160613 0.0049830261
0.7135731 0.21302877 0.0049592238
0.71356273 0.21445142 0.004935421
0.71488547 0.21559833 0.0064133331
0.71487516 0.21701698 0.0063895974
0.71486485 0.21843563 0.0063658617
0.71485454 0.21985428 0.0063421261
0.71484423 0.22127293 0.0063183904
0.71483392 0.22269158 0.0062946542
0.71482366 0.22411023 0.0062709185
0.71481335 0.22552888 0.0062471828
0.71480304 0.22694753 0.0062234472
0.71479273 0.22836618 0.0061997115
0.71478242 0.22978483 0.0061759753
0.71477211 0.23120348 0.0061522396
0.71476179 0.23262213 0.0061285039
0.71475148 0.23404078 0.0061047683
0.71474117 0.23545943 0.0060810321
0.71473086 0.23687807 0.0060572969
0.71472055 0.23829672 0.0060335607
0.71471024 0.23971538 0.006009825
0.71469992 0.24113402 0.0059860894
0.71468961 0.24255267 0.0059623537
0.71467936 0.24397132 0.005938618
0.71466905 0.24538997 0.0059148823
0.71465874 0.24680862 0.0058911461
0.71531528 0.24804351 0.0066190148
0.71530497 0.24946018 0.0065953122
0.71529466 0.25087681 0.0065716095
0.71528441 0.25229347 0.0065479074
0.7152741 0.25371015 0.0065242047
0.71526378 0.2551268 0.0065005026
0.71525353 0.25654346 0.0064768
0.71524322 0.25796011 0.0064530978
0.71523291 0.25937676 0.0064293952
0.7152226 0.26079342 0.006405693
0.71454537 0.26241377 0.0056300526
0.71453506 0.26383242 0.005606317
0.71452475 0.26525107 0.0055825813
0.71451443 0.26666972 0.0055588456
0.71450412 0.26808837 0.0055351099
0.71449381 0.26950702 0.0055113737
0.7144835 0.27092567 0.0054876381
0.71447319 0.27234432 0.0054639024
0.71446288 0.27376297 0.0054401667
0.71445256 0.27518162 0.005416431
0.71510941 0.27637661 0.0061449669
0.7150991 0.27779326 0.0061212643
0.71508884 0.27920991 0.0060975617
0.71507853 0.28062657 0.0060738595
0.71506822 0.28204322 0.0060501569
0.71505797 0.28345987 0.0060264547
0.71504766 0.28487656 0.0060027521
0.71503735 0.28629321 0.00597905
0.71502703 0.28770986 0.0059553473
0.71501678 0.28912649 0.0059316452
0.71500647 0.29054314 0.005907943
0.71499616 0.29195982 0.0058842404
0.71498591 0.29337648 0.0058605378
0.7149756 0.29479313 0.0058368356
0.71496528 0.29620978 0.005813133
0.71495503 0.29762644 0.0057894308
0.71494472 0.29904309 0.0057657282
0.71493441 0.30045974 0.005742026
0.71492416 0.3018764 0.0057183234
0.71491385 0.30329305 0.0056946212
0.71490353 0.3047097 0.0056709191
0.71489328 0.30612636 0.0056472165
0.71488297 0.30754301 0.0056235138
0.71487266 0.30895966 0.0055998117
0.71486241 0.31037632 0.005576109
0.71485209 0.31179297 0.0055524069
0.71484178 0.31320962 0.0055287043
0.71483147 0.31462631 0.0055050021
0.71482122 0.31604296 0.0054812995
0.71481091 0.31745958 0.0054575973
0.7148006 0.31887624 0.0054338952
0.71479034 0.32029289 0.0054101925
0.71478003 0.32170954 0.0053864899
0.71610504 0.3225472 0.0068695741
0.71609473 0.32395986 0.0068459385
0.71608448 0.32537252 0.0068223029
0.71607423 0.32678518 0.0067986674
0.71606398 0.32819787 0.0067750318
0.71605372 0.32961053 0.0067513962
0.71604341 0.33102319 0.0067277607
0.71603316 0.33243585 0.0067041251
0.71602291 0.33384851 0.0066804891
0.71601266 0.33526117 0.0066568535
0.7160024 0.33667383 0.0066332179
0.71599209 0.33808649 0.0066095823
0.71598184 0.33949915 0.0065859468
0.71597159 0.34091184 0.0065623107
0.71596134 0.3423245 0.0065386752
0.71595109 0.34373716 0.0065150396
0.71594077 0.34514982 0.006491404
0.71593052 0.3465625 0.0064677685
0.71592027 0.34797516 0.0064441329
0.71591002 0.34938782 0.0064204973
0.71589977 0.35080048 0.0063968617
0.71588951 0.35221314 0.0063732262
0.7158792 0.3536258 0.0063495906
0.71586895 0.35503846 0.006325955
0.7158587 0.35645112 0.006302319
0.71584845 0.35786378 0.0062786834
0.71583819 0.35927647 0.0062550479
0.71582788 0.36068913 0.0062314123
0.71648568 0.36175641 0.0069620847
0.71781147 0.36247236 0.0084471628
0.71780127 0.36387905 0.0084236274
0.71779102 0.36528572 0.0084000919
0.71778083 0.36669239 0.0083765564
0.71020001 -0.098684743 0.0016808419
0.71018952 -0.097242147 0.0016567055
0.71017903 -0.095799558 0.0016325691
0.7101686 -0.094356962 0.0016084327
0.71015811 -0.092914365 0.0015842962
0.71080965 -0.091182619 0.0023052415
0.71079916 -0.089742027 0.0022811384
0.71078867 -0.088301428 0.0022570356
0.71077824 -0.086860828 0.0022329325
0.71076775 -0.085420229 0.0022088296
0.71075732 -0.083979629 0.0021847265
0.71074682 -0.082539029 0.0021606234
0.71073633 -0.081098452 0.0021365208
0.7107259 -0.079657853 0.0021124177
0.71071541 -0.078217253 0.0020883149
0.71070498 -0.076776654 0.0020642118
0.71069449 -0.075336054 0.0020401089
0.710684 -0.073895454 0.0020160058
0.71001136 -0.072718069 0.0012463871
0.71000087 -0.071275473 0.0012222508
0.71065265 -0.069573663 0.0019436968
0.71064216 -0.068133064 0.0019195938
0.71063167 -0.066692464 0.0018954908
0.71062124 -0.065251864 0.0018713878
0.71061075 -0.063811272 0.0018472848
0.71060026 -0.062370669 0.0018231818
0.71058983 -0.060930073 0.0017990788
0.71190405 -0.058998991 0.0032666586
0.7105689 -0.058048874 0.0017508728
0.71188319 -0.056125764 0.0032185859
0.71187276 -0.054689158 0.0031945498
0.71186227 -0.053252552 0.0031705135
0.71185184 -0.051815946 0.0031464773
0.7118414 -0.05037934 0.0031224412
0.71183097 -0.048942737 0.003098405
0.71182054 -0.047506131 0.0030743687
0.71048516 -0.046524089 0.0015580488
0.71179968 -0.044632904 0.0030262962
0.71178925 -0.043196298 0.0030022599
0.71177882 -0.041759692 0.0029782236
0.71176833 -0.04032309 0.0029541876
0.7117579 -0.038886484 0.0029301513
0.71174747 -0.037449878 0.002906115
0.71173704 -0.036013272 0.002882079
0.71172661 -0.034576651 0.0028580425
0.71171618 -0.033140045 0.0028340062
0.71170574 -0.031703439 0.0028099702
0.71169531 -0.030266834 0.0027859339
0.71168488 -0.028830228 0.0027618976
0.71167439 -0.027393624 0.0027378616
0.71166396 -0.025957018 0.0027138253
0.71165353 -0.024520397 0.0026897888
0.7116431 -0.023083793 0.0026657528
0.71229535 -0.021453822 0.003388406
0.71228492 -0.020019198 0.003364403
0.71227449 -0.018584596 0.0033404003
0.71226412 -0.017149979 0.0033163973
0.71225369 -0.015715372 0.0032923946
0.71224326 -0.014280754 0.0032683916
0.71223283 -0.012846146 0.0032443888
0.7122224 -0.011411529 0.0032203859
0.71221197 -0.0099769197 0.0031963831
0.71352726 -0.0081914859 0.0046663997
0.71351689 -0.0067608627 0.0046424638
0.71350646 -0.005330239 0.0046185274
0.71349609 -0.0038996227 0.0045945914
0.71348572 -0.002468999 0.0045706555
0.71347529 -0.0010383753 0.0045467191
0.71346492 0.0003922483 0.0045227832
0.71345448 0.0018228645 0.0044988473
0.71344411 0.0032534881 0.0044749109
0.71343374 0.004684112 0.004450975
0.71342331 0.0061147357 0.0044270391
0.71341294 0.007545352 0.0044031031
0.71340251 0.0089759752 0.0043791668
0.71339214 0.010406599 0.0043552308
0.71404481 0.011984692 0.0050787521
0.71403438 0.013413319 0.0050548492
0.71402401 0.014841947 0.0050309463
0.71401364 0.016270574 0.0050070439
0.71400326 0.017699201 0.0049831411
0.71399289 0.019127822 0.0049592387
0.71398252 0.020556448 0.0049353358
0.71397215 0.021985075 0.004911433
0.71396172 0.023413703 0.0048875306
0.71395135 0.024842329 0.0048636277
0.71394098 0.026270958 0.0048397249
0.71393061 0.027699584 0.0048158225
0.71392024 0.029128211 0.0047919196
0.71390986 0.030556832 0.0047680172
0.71389949 0.031985458 0.0047441144
0.71388906 0.033414084 0.0047202115
0.71387869 0.034842715 0.0046963091
0.71386832 0.036271341 0.0046724062
0.71385795 0.037699968 0.0046485034
0.71384758 0.039128594 0.0046246005
0.71383721 0.040557221 0.0046006981
0.71515352 0.042196989 0.0060731093
0.71514314 0.043621629 0.0060492735
0.71513277 0.045046266 0.0060254377
0.71512246 0.046470899 0.0060016015
0.71577549 0.047993131 0.0067260549
0.71576512 0.049415771 0.0067022522
0.71575481 0.050838415 0.0066784499
0.7157445 0.052261051 0.0066546472
0.71573412 0.053683694 0.0066308449
0.71572381 0.055106334 0.0066070422
0.71571344 0.056528974 0.0065832399
0.71570313 0.057951614 0.0065594371
0.71569282 0.059374258 0.0065356344
0.71568245 0.060796894 0.0065118321
0.71567214 0.062219538 0.0064880294
0.71566176 0.063642181 0.0064642271
0.71565145 0.065064818 0.0064404244
0.71564114 0.066487461 0.0064166221
0.71695805 0.068049423 0.0078903772
0.71694773 0.069468074 0.0078666415
0.71561009 0.070755377 0.0063452143
0.71559978 0.072178021 0.0063214116
0.7155894 0.073600657 0.0062976093
0.71557909 0.075023301 0.0062738066
0.71689618 0.076561317 0.0077479631
0.71688586 0.077979967 0.0077242269
0.71687555 0.079398617 0.0077004912
0.71686524 0.080817267 0.0076767555
0.71685493 0.082235917 0.0076530199
0.71684462 0.083654568 0.0076292842
0.71683431 0.085073218 0.007605548
0.71682405 0.086491868 0.0075818123
0.71681374 0.087910518 0.0075580766
0.71680343 0.089329168 0.007534341
0.71679312 0.090747818 0.0075106053
0.71678281 0.092166469 0.0074868691
0.7167725 0.093585119 0.0074631334
0.71676219 0.095003769 0.0074393977
0.71675187 0.096422419 0.0074156621
0.71674156 0.097841069 0.0073919264
0.71673125 0.099259719 0.0073681902
0.71672094 0.10067837 0.0073444545
0.71737462 0.10211879 0.0080702789
0.71736431 0.10353544 0.0080465768
0.717354 0.1049521 0.0080228746
0.71734369 0.10636876 0.0079991724
0.71733344 0.10778541 0.0079754693
0.71732312 0.10920206 0.0079517672
0.71731281 0.11061872 0.007928065
0.71730256 0.11203537 0.0079043629
0.71729225 0.11345202 0.0078806598
0.71728194 0.11486869 0.0078569576
0.71727169 0.11628534 0.0078332555
0.71726137 0.11770199 0.0078095528
0.71725106 0.11911865 0.0077858507
0.71724081 0.1205353 0.007762148
0.7172305 0.12195195 0.0077384459
0.71722019 0.12336861 0.0077147433
0.71720994 0.12478527 0.0076910411
0.71719962 0.12620191 0.0076673385
0.71718931 0.12761857 0.0076436363
0.71717906 0.12903523 0.0076199337
0.71716875 0.13045189 0.0075962315
0.71715844 0.13186854 0.0075725289
0.71714813 0.13328519 0.0075488267
0.71713787 0.13470185 0.0075251241
0.71712756 0.1361185 0.007501422
0.71711725 0.13753515 0.0074777193
0.717107 0.13895181 0.0074540172
0.71709669 0.14036846 0.0074303146
0.71708637 0.14178512 0.0074066124
0.71707612 0.14320177 0.0073829098
0.71706581 0.14461842 0.0073592076
0.7170555 0.14603509 0.007335505
0.71704525 0.14745173 0.0073118028
0.71637052 0.14891246 0.0065374384
0.71636021 0.15033111 0.0065137027
0.7163499 0.15174976 0.0064899665
0.71633959 0.15316841 0.0064662308
0.71632928 0.15458706 0.0064424952
0.7169835 0.15595166 0.0071695885
0.71697319 0.15736832 0.0071458858
0.71696287 0.15878497 0.0071221837
0.71695256 0.16020162 0.0070984811
0.71627772 0.16168031 0.0063238163
0.71626741 0.16309896 0.0063000806
0.7162571 0.16451761 0.0062763449
0.71624684 0.16593626 0.0062526087
0.71623653 0.16735491 0.006228873
0.71622622 0.16877356 0.0062051374
0.71621591 0.17019221 0.0061814017
0.7162056 0.17161086 0.006157666
0.71619529 0.17302951 0.0061339303
0.71618497 0.17444816 0.0061101941
0.71617466 0.17586681 0.0060864585
0.71616435 0.17728546 0.0060627228
0.71615404 0.17870411 0.0060389871
0.71614373 0.18012276 0.0060152514
0.71613342 0.18154141 0.0059915152
0.7161231 0.18296006 0.0059677796
0.71611285 0.18437871 0.0059440439
0.71676731 0.18570141 0.006671838
0.71609223 0.18721601 0.005896572
0.71674675 0.18853472 0.0066244332
0.71607161 0.19005331 0.0058491006
0.71606129 0.19147196 0.005825365
0.71605098 0.19289061 0.0058016293
0.71604067 0.19430926 0.0057778936
0.71603036 0.19572791 0.0057541579
0.71602005 0.19714656 0.0057304217
0.71600974 0.19856521 0.0057066861
0.71599942 0.19998387 0.0056829504
0.71598911 0.20140252 0.0056592147
0.7159788 0.20282117 0.0056354785
0.71596855 0.20423982 0.0056117428
0.71595824 0.20565847 0.0055880072
0.71594793 0.20707712 0.0055642715
0.71593761 0.20849577 0.0055405358
0.7159273 0.20991442 0.0055168001
0.71591699 0.21133305 0.0054930639
0.71590668 0.21275172 0.0054693283
0.71589637 0.21417037 0.0054455926
0.71588606 0.215589 0.0054218569
0.71654087 0.21686782 0.0061503854
0.71653056 0.21828446 0.0061266832
0.71652031 0.21970113 0.0061029806
0.71651 0.22111778 0.0060792784
0.71649969 0.22253443 0.0060555758
0.71648943 0.22395109 0.0060318736
0.71647912 0.22536774 0.0060081715
0.71580362 0.22693822 0.0052319705
0.71579331 0.22835685 0.0052082348
0.715783 0.22977552 0.0051844991
0.71577269 0.23119415 0.0051607634
0.71576238 0.2326128 0.0051370277
0.71575207 0.23403147 0.0051132916
0.71574175 0.23545012 0.0050895559
0.71573144 0.23686875 0.0050658202
0.71572113 0.2382874 0.0050420845
0.71637619 0.23953429 0.0057711476
0.71636587 0.24095094 0.0057474449
0.71635562 0.2423676 0.0057237423
0.71634531 0.24378425 0.0057000401
0.716335 0.2452009 0.0056763375
0.71632475 0.24661757 0.0056526354
0.71631444 0.24803421 0.0056289332
0.71630412 0.24945086 0.0056052306
0.71629387 0.25086752 0.0055815284
0.71761459 0.2519047 0.007064064
0.71760428 0.25331739 0.007040428
0.716263 0.25511748 0.005510421
0.71758378 0.25614271 0.0069931569
0.71624237 0.25795081 0.0054630162
0.71623212 0.25936747 0.0054393136
0.71622181 0.26078412 0.0054156114
0.7162115 0.26220074 0.0053919093
0.71620119 0.2636174 0.0053682067
0.71619093 0.26503408 0.0053445045
0.71618062 0.26645073 0.0053208019
0.71617031 0.26786739 0.0052970992
0.71616006 0.26928404 0.0052733971
0.71614975 0.27070069 0.0052496945
0.71613944 0.27211735 0.0052259923
0.71612918 0.273534 0.0052022897
0.71611887 0.27495065 0.0051785875
0.71610856 0.27636731 0.0051548854
0.71609831 0.27778396 0.0051311827
0.716088 0.27920061 0.0051074806
0.71607769 0.28061727 0.0050837779
0.71739906 0.28157064 0.0065677157
0.71738875 0.28298333 0.0065440801
0.7173785 0.28439599 0.0065204445
0.71736825 0.28580865 0.0064968085
0.71735799 0.28722131 0.0064731729
0.71734774 0.28863397 0.0064495374
0.71733743 0.29004666 0.0064259018
0.71732718 0.29145932 0.0064022662
0.71731693 0.29287198 0.0063786306
0.71730667 0.29428464 0.0063549951
0.71729642 0.2956973 0.0063313595
0.71728611 0.29710996 0.0063077239
0.71727586 0.29852262 0.0062840884
0.71726561 0.29993528 0.0062604528
0.71725535 0.30134797 0.0062368168
0.7172451 0.30276063 0.0062131812
0.71723479 0.30417329 0.0061895456
0.71722454 0.30558595 0.00616591
0.71721429 0.30699861 0.0061422745
0.71720403 0.30841127 0.0061186389
0.71719378 0.30982393 0.0060950033
0.71718347 0.31123662 0.0060713673
0.71717322 0.31264928 0.0060477317
0.71716297 0.31406194 0.0060240962
0.71715271 0.3154746 0.0060004606
0.71714246 0.31688726 0.005976825
0.71713215 0.31829992 0.0059531895
0.7171219 0.31971261 0.0059295539
0.71711165 0.32112527 0.0059059183
0.7177676 0.32224843 0.006637048
0.71775734 0.32365909 0.0066134459
0.71774709 0.32506976 0.0065898439
0.71773684 0.32648045 0.0065662414
0.71772659 0.32789111 0.0065426393
0.71904892 0.32870284 0.0080289049
0.71903872 0.33010954 0.0080053685
0.71769583 0.33212313 0.0064718323
0.71768558 0.33353379 0.0064482302
0.71767533 0.33494446 0.0064246277
0.71766508 0.33635512 0.0064010257
0.71765482 0.33776578 0.0063774236
0.71764463 0.33917645 0.0063538211
0.71763438 0.34058714 0.0063302186
0.71762413 0.3419978 0.0063066166
0.71761388 0.34340847 0.0062830145
0.71760362 0.34481913 0.006259412
0.71759337 0.34622979 0.00623581
0.71758312 0.34764045 0.006212208
0.71757287 0.34905115 0.0061886054
0.71756262 0.35046181 0.0061650034
0.71755236 0.35187247 0.0061414009
0.71754211 0.35328314 0.0061177989
0.71886498 0.35402304 0.0076052658
0.71885473 0.35542974 0.0075817304
0.71884453 0.35683641 0.0075581949
0.71883428 0.35824308 0.0075346595
0.71749085 0.36033648 0.0059997877
0.7174806 0.36174715 0.0059761857
0.71880364 0.36246312 0.0074640536
0.71879339 0.36386982 0.0074405177
0.7187832 0.36527649 0.0074169822
0.71877295 0.36668316 0.0073934468
0.71876276 0.3680898 0.0073699118
0.71188849 -0.099835679 0.0014430467
0.711878 -0.098395079 0.0014189437
0.71186757 -0.09695448 0.0013948407
0.71185708 -0.09551388 0.0013707377
0.71184659 -0.094073281 0.0013466347
0.71183616 -0.092632681 0.0013225317
0.71182567 -0.091192089 0.0012984287
0.71313649 -0.089177184 0.0027673938
0.71312606 -0.087740563 0.0027433573
0.71311563 -0.086303957 0.0027193211
0.7131052 -0.084867358 0.002695285
0.71309471 -0.083430752 0.0026712487
0.71308428 -0.081994146 0.0026472125
0.71307385 -0.08055754 0.0026231764
0.71174192 -0.079667315 0.0011056049
0.71173149 -0.078226715 0.0010815019
0.711721 -0.076786116 0.001057399
0.71171057 -0.075345516 0.001033296
0.71170008 -0.073904917 0.0010091929
0.71168959 -0.072464325 0.00098508992
0.71167916 -0.071023725 0.00096098694
0.71166867 -0.069583125 0.00093688397
0.71165824 -0.068142526 0.00091278093
0.71296948 -0.06619145 0.002382814
0.71295905 -0.064754851 0.0023587777
0.71294862 -0.063318245 0.0023347416
0.71293819 -0.061881635 0.0023107054
0.71292776 -0.060445033 0.0022866691
0.71357822 -0.058763158 0.0030098492
0.71290684 -0.057571821 0.0022385968
0.71355736 -0.055893939 0.0029618435
0.71354693 -0.05445933 0.0029378408
0.7135365 -0.053024705 0.0029138378
0.71352607 -0.051590096 0.002889835
0.7135157 -0.050155487 0.0028658321
0.71350527 -0.048720878 0.0028418293
0.71349484 -0.047286253 0.0028178263
0.71348441 -0.045851644 0.0027938236
0.71347398 -0.044417035 0.0027698206
0.71346354 -0.042982426 0.0027458179
0.71345311 -0.041547816 0.0027218151
0.71344268 -0.040113192 0.0026978122
0.71343231 -0.038678583 0.0026738094
0.71342188 -0.037243977 0.0026498064
0.71341145 -0.035809368 0.0026258037
0.71340102 -0.034374759 0.002601801
0.71339059 -0.032940134 0.002577798
0.71338016 -0.031505525 0.002553795
0.71336973 -0.030070916 0.0025297923
0.7133593 -0.028636307 0.0025057895
0.71334893 -0.027201697 0.0024817868
0.71333849 -0.025767073 0.0024577838
0.71332806 -0.024332464 0.0024337808
0.71464026 -0.02250709 0.0039059171
0.71462983 -0.021076474 0.0038819809
0.71461946 -0.019645851 0.003858045
0.71460903 -0.018215235 0.0038341088
0.71459866 -0.01678461 0.0038101727
0.71458828 -0.015353987 0.0037862367
0.71457785 -0.013923371 0.0037623006
0.71456748 -0.012492747 0.0037383647
0.71455705 -0.011062124 0.0037144285
0.71454668 -0.0096314996 0.0036904924
0.71453631 -0.0082008839 0.0036665564
0.71452588 -0.0067702602 0.0036426203
0.71451551 -0.0053396365 0.0036186841
0.71450514 -0.0039090202 0.0035947482
0.7151562 -0.0023109573 0.0043193302
0.71514583 -0.00088233012 0.0042954278
0.71513546 0.00054629712 0.004271525
0.71512508 0.0019749245 0.0042476221
0.71511465 0.0034035516 0.0042237197
0.71510428 0.0048321788 0.0041998168
0.71509391 0.0062608062 0.004175914
0.71508354 0.0076894257 0.0041520116
0.71507317 0.0091180531 0.0041281087
0.7150628 0.010546681 0.0041042063
0.71505243 0.011975308 0.0040803035
0.715042 0.013403935 0.0040564006
0.71503162 0.014832562 0.0040324982
0.71502125 0.01626119 0.0040085954
0.71501088 0.017689817 0.0039846925
0.71500051 0.019118436 0.0039607901
0.71631354 0.020818101 0.0054349871
0.71630323 0.022242736 0.0054111513
0.71629286 0.023667376 0.0053873151
0.71628249 0.025092011 0.0053634793
0.71627218 0.026516646 0.0053396435
0.7162618 0.027941281 0.0053158072
0.71625143 0.029365916 0.0052919714
0.71690291 0.030912101 0.0060174218
0.7168926 0.032334737 0.0059936191
0.71688223 0.033757385 0.0059698168
0.71687192 0.035180021 0.0059460141
0.71686155 0.036602661 0.0059222118
0.71685123 0.038025305 0.0058984091
0.71684092 0.039447945 0.0058746063
0.71683055 0.040870581 0.005850804
0.71814412 0.042504404 0.0073261475
0.71813381 0.043923054 0.0073024118
0.7181235 0.045341704 0.0072786761
0.71811318 0.046760354 0.0072549405
0.71810293 0.048179004 0.0072312043
0.71809262 0.049597654 0.0072074686
0.71808231 0.051016301 0.0071837329
0.71674788 0.052251708 0.0056603835
0.71673751 0.053674348 0.0056365812
0.7167272 0.055096991 0.0056127785
0.71671689 0.056519628 0.0055889762
0.71670651 0.057942271 0.0055651735
0.7166962 0.059364911 0.0055413707
0.71801013 0.060946852 0.0070175827
0.71799982 0.062365502 0.006993847
0.7179895 0.063784152 0.0069701108
0.71797919 0.065202802 0.0069463751
0.71796888 0.066621453 0.0069226394
0.71795863 0.068040103 0.0068989038
0.71794832 0.069458753 0.0068751681
0.71793801 0.070877403 0.0068514319
0.71792769 0.072296053 0.0068276962
0.71791738 0.073714696 0.0068039605
0.71790707 0.075133353 0.0067802249
0.71789676 0.076552004 0.0067564892
0.71788645 0.077970646 0.006732753
0.71787614 0.079389304 0.0067090173
0.71786582 0.080807947 0.0066852816
0.71851784 0.082276322 0.0074120313
0.71850759 0.083692975 0.0073883287
0.71849728 0.085109629 0.0073646265
0.71848696 0.086526282 0.0073409239
0.71847671 0.087942943 0.0073172217
0.7184664 0.089359596 0.0072935191
0.71845609 0.09077625 0.0072698169
0.71844584 0.092192903 0.0072461143
0.71843553 0.093609557 0.0072224122
0.71842521 0.09502621 0.0071987095
0.71841496 0.096442863 0.0071750074
0.71840465 0.097859524 0.0071513047
0.71839434 0.099276178 0.0071276026
0.71838409 0.10069283 0.0071039
0.71837378 0.10210948 0.0070801978
0.71836346 0.10352614 0.0070564952
0.71835321 0.10494279 0.007032793
0.7183429 0.10635945 0.0070090904
0.71965784 0.10780372 0.0084876055
0.71964759 0.10921638 0.0084639704
0.71963733 0.11062904 0.0084403343
0.71962702 0.1120417 0.0084166992
