# .PCD v0.7 - Point Cloud Data file format
VERSION 0.7
FIELDS x y z
SIZE 4 4 4
TYPE F F F
COUNT 1 1 1
WIDTH 1378
HEIGHT 1
VIEWPOINT 0 0 0 1 0 0 0
POINTS 1378
DATA ascii
0.53585237 0.02285411 0.059920497
0.53502965 0.023663193 0.059371516
0.53505415 0.024469076 0.059366606
0.5246532 0.156185 0.049315605
0.52467853 0.15701796 0.049310531
0.52470386 0.15785092 0.049305454
0.52556849 0.15842108 0.049845997
0.52559376 0.15925245 0.049840931
0.52645826 0.15981783 0.0503815
0.52648348 0.1606476 0.050376445
0.52818698 0.16093904 0.051462699
0.5298903 0.16122408 0.052549023
0.53159338 0.16150278 0.053635355
0.53245735 0.16204903 0.054176074
0.53499907 0.16204104 0.055808168
0.53586268 0.16257776 0.056348912
0.53756511 0.16283254 0.057435427
0.5392673 0.16308098 0.058521945
0.54013056 0.16360493 0.059062798
0.54183239 0.16384223 0.060149383
0.54185677 0.16464332 0.060144503
0.54188108 0.16544442 0.060139619
0.54274398 0.16595724 0.060680509
0.5427683 0.16675678 0.06067564
0.54363108 0.1672648 0.061216559
0.54365534 0.16806272 0.061211694
0.54367959 0.16886066 0.061206833
0.54370379 0.16965857 0.061201971
0.54372805 0.17045648 0.06119711
0.54459059 0.17095496 0.061738119
0.54461479 0.17175129 0.061733264
0.54463899 0.17254762 0.061728414
0.54550129 0.17303972 0.062269431
0.54552543 0.17383447 0.062264588
0.54638755 0.17432182 0.06280563
0.54641163 0.17511494 0.062800802
0.54643577 0.17590809 0.062795967
0.54645985 0.17670123 0.062791131
0.54648399 0.17749439 0.062786296
0.54650807 0.17828752 0.062781468
0.54653221 0.17908068 0.062776633
0.54655629 0.17987381 0.062771797
0.54490525 0.18130721 0.061675034
0.54241681 0.18306874 0.060032222
0.53992867 0.18483981 0.058389351
0.53744084 0.18662043 0.056746457
0.53411585 0.18873712 0.054557461
0.53162867 0.19053847 0.052914407
0.52914172 0.19234936 0.051271293
0.52581787 0.19450109 0.049082119
0.52416873 0.1959998 0.047984924
0.52335697 0.19717042 0.047433775
0.52338248 0.19800815 0.047428671
0.52340794 0.19884588 0.047423564
0.52343339 0.19968364 0.04741846
0.52429581 0.20018053 0.047959447
0.5243212 0.20101666 0.047954351
0.52434665 0.2018528 0.047949258
0.52520883 0.20234334 0.048490282
0.52523422 0.20317788 0.048485197
0.52609634 0.20366362 0.049026284
0.52612168 0.20449656 0.049021211
0.52698362 0.20497756 0.049562294
0.52784544 0.20545533 0.050103396
0.53872824 -0.010690449 0.061683346
0.53960073 -0.0098303892 0.062223386
0.53962493 -0.0090340627 0.062218536
0.53964913 -0.0082377363 0.062213682
0.53967333 -0.0074414094 0.062208828
0.53969753 -0.0066450792 0.062203977
0.53972173 -0.0058487523 0.062199123
0.53974593 -0.0050524259 0.062194273
0.53977013 -0.004256099 0.062189419
0.53979433 -0.0034597726 0.062184565
0.53981853 -0.0026634459 0.062179714
0.53984278 -0.0018671192 0.06217486
0.53986698 -0.0010707926 0.06217001
0.53989118 -0.00027446219 0.062165156
0.53991538 0.00052186445 0.062160302
0.53993958 0.0013181912 0.062155452
0.53911626 0.002076267 0.06160555
0.53914052 0.0028741874 0.061600689
0.53916478 0.0036721057 0.061595824
0.53918904 0.004470028 0.061590962
0.5392133 0.0052679465 0.061586101
0.53923756 0.0060658669 0.061581239
0.53926176 0.0068637854 0.061576378
0.53928602 0.0076617072 0.061571512
0.53846323 0.0084341196 0.061021559
0.53848749 0.0092336312 0.061016686
0.53851181 0.010033144 0.061011814
0.53853613 0.010832657 0.061006941
0.53856045 0.01163217 0.061002068
0.53773791 0.012414138 0.060452059
0.53776222 0.013215246 0.060447179
0.5377866 0.01401635 0.060442295
0.53781092 0.014817455 0.060437415
0.53698862 0.015607386 0.05988735
0.53701305 0.016410086 0.059882458
0.53703743 0.017212784 0.059877567
0.53706181 0.01801548 0.059872676
0.5362398 0.018813377 0.059322566
0.53626424 0.019617666 0.059317663
0.53628868 0.020421958 0.059312765
0.53546679 0.021226222 0.05876258
0.53549129 0.022032106 0.05875767
0.53551579 0.022837989 0.05875276
0.53554028 0.023643872 0.05874785
0.53471863 0.024456101 0.058197651
0.53474319 0.025263578 0.05819273
0.52436787 0.15725759 0.048119046
0.52523166 0.15783095 0.048660833
0.52525699 0.1586639 0.04865576
0.52612054 0.15923251 0.049197543
0.52614582 0.16006388 0.049192477
0.52700925 0.16062771 0.049734291
0.52871072 0.16091922 0.050823007
0.53041202 0.16120435 0.051911801
0.53211313 0.16148312 0.053000595
0.53381407 0.16175549 0.054089468
0.53551471 0.16202153 0.055178341
0.53721529 0.16228117 0.056267288
0.53891557 0.16253446 0.057356238
0.54061574 0.16278136 0.058445264
0.54147792 0.16330376 0.058987331
0.54234004 0.16382302 0.059529416
0.54320198 0.16433907 0.060071517
0.5432263 0.16513857 0.060066644
0.54408813 0.16564983 0.060608778
0.54411238 0.16644776 0.060603917
0.54413664 0.16724567 0.060599051
0.5441609 0.1680436 0.06059419
0.54502255 0.1685469 0.061136406
0.54504675 0.16934322 0.061131552
0.54507095 0.17013954 0.061126698
0.54509515 0.17093587 0.061121847
0.54595655 0.17143121 0.061664078
0.54598069 0.17222594 0.061659236
0.54600483 0.17302068 0.061654393
0.546866 0.17350966 0.062196657
0.54689014 0.1743028 0.062191825
0.54691422 0.17509593 0.06218699
0.5469383 0.17588907 0.062182158
0.54696244 0.17668222 0.062177327
0.54698652 0.17747538 0.062172491
0.54701066 0.17826851 0.062167659
0.54703474 0.17906165 0.062162824
0.54705888 0.1798548 0.062157992
0.5454098 0.18128812 0.061058763
0.5429244 0.18304953 0.059412252
0.54043931 0.1848205 0.057765681
0.53711802 0.18692589 0.055571828
0.53463358 0.18871753 0.053925168
0.53214937 0.19051877 0.052278411
0.52882916 0.1926592 0.050084345
0.52634561 0.1944811 0.048437499
0.52386236 0.19631259 0.046790563
0.52388781 0.19715033 0.046785455
0.52391326 0.19798806 0.046780352
0.52393872 0.19882579 0.046775248
0.52396423 0.19966355 0.046770141
0.52398968 0.20050128 0.046765037
0.52485102 0.20099662 0.047307264
0.52487642 0.20183276 0.047302168
0.52490187 0.20266892 0.047297075
0.52576303 0.20315787 0.047839344
0.52578837 0.20399244 0.047834259
0.52581376 0.20482698 0.047829174
0.52667475 0.20530957 0.048371512
0.54010528 -0.0098494813 0.061607119
0.54012948 -0.0090531548 0.061602265
0.54015368 -0.0082568284 0.061597414
0.54017788 -0.0074605015 0.06159256
0.54020208 -0.0066641713 0.061587706
0.54022628 -0.0058678444 0.061582856
0.54025054 -0.005071518 0.061578002
0.54027474 -0.0042751911 0.061573151
0.54029894 -0.0034788647 0.061568297
0.54032314 -0.002682538 0.061563443
0.54034734 -0.0018862113 0.061558593
0.53952485 -0.0011345426 0.061007496
0.53954911 -0.00033662232 0.061002634
0.53957337 0.00046129798 0.060997773
0.53959757 0.0012592183 0.060992911
0.53962183 0.0020571367 0.060988046
0.53964609 0.0028550571 0.060983185
0.53967035 0.0036529757 0.060978323
0.53884828 0.0044173906 0.060427185
0.5388726 0.0052169026 0.060422312
0.53889692 0.0060164146 0.060417444
0.53892118 0.0068159266 0.060412571
0.5389455 0.0076154405 0.060407698
0.53896981 0.0084149512 0.060402825
0.53899413 0.0092144627 0.060397953
0.53901839 0.010013975 0.06039308
0.5381968 0.010792724 0.059841853
0.53822112 0.011593827 0.059836973
0.5382455 0.012394931 0.059832089
0.53826982 0.013196039 0.059827209
0.5382942 0.013997143 0.059822328
0.53747284 0.014785444 0.059271045
0.53749728 0.015588141 0.059266154
0.53752166 0.016390841 0.059261262
0.53670049 0.017185513 0.058709934
0.53672498 0.017989801 0.058705036
0.53674942 0.018794093 0.058700133
0.53592843 0.019595135 0.058148742
0.53595293 0.02040102 0.058143828
0.53597742 0.0212069 0.058138918
0.53600192 0.022012785 0.058134008
0.53518122 0.02282179 0.057582594
0.53520572 0.023629267 0.057577677
0.53523028 0.024436742 0.057572756
0.52578473 0.15864393 0.048011143
0.52581006 0.15947689 0.048006065
0.5266726 0.16004395 0.048549093
0.52753502 0.16060781 0.049092136
0.52839738 0.1611685 0.049635202
0.5309338 0.16118461 0.051274575
0.53263283 0.16146345 0.052365839
0.53516871 0.16146204 0.054005325
0.53686732 0.16172655 0.055096675
0.53856581 0.16198468 0.056188095
0.54026407 0.16223645 0.057279523
0.54196215 0.16248183 0.058371022
0.54282326 0.1630027 0.058914326
0.5436843 0.16352038 0.059457656
0.54454523 0.16403487 0.060001001
0.54456949 0.16483279 0.059996139
0.54459375 0.1656307 0.059991274
0.54461795 0.16642863 0.059986413
0.5454787 0.16693515 0.060529843
0.5455029 0.16773146 0.060524989
0.54636347 0.16823323 0.061068412
0.54638761 0.16902795 0.061063569
0.54641175 0.16982269 0.061058726
0.54643595 0.17061742 0.061053883
0.54729623 0.17111121 0.061597355
0.54732037 0.17190436 0.061592523
0.54734445 0.1726975 0.061587688
0.54736853 0.17349064 0.061582856
0.54739267 0.17428379 0.061578024
0.54741675 0.17507692 0.061573189
0.54827678 0.17555955 0.062116746
0.5483008 0.17635112 0.062111922
0.54832488 0.17714266 0.062107101
0.54834896 0.1779342 0.062102277
0.54837298 0.17872575 0.062097453
0.54756141 0.17983578 0.061544191
0.54674995 0.18094897 0.060990926
0.543432 0.18303032 0.058792286
0.54094988 0.18480118 0.057142019
0.5376327 0.18690641 0.054943234
0.53515124 0.18869795 0.053292874
0.53267008 0.19049907 0.051642425
0.52935392 0.19263935 0.049443427
0.52687341 0.19446114 0.047792882
0.52439314 0.1962925 0.046142247
0.52358347 0.19746464 0.045588624
0.52360898 0.19830397 0.045583509
0.52363449 0.19914331 0.045578394
0.52366006 0.19998263 0.045573279
0.52452046 0.20048119 0.046116721
0.52454597 0.20131892 0.046111617
0.52457142 0.20215665 0.046106514
0.52543163 0.20264886 0.046649992
0.52545708 0.20348501 0.046644896
0.52548248 0.20432115 0.046639804
0.52634257 0.20480697 0.047183324
0.53889316 -0.010792516 0.059901018
0.53976363 -0.0099307923 0.060443483
0.53978789 -0.0091328723 0.060438622
0.53981215 -0.0083349524 0.06043376
0.53983641 -0.0075370315 0.060428895
0.53986067 -0.0067391112 0.060424034
0.53988492 -0.0059411912 0.060419172
0.53990912 -0.0051432708 0.060414311
0.53993338 -0.0043453504 0.060409449
0.53995764 -0.0035474338 0.060404584
0.5399819 -0.0027495134 0.060399722
0.54000616 -0.0019515931 0.060394861
0.54003042 -0.0011536728 0.060389999
0.54005468 -0.00035575251 0.060385134
0.54007894 0.00044216783 0.060380273
0.5401032 0.0012400881 0.060375411
0.53928196 0.0019996837 0.059823066
0.53930628 0.0027991957 0.059818193
0.5393306 0.003598708 0.059813324
0.53935486 0.0043982221 0.059808452
0.53937918 0.0051977341 0.059803579
0.5394035 0.0059972461 0.059798706
0.53858262 0.0067679901 0.059246298
0.538607 0.0075690956 0.059241414
0.53863132 0.0083701992 0.059236534
0.5386557 0.0091713052 0.05923165
0.53868002 0.0099724093 0.05922677
0.5387044 0.010773517 0.05922189
0.53872871 0.01157462 0.059217006
0.53790826 0.012358107 0.058664519
0.53793269 0.013160806 0.058659628
0.53795707 0.013963502 0.058654737
0.53798145 0.0147662 0.058649845
0.53716123 0.015557648 0.05809731
0.53718567 0.016361939 0.058092408
0.53721011 0.017166229 0.058087505
0.53639007 0.017964048 0.057534896
0.53641456 0.018769931 0.057529986
0.53643906 0.019575814 0.057525076
0.5356192 0.020380003 0.056972463
0.53564376 0.021187479 0.056967542
0.53566831 0.021994956 0.05696262
0.53569281 0.022802431 0.056957699
0.53487325 0.023614584 0.056405038
0.5348978 0.024423651 0.056400109
0.52633786 0.15945692 0.047361448
0.52719939 0.16002402 0.047905706
0.52806079 0.16058792 0.048449986
0.52892214 0.16114864 0.04899428
0.53145552 0.16116486 0.050637357
0.53991431 0.16168827 0.056111369
0.54161054 0.1619385 0.057205305
0.54330653 0.16218239 0.058299243
0.54416656 0.16270168 0.058843791
0.54502654 0.16321783 0.059388362
0.5450508 0.16401576 0.0593835
0.54591066 0.16452706 0.05992813
0.54593486 0.16532339 0.059923276
0.54595906 0.16611972 0.059918426
0.54681873 0.1666247 0.06046306
0.54684287 0.16741943 0.060458217
0.54686701 0.16821417 0.060453374
0.54772645 0.16871278 0.060998049
0.54775059 0.16950591 0.060993217
0.54777467 0.17029904 0.060988385
0.54779881 0.1710922 0.06098355
0.54782289 0.17188534 0.060978718
0.54868209 0.17237438 0.061523467
0.54870611 0.17316595 0.061518647
0.54873019 0.17395748 0.061513823
0.54875422 0.17474903 0.061508998
0.5487783 0.17554057 0.061504174
0.54880238 0.17633213 0.061499353
0.54966116 0.17681004 0.062044151
0.54885048 0.17791522 0.061489705
0.54887456 0.17870678 0.061484881
0.54889858 0.17949831 0.061480056
0.54725355 0.18092991 0.060375888
0.54477412 0.1826895 0.058721993
0.54146051 0.18478185 0.056518354
0.5389818 0.18656212 0.054864366
0.53566897 0.18867835 0.052660584
0.53319079 0.19047937 0.051006436
0.52987868 0.19261949 0.048802506
0.52740121 0.19444117 0.047148261
0.52492398 0.19627243 0.045493934
0.52411532 0.19744451 0.044939075
0.52414083 0.19828384 0.04493396
0.52416635 0.19912317 0.044928845
0.52419186 0.19996251 0.04492373
0.52421737 0.20080183 0.044918615
0.52424288 0.20164116 0.044913501
0.5251022 0.20213658 0.045458198
0.52512771 0.20297432 0.045453094
0.52515316 0.20381205 0.045447987
0.53942406 -0.010012174 0.059277415
0.53944838 -0.0092126597 0.059272543
0.53947264 -0.00841315 0.05926767
0.54034197 -0.0075561618 0.059811395
0.54036623 -0.0067582414 0.059806533
0.54039049 -0.0059603211 0.059801672
0.54041475 -0.0051624011 0.059796806
0.54043901 -0.0043644807 0.059791945
0.54046327 -0.0035665641 0.059787083
0.54048747 -0.0027686437 0.059782222
0.54051173 -0.0019707235 0.05977736
0.54053599 -0.0011728031 0.059772495
0.53971565 -0.00041802108 0.059218951
0.53973997 0.00038148917 0.059214078
0.53976429 0.0011810032 0.059209205
0.5397886 0.0019805152 0.059204333
0.5389685 0.0027432581 0.058650739
0.53899282 0.003544362 0.058645859
0.5390172 0.0043454678 0.058640976
0.53904152 0.0051465738 0.058636095
0.5390659 0.0059476774 0.058631212
0.53909022 0.0067487834 0.058626331
0.53911459 0.0075498889 0.058621448
0.53913891 0.0083509926 0.058616567
0.53831929 0.0091280695 0.058062885
0.53834367 0.0099307671 0.058057994
0.53836811 0.010733467 0.058053102
0.53839248 0.011536164 0.058048211
0.53841686 0.012338862 0.05804332
0.53759754 0.013125494 0.057489581
0.53762197 0.013929785 0.057484679
0.53764641 0.014734075 0.057479776
0.53682721 0.015527076 0.056925967
0.5368517 0.016332962 0.056921057
0.5368762 0.017138842 0.056916144
0.5369007 0.017944727 0.056911234
0.53608173 0.018745692 0.056357406
0.53610629 0.019553168 0.056352485
0.53613085 0.020360645 0.056347564
0.5361554 0.02116812 0.056342646
0.53533667 0.02197705 0.05578877
0.53536129 0.022786118 0.055783838
0.53538591 0.023595186 0.055778909
0.53541046 0.024404256 0.055773977
0.53543508 0.025213324 0.055769049
0.52944684 0.16112879 0.048353359
0.53197724 0.16114512 0.050000131
0.53450727 0.1611519 0.051646963
0.53956652 0.16113681 0.054940768
0.54126084 0.16139193 0.056037106
0.54295498 0.16164064 0.057133514
0.54464889 0.16188301 0.058229931
0.54550785 0.16240077 0.058775723
0.54553211 0.16319869 0.058770861
0.54639107 0.16371165 0.059316713
0.54641527 0.16450797 0.059311863
0.54727399 0.16501617 0.059857711
0.54729813 0.16581091 0.059852868
0.54815668 0.16631433 0.060398746
0.54818082 0.16710748 0.060393915
0.5482049 0.16790062 0.060389083
0.54822904 0.16869377 0.060384247
0.54908735 0.16918921 0.060930192
0.54911143 0.16998075 0.060925368
0.54913551 0.17077231 0.060920544
0.54915953 0.17156385 0.06091572
0.54918361 0.17235541 0.060910899
0.55004168 0.17284131 0.061456881
0.55006564 0.17363125 0.061452068
0.55008966 0.17442122 0.061447255
0.55011368 0.17521118 0.061442442
0.5501377 0.17600113 0.061437629
0.55016172 0.1767911 0.061432816
0.55018574 0.17758104 0.061427999
0.5502097 0.17837101 0.061423186
0.54940015 0.17947935 0.060867485
0.54775709 0.18091087 0.059760854
0.54528069 0.18267034 0.05810326
0.54280466 0.18443935 0.05644564
0.53949547 0.18654269 0.054237004
0.53702003 0.18833242 0.052579228
0.53371155 0.19045965 0.050370444
0.53040344 0.19259964 0.048161585
0.52792901 0.1944212 0.046503648
0.52545476 0.19625235 0.044845618
0.52464712 0.1974244 0.044289529
0.52467263 0.19826372 0.044284414
0.52469814 0.19910306 0.0442793
0.52472365 0.1999424 0.044274185
0.52474916 0.20078172 0.04426907
0.52477467 0.20162104 0.044263955
0.52480018 0.20246035 0.04425884
0.52565849 0.20295425 0.044804778
0.53734928 -0.011826789 0.057019085
0.53821796 -0.010958618 0.057563972
0.53824234 -0.010155921 0.05755908
0.53911084 -0.009292528 0.058104001
0.53997928 -0.0084323185 0.058648936
0.54000354 -0.0076328041 0.058644064
0.54002786 -0.0068332902 0.058639191
0.54005218 -0.0060337763 0.058634318
0.54007643 -0.0052342662 0.058629446
0.54010075 -0.0044347518 0.058624577
0.54012507 -0.0036352417 0.058619704
0.54014933 -0.0028357278 0.058614831
0.54017365 -0.0020362176 0.058609959
0.54019797 -0.0012367035 0.058605086
0.54022229 -0.00043718953 0.058600213
0.53940302 0.00032073792 0.058045421
0.5394274 0.0011218418 0.058040537
0.53945172 0.0019229457 0.058035657
0.5394761 0.0027240515 0.058030773
0.53950042 0.0035251554 0.058025893
0.53952479 0.0043262611 0.058021009
0.53954911 0.0051273671 0.058016129
0.53957349 0.0059284708 0.058011249
0.5387547 0.0067007318 0.057456359
0.53877908 0.0075034313 0.057451468
0.53880352 0.008306127 0.057446577
0.5388279 0.0091088247 0.057441685
0.53885227 0.0099115223 0.057436794
0.53887671 0.010714222 0.057431903
0.53805822 0.011497631 0.056876954
0.53808272 0.01230192 0.056872051
0.53810716 0.013106211 0.056867149
0.53728884 0.013895991 0.056312125
0.53731334 0.014701872 0.056307215
0.53733784 0.015507755 0.056302305
0.53651977 0.016303906 0.055747271
0.53654432 0.017111382 0.055742353
0.53656882 0.017918859 0.055737432
0.53659338 0.018726334 0.055732511
0.5357756 0.019530447 0.055177432
0.53580016 0.020339515 0.055172499
0.53582478 0.021148583 0.055167571
0.53584933 0.021957653 0.055162638
0.53587395 0.022766721 0.05515771
0.53505641 0.023580391 0.054602575
0.53508103 0.024391051 0.054597635
0.53510571 0.025201712 0.054592695
0.53586 0.16086012 0.051565278
0.53838664 0.16085587 0.053215843
0.54091305 0.16084206 0.054866496
0.54343915 0.16081871 0.05651721
0.54429734 0.16134287 0.057064194
0.54598922 0.16158372 0.058163084
0.54684722 0.1620999 0.05871015
0.54770505 0.16261292 0.059257206
0.54772919 0.16340767 0.059252363
0.54858691 0.16391589 0.059799444
0.54861104 0.16470902 0.059794609
0.54863513 0.16550218 0.059789777
0.54865927 0.16629532 0.059784941
0.54951674 0.16679558 0.06033209
0.54954082 0.16758713 0.060327265
0.54956484 0.1683787 0.060322445
0.55042213 0.16887258 0.060869616
0.55044615 0.16966254 0.060864799
0.55047017 0.17045249 0.060859986
0.55049419 0.17124246 0.060855173
0.55051816 0.1720324 0.060850359
0.55054218 0.17282237 0.060845546
0.5505662 0.17361231 0.06084073
0.55142307 0.17409348 0.061387975
0.55061424 0.17519224 0.060831103
0.55063826 0.17598219 0.06082629
0.55149496 0.17645857 0.061373565
0.55151892 0.17724694 0.06136876
0.55154288 0.17803532 0.061363958
0.55073428 0.17914201 0.060807034
0.54909319 0.18057187 0.059697945
0.54661977 0.18232962 0.058036663
0.54414672 0.18409693 0.056375358
0.5416739 0.18587382 0.054713961
0.538369 0.18798655 0.052500334
0.53423226 0.19043995 0.049734458
0.53176045 0.19225028 0.048072852
0.52928895 0.19407013 0.046411227
0.52681774 0.19589956 0.04474951
0.52601105 0.19707 0.044192199
0.52520448 0.19824359 0.043634865
0.52522999 0.19908293 0.043629751
0.5252555 0.19992226 0.043624636
0.52528101 0.20076159 0.043619521
0.52530652 0.20160091 0.043614406
0.52533203 0.20244023 0.043609295
0.53701562 -0.011911592 0.055845607
0.53788334 -0.011041785 0.056391753
0.53790778 -0.010237493 0.056386851
0.53877532 -0.0093724681 0.05693299
0.53964281 -0.0085106269 0.057479151
0.53966713 -0.0077095227 0.05747427
0.54053444 -0.0068524587 0.058020458
0.54055876 -0.0060529448 0.058015585
0.54058307 -0.0052534342 0.058010716
0.54060733 -0.0044539203 0.058005843
0.54063165 -0.0036544101 0.058000971
0.54065597 -0.0028548962 0.057996098
0.54068023 -0.0020553858 0.057991225
0.53986192 -0.0013006839 0.057435218
0.5398863 -0.00049957255 0.057430334
0.53991061 0.00030153134 0.057425454
0.53993499 0.0011026353 0.05742057
0.53995931 0.0019037392 0.05741569
0.53998369 0.002704845 0.057410806
0.53916574 0.0034706949 0.056854729
0.53919011 0.0042733946 0.056849837
0.53921449 0.0050760922 0.056844946
0.53923893 0.0058787894 0.056840055
0.53926331 0.006681487 0.056835163
0.53928769 0.0074841864 0.056830272
0.53847009 0.0082611851 0.056274123
0.53849453 0.0090654762 0.056269225
0.53851897 0.0098697655 0.056264322
0.5385434 0.010674057 0.05625942
0.53856784 0.011478348 0.056254521
0.53775048 0.012264902 0.055698283
0.53777498 0.013070786 0.055693369
0.53779948 0.01387667 0.055688459
0.5369823 0.014669595 0.055132218
0.53700686 0.015477071 0.055127297
0.53703141 0.016284548 0.055122375
0.53705597 0.017092023 0.055117454
0.53623903 0.017892912 0.054561161
0.53626364 0.018701982 0.054556232
0.5362882 0.01951105 0.0545513
0.5354715 0.020318311 0.053994972
0.53549618 0.021128971 0.053990033
0.53552079 0.021939632 0.053985089
0.53554541 0.022750292 0.053980149
0.53557009 0.023560954 0.05397521
0.53475362 0.024377771 0.053418789
0.5347783 0.025190024 0.053413838
0.53480297 0.026002279 0.053408887
0.54309052 0.16027206 0.055347811
0.54478061 0.16052255 0.056449112
0.54647052 0.16076668 0.057550445
0.54732758 0.16128448 0.058098733
0.54818445 0.16179912 0.05864701
0.54820865 0.16259386 0.058642168
0.54906535 0.16310373 0.059190474
0.54908949 0.16389687 0.059185639
0.54994613 0.16440196 0.059733991
0.54997015 0.16519351 0.059729166
0.54999423 0.16598506 0.059724342
0.55001831 0.1667766 0.059719518
0.55087465 0.16727373 0.060267903
0.55089867 0.1680637 0.06026309
0.55092269 0.16885364 0.060258277
0.55094665 0.1696436 0.060253464
0.55180281 0.17013277 0.060801893
0.55182678 0.17092113 0.060797088
0.55185074 0.17170948 0.060792282
0.5518747 0.17249787 0.06078748
0.55189866 0.17328623 0.060782675
0.55192262 0.17407458 0.060777873
0.55194658 0.17486295 0.060773067
0.55197054 0.17565131 0.060768262
0.5519945 0.17643967 0.06076346
0.55201846 0.17722805 0.060758654
0.55204242 0.17801641 0.060753852
0.55206639 0.17880477 0.060749047
0.55042732 0.18023294 0.05963752
0.54795688 0.18198898 0.057972569
0.54548675 0.18375461 0.056307539
0.54301691 0.18552978 0.054642454
0.53971601 0.18764077 0.052423909
0.53558427 0.1900924 0.049651876
0.53311545 0.19190098 0.047986619
0.53064692 0.19371915 0.046321273
0.52817869 0.19554688 0.044655863
0.52654189 0.19704992 0.043543883
0.52656734 0.19788764 0.043538779
0.52576178 0.19906281 0.042980205
0.52578729 0.19990215 0.04297509
0.5258128 0.20074147 0.042969976
0.52583832 0.20158079 0.042964861
0.53410786 -0.013817628 0.053022828
0.53581721 -0.012871085 0.054122385
0.53668404 -0.011996463 0.054669697
0.53757524 -0.010319147 0.055212121
0.5384419 -0.0094524883 0.055759516
0.53930837 -0.0085890153 0.056306899
0.54017472 -0.0077287294 0.0568543
0.5401991 -0.0069276216 0.05684942
0.54022342 -0.0061265179 0.05684454
0.5402478 -0.0053254138 0.056839656
0.54027212 -0.0045243064 0.056834776
0.54029649 -0.0037232023 0.056829892
0.54032081 -0.0029220984 0.056825012
0.54034519 -0.0021209945 0.056820128
0.54036957 -0.0013198906 0.056815248
0.54039389 -0.00051877927 0.056810368
0.54041827 0.00028232468 0.056805484
0.54044259 0.0010834286 0.056800604
0.53962553 0.0018460569 0.056243312
0.5396499 0.0026487545 0.05623842
0.53967434 0.0034514503 0.056233529
0.53969872 0.0042541497 0.056228638
0.5397231 0.0050568474 0.056223746
0.53890634 0.005829032 0.055666395
0.53893077 0.0066333213 0.055661496
0.53895527 0.0074376124 0.055656593
0.53897971 0.0082419021 0.055651691
0.53900415 0.0090461932 0.055646792
0.53818762 0.0098279314 0.055089351
0.53821212 0.010633815 0.055084441
0.53823662 0.011439698 0.055079531
0.53826112 0.012245581 0.055074617
0.53744489 0.013035284 0.054517161
0.53746939 0.013842762 0.05451224
0.53749394 0.014650236 0.054507323
0.5375185 0.015457711 0.054502402
0.53670251 0.016255379 0.053944897
0.53672707 0.017064447 0.053939965
0.53675169 0.017873514 0.053935036
0.53593588 0.018677553 0.05337749
0.5359605 0.019488214 0.053372551
0.53598517 0.020298874 0.053367611
0.53600979 0.021109534 0.053362671
0.53519422 0.021921536 0.052805044
0.53521889 0.022733789 0.052800093
0.53524357 0.023546042 0.052795146
0.53526825 0.024358297 0.052790195
0.53529292 0.02517055 0.052785244
0.53447765 0.025992107 0.052227594
0.54863971 0.16019061 0.058041658
0.54949558 0.1607053 0.058591168
0.54951972 0.16149843 0.058586337
0.5495438 0.16229159 0.058581501
0.55039954 0.16279988 0.059131064
0.55042362 0.16359143 0.059126243
0.55044764 0.16438298 0.059121419
0.55130315 0.16488492 0.059671007
0.55132717 0.16567488 0.059666194
0.55135119 0.16646484 0.059661377
0.55137521 0.16725479 0.059656564
0.55223042 0.16774878 0.060206201
0.55225438 0.16853714 0.060201395
0.55227834 0.16932549 0.06019659
0.5523023 0.17011388 0.060191788
0.55315739 0.17059988 0.060741484
0.55318129 0.17138664 0.06073669
0.55320519 0.17217341 0.060731895
0.55322909 0.17296019 0.060727105
0.553253 0.17374694 0.06072231
0.55327696 0.17453372 0.060717516
0.55330086 0.17532051 0.060712721
0.55332476 0.17610727 0.060707927
0.55334866 0.17689404 0.060703132
0.55337256 0.17768082 0.060698338
0.55256593 0.17878586 0.060138941
0.55175936 0.1798941 0.059579544
0.55012238 0.18132697 0.058465507
0.5484857 0.18276623 0.057351448
0.54435796 0.18518579 0.054573447
0.5418914 0.1869688 0.052904613
0.53859484 0.18908922 0.050681081
0.53529865 0.19122235 0.04845747
0.53283304 0.19303723 0.046788443
0.52953768 0.19519424 0.04456472
0.52790278 0.19669564 0.043450251
0.52709812 0.19786756 0.042890463
0.52629364 0.19904268 0.04233066
0.52631915 0.19988202 0.042325545
0.53291512 -0.014790094 0.051292285
0.53462255 -0.013837102 0.052394234
0.53548855 -0.012957663 0.052942786
0.53635442 -0.012081414 0.053491324
0.53724474 -0.010400873 0.054034963
0.53811038 -0.0095325839 0.054583546
0.53897595 -0.0086674802 0.055132188
0.53900039 -0.0078631891 0.055127285
0.53986573 -0.0070028612 0.055675916
0.53989017 -0.0062001636 0.055671025
0.54075539 -0.0053446204 0.05621969
0.54077977 -0.0045435131 0.056214809
0.54080409 -0.0037424089 0.056209929
0.54082847 -0.0029413051 0.056205045
0.54085279 -0.0021402012 0.056200165
0.54087716 -0.0013390972 0.056195281
0.54006094 -0.00058128062 0.055636786
0.54008538 0.00022141695 0.055631895
0.54010975 0.0010241146 0.055627003
0.54013413 0.001826812 0.055622112
0.54015857 0.0026295097 0.055617221
0.53934264 0.0033968771 0.055058669
0.53936708 0.0042011682 0.055053767
0.53939152 0.0050054579 0.055048868
0.53941596 0.005809749 0.055043966
0.53944039 0.0066140383 0.055039067
0.53862476 0.0073909615 0.054480419
0.53864926 0.0081968447 0.054475509
0.53867376 0.0090027275 0.054470595
0.53869826 0.0098086102 0.054465685
0.53788286 0.010593499 0.053907029
0.53790742 0.011400973 0.053902108
0.53793198 0.012208449 0.053897187
0.53795648 0.013015925 0.053892266
0.53714138 0.013808777 0.053333558
0.53716594 0.014617844 0.053328626
0.53719056 0.015426911 0.053323697
0.53721517 0.016235981 0.053318765
0.53640026 0.017036794 0.052760009
0.53642488 0.017847454 0.052755069
0.53644955 0.018658116 0.052750129
0.53647417 0.019468777 0.05274519
0.53565949 0.020277554 0.052186351
0.53568417 0.021089807 0.0521814
0.53570884 0.021902062 0.052176449
0.53573352 0.022714315 0.052171502
0.53575826 0.023526568 0.052166551
0.53494388 0.024344902 0.051607687
0.53496861 0.025158748 0.051602729
0.53499335 0.025972594 0.051597767
0.53417921 0.026797296 0.051038865
0.55082887 0.16040625 0.058532968
0.55085295 0.16119781 0.058528144
0.55087703 0.16198936 0.05852332
0.55173165 0.16249612 0.059074108
0.55175567 0.16328607 0.059069294
0.55177969 0.16407602 0.059064478
0.55180371 0.16486599 0.059059665
0.55265808 0.16536479 0.059610505
0.55268204 0.16615313 0.059605699
0.552706 0.16694151 0.059600897
0.5535602 0.16743393 0.060151789
0.55358416 0.16822068 0.060146995
0.55360806 0.16900747 0.0601422
0.55363196 0.16979423 0.060137406
0.55365586 0.17058101 0.060132612
0.55367982 0.17136778 0.060127817
0.55370373 0.17215455 0.060123023
0.5545575 0.17263423 0.060673978
0.5545814 0.17341942 0.060669191
0.55460525 0.17420459 0.060664408
0.55379939 0.17530164 0.060103845
0.55465299 0.17577495 0.060654838
0.55384719 0.17687517 0.060094256
0.5538711 0.17766196 0.060089462
0.553895 0.17844872 0.060084667
0.55225992 0.17987517 0.058968205
0.55145442 0.18098654 0.058407556
0.55064905 0.1821011 0.05784687
0.54652631 0.18451729 0.055062726
0.54406267 0.186297 0.053390212
0.54159939 0.18808629 0.05171768
0.53830707 0.1902145 0.049489167
0.53501517 0.19235544 0.047260579
0.53172368 0.19450913 0.045031913
0.52926165 0.19634141 0.043359078
0.528458 0.19751172 0.042798072
0.53083587 -0.017481517 0.049012143
0.53170133 -0.016587704 0.04956184
0.53256661 -0.015697081 0.050111521
0.53343183 -0.014809645 0.050661225
0.53429693 -0.013925389 0.051210947
0.53516191 -0.013044324 0.051760685
0.53602684 -0.012166437 0.052310482
0.53689164 -0.011291742 0.05286026
0.53775638 -0.010420232 0.053410061
0.53778094 -0.0096127577 0.05340514
0.53864551 -0.0087460242 0.05395497
0.53951001 -0.0078824721 0.054504849
0.53953445 -0.007078181 0.05449995
0.54039878 -0.0062194085 0.055049825
0.54042315 -0.0054167109 0.055044934
0.54044759 -0.004614017 0.055040043
0.54047197 -0.0038113196 0.055035152
0.54049635 -0.003008622 0.05503026
0.54052079 -0.0022059244 0.055025369
0.54054517 -0.0014032267 0.055020478
0.54056954 -0.00060052553 0.055015586
0.54059398 0.00020217206 0.055010695
0.54061836 0.0010048696 0.0550058
0.53980339 0.0017690135 0.054446038
0.53982782 0.0025733027 0.054441135
0.53985226 0.0033775941 0.054436233
0.5398767 0.0041818852 0.054431334
0.5390619 0.0049539912 0.053871486
0.5390864 0.0057598744 0.053866573
0.5391109 0.0065657552 0.053861663
0.5391354 0.0073716403 0.053856753
0.53915989 0.0081775235 0.053851843
0.5383454 0.0089591863 0.053291965
0.53836995 0.0097666606 0.053287048
0.53839451 0.01057414 0.053282127
0.53841907 0.011381614 0.053277206
0.53760481 0.01217124 0.052717283
0.53762943 0.01298031 0.052712355
0.53765404 0.013789379 0.052707423
0.53684002 0.014585375 0.052147463
0.53686464 0.015396035 0.052142523
0.53688926 0.016206697 0.052137583
0.53691393 0.017017359 0.052132644
0.53610009 0.017821318 0.051572599
0.53612477 0.018633572 0.051567651
0.53614944 0.019445825 0.0515627
0.53617412 0.02025808 0.05155775
0.53619885 0.021070333 0.051552802
0.53622353 0.021882588 0.051547851
0.53541011 0.022697696 0.050987776
0.53543484 0.023511544 0.050982818
0.53545958 0.024325389 0.050977856
0.53464633 0.02514687 0.05041774
0.53467107 0.025962308 0.05041277
0.53469586 0.026777746 0.050407801
0.5338828 0.027605597 0.049847648
0.55218416 0.16089725 0.058472391
0.55220819 0.16168723 0.058467578
0.55306178 0.16219242 0.05901961
0.55308574 0.16298079 0.059014808
0.55310971 0.16376914 0.059010003
0.55313367 0.16455752 0.059005201
0.55315763 0.16534588 0.059000395
0.55401093 0.1658415 0.059552502
0.55403483 0.1666283 0.059547707
0.55405873 0.16741507 0.059542913
0.55408263 0.16820182 0.059538119
0.55493569 0.1686895 0.060090255
0.5549596 0.16947471 0.060085472
0.55498344 0.17025988 0.060080688
0.55500728 0.17104505 0.060075901
0.55503118 0.17183024 0.060071118
0.55505502 0.17261541 0.060066335
0.55507892 0.1734006 0.060061548
0.55510277 0.17418575 0.060056765
0.55512661 0.17497095 0.060051978
0.55515051 0.17575613 0.060047194
0.55517435 0.1765413 0.060042411
0.55519825 0.17732649 0.060037624
0.55439353 0.17842987 0.059475794
0.55358893 0.17953643 0.058913924
0.55278444 0.18064617 0.058352049
0.55198008 0.1817591 0.057790156
0.54869062 0.18384896 0.055556931
0.54622996 0.18562536 0.053880773
0.54376954 0.18741134 0.052204527
0.54048121 0.18953621 0.049971107
0.53719324 0.19167383 0.047737606
0.53390568 0.19382419 0.04550403
0.52979046 0.19632141 0.042713229
0.53133065 -0.018321399 0.048382383
0.53135562 -0.017501181 0.048377384
0.53222001 -0.016607331 0.048928317
0.53308433 -0.01571667 0.049479231
0.53394848 -0.014829195 0.050030168
0.53481257 -0.013944902 0.05058112
0.5356766 -0.013063798 0.051132094
0.53570127 -0.012251542 0.051127143
0.53656518 -0.011375214 0.051678181
0.53742892 -0.010502072 0.052229203
0.53745347 -0.0096930033 0.052224271
0.53831708 -0.0088246418 0.052775323
0.53918064 -0.0079594636 0.053326394
0.53920507 -0.0071535753 0.053321484
0.54006851 -0.0062931725 0.053872615
0.54009295 -0.0054888814 0.053867716
0.54011738 -0.004684594 0.053862814
0.54098058 -0.0038305642 0.054413956
0.54100496 -0.0030278666 0.054409064
0.54102939 -0.002225169 0.054404173
0.54021519 -0.0014674326 0.053843208
0.54023963 -0.0006631377 0.053838309
0.54026407 0.00014114981 0.053833406
0.54028851 0.00094544102 0.053828504
0.54031301 0.0017497304 0.053823605
0.54033744 0.0025540197 0.053818703
0.53952354 0.0033229021 0.053257644
0.53954804 0.0041287872 0.053252734
0.53957254 0.0049346699 0.053247821
0.53959703 0.0057405531 0.053242911
0.53878343 0.0065173986 0.052681834
0.53880799 0.0073248772 0.052676912
0.53883255 0.0081323516 0.052671991
0.53885704 0.0089398269 0.05266707
0.5388816 0.0097473012 0.052662149
0.53806829 0.010533707 0.052101016
0.53809291 0.011342776 0.052096084
0.53811747 0.012151842 0.052091155
0.53730434 0.012944619 0.051529981
0.53732902 0.013755279 0.051525041
0.53735363 0.014565939 0.051520102
0.53737831 0.0153766 0.051515162
0.53656536 0.016177338 0.050953906
0.53659004 0.016989591 0.050948955
0.53661472 0.017801844 0.050944008
0.53663945 0.018614098 0.050939057
0.53666413 0.019426351 0.050934106
0.53585154 0.020236647 0.050372828
0.53587627 0.021050492 0.050367869
0.53590101 0.021864338 0.050362907
0.53592575 0.022678183 0.050357949
0.53595048 0.023492031 0.050352991
0.53513819 0.02431188 0.049791653
0.53516299 0.02512732 0.049786683
0.53435087 0.025951944 0.049225312
0.53437567 0.026768977 0.049220335
0.53356367 0.027598381 0.048658937
0.53358859 0.028417006 0.048653949
0.55353731 0.16138516 0.05841431
0.55356127 0.16217352 0.058409508
0.5544138 0.16267557 0.058962807
0.5544377 0.16346234 0.058958013
0.5544616 0.16424911 0.058953218
0.5544855 0.16503589 0.058948424
0.55450946 0.16582265 0.058943629
0.55536163 0.16631517 0.059496969
0.55538547 0.16710034 0.059492186
0.55540937 0.16788551 0.059487399
0.55543321 0.16867068 0.059482615
0.5562852 0.16915523 0.060036022
0.55630898 0.16993882 0.06003125
0.55633283 0.17072238 0.060026474
0.55635661 0.17150599 0.060021698
0.55638045 0.17228957 0.060016923
0.55640423 0.17307316 0.060012151
0.55642807 0.17385672 0.060007375
0.55645192 0.17464033 0.060002599
0.5564757 0.17542392 0.059997823
0.55649954 0.1762075 0.059993051
0.55652332 0.17699109 0.059988275
0.55571961 0.17809284 0.059425201
0.55491596 0.17919776 0.058862124
0.55411243 0.18030588 0.058299012
0.55330902 0.1814172 0.057735898
0.5516783 0.18285623 0.056614429
0.54839319 0.18495387 0.054376237
0.54676294 0.18640882 0.053254686
0.54347855 0.18852876 0.051016364
0.54019445 0.19066143 0.048777964
0.53098685 -0.019239724 0.047195528
0.5318504 -0.018341063 0.047747627
0.53271383 -0.017445581 0.048299778
0.53273875 -0.016626958 0.04829479
0.533602 -0.015736258 0.048846938
0.53446519 -0.014848745 0.049399108
0.53448999 -0.014033303 0.049394138
0.53619123 -0.013083272 0.0505035
0.5362159 -0.012271016 0.050498549
0.53624064 -0.011458764 0.050493602
0.53710347 -0.010583987 0.05104588
0.53796613 -0.0097124008 0.051598143
0.53882873 -0.0088440012 0.052150425
0.53969121 -0.0079787849 0.052702729
0.53971571 -0.0071728965 0.052697819
0.5397402 -0.0063670157 0.052692909
0.54060256 -0.0055081644 0.053245284
0.540627 -0.0047038766 0.053240385
0.5406515 -0.0038995855 0.053235482
0.54067594 -0.0030952943 0.05323058
0.54070038 -0.0022910067 0.053225681
0.54072481 -0.0014867155 0.053220779
0.54074925 -0.00068242062 0.05321588
0.54077369 0.0001218669 0.053210977
0.53996068 0.00088593364 0.052648712
0.53998518 0.0016918167 0.052643798
0.54000968 0.0024976979 0.052638888
0.54003417 0.0033035809 0.052633978
0.53922141 0.0040756147 0.052071698
0.53924596 0.0048830896 0.052066777
0.53927052 0.0056905644 0.052061856
0.53929508 0.0064980392 0.052056935
0.53931963 0.0073055178 0.052052017
0.53850716 0.0080871042 0.051489677
0.53853178 0.008896173 0.051484749
0.53855634 0.009705239 0.051479816
0.5377441 0.010493198 0.050917439
0.53776872 0.011303861 0.050912499
0.5377934 0.012114521 0.05090756
0.53781801 0.012925183 0.05090262
0.53700596 0.013721103 0.050340161
0.53703064 0.014533357 0.050335214
0.53705531 0.015345609 0.050330263
0.53708005 0.016157864 0.050325312
0.53710473 0.016970117 0.050320365
0.5371294 0.01778237 0.050315414
0.53631777 0.018589441 0.049752921
0.5363425 0.019403286 0.049747959
0.53636724 0.020217134 0.049743
0.53639197 0.021030979 0.049738042
0.53558052 0.021846013 0.049175501
0.53560531 0.022661451 0.049170531
0.53563011 0.023476891 0.049165562
0.53481889 0.024298294 0.04860298
0.53484368 0.025115326 0.048598003
0.53486854 0.025932357 0.048593022
0.5340575 0.026760131 0.048030403
0.53408235 0.027578756 0.048025414
0.53327143 0.028411308 0.047462732
0.53329635 0.029231524 0.047457732
0.55401289 0.16057789 0.057809006
0.55486447 0.16108318 0.05836352
0.55488837 0.16186993 0.058358725
0.55491227 0.16265671 0.058353931
0.55493623 0.16344348 0.058349136
0.55496013 0.16423024 0.058344342
0.55581141 0.16472597 0.058898896
0.55583525 0.16551115 0.058894113
0.55585915 0.16629635 0.058889329
0.55671024 0.16678569 0.059443939
0.55673403 0.16756926 0.059439167
0.55675787 0.16835286 0.059434392
0.55678165 0.16913643 0.059429616
0.55680549 0.16992003 0.05942484
0.55682933 0.1707036 0.059420068
0.55685312 0.1714872 0.059415292
0.55770379 0.17196381 0.059969962
0.55772758 0.17274579 0.059965197
0.55775136 0.17352779 0.059960432
0.55694842 0.17462154 0.059396192
0.55697221 0.17540513 0.059391417
0.55699605 0.17618871 0.059386641
0.55701983 0.17697231 0.059381865
0.55704367 0.17775588 0.059377093
0.55624098 0.17885919 0.058812775
0.5554384 0.17996567 0.058248457
0.55463594 0.18107535 0.057684101
0.55218083 0.1828372 0.056000624
0.55137867 0.18395641 0.055436227
0.54975027 0.18540655 0.054312207
0.54646981 0.18752153 0.052069016
0.53148264 -0.020081237 0.046564545
0.53234518 -0.019180944 0.047117867
0.53320765 -0.018283829 0.047671244
0.53323257 -0.017465208 0.047666255
0.53409487 -0.01657288 0.048219625
0.53495705 -0.015683735 0.048773017
0.53498185 -0.014868296 0.048768047
0.53584391 -0.013983925 0.049321469
0.53586864 -0.013170079 0.049316507
0.53673059 -0.01229049 0.049869955
0.53675526 -0.011478238 0.049865004
0.53761709 -0.010603423 0.050418518
0.53847879 -0.0097317984 0.050972015
0.53850341 -0.0089227296 0.050967082
0.53936493 -0.0080558853 0.051520608
0.53938949 -0.0072484035 0.051515691
0.54025084 -0.0063863364 0.052069247
0.54027534 -0.0055804518 0.052064333
0.54029983 -0.0047745705 0.052059423
0.54116112 -0.0039188685 0.05261305
0.54118556 -0.0031145774 0.052608151
0.54037333 -0.0023569232 0.05204469
0.54039782 -0.0015510384 0.05203978
0.54042232 -0.00074515352 0.05203487
0.54044682 6.0727645e-05 0.05202996
0.54047132 0.00086661254 0.052025046
0.54049581 0.0016724956 0.052020136
0.539684 0.0024413019 0.051456641
0.53970855 0.0032487768 0.051451724
0.53973305 0.0040562553 0.051446803
0.53975761 0.0048637302 0.051441882
0.53978217 0.005671205 0.051436961
0.53897065 0.0064495695 0.05087341
0.53899521 0.0072586383 0.050868478
0.53901982 0.0080677066 0.050863549
0.53820848 0.0088524399 0.050299961
0.5382331 0.0096631004 0.050295018
0.53825778 0.010473763 0.050290078
0.53828239 0.011284425 0.050285138
0.53747123 0.012077121 0.049721465
0.53749597 0.012889375 0.049716514
0.53752065 0.013701629 0.049711566
0.53754532 0.014513883 0.049706616
0.53757 0.015326135 0.049701665
0.5367592 0.016128389 0.049137972
0.53678393 0.016942237 0.04913301
0.53680867 0.017756082 0.049128052
0.53683341 0.018569928 0.049123093
0.53685814 0.019383775 0.049118135
0.53604764 0.020195585 0.048554376
0.53607243 0.021011023 0.04854941
0.53609723 0.021826463 0.04854444
0.53612202 0.022641901 0.048539471
0.5353117 0.023461673 0.047975667
0.53533655 0.024278706 0.047970686
0.53452641 0.025103256 0.047406856
0.53455132 0.025921879 0.047401868
0.5337413 0.026751209 0.046837971
0.53376621 0.027571425 0.046832971
0.53379112 0.028391642 0.046827972
0.5338161 0.02921186 0.046822976
0.5553391 0.16027752 0.057759441
0.555363 0.16106431 0.057754647
0.55621344 0.16156644 0.058310393
0.55623728 0.16235161 0.05830561
0.55626118 0.1631368 0.058300827
0.55628502 0.16392197 0.05829604
0.55630893 0.16470715 0.058291256
0.55633277 0.16549233 0.058286473
0.55718291 0.16598332 0.058842305
0.55720675 0.1667669 0.058837529
0.55723053 0.16755047 0.058832753
0.55725437 0.16833407 0.058827981
0.55810422 0.16881709 0.059383847
0.558128 0.16959909 0.059379082
0.55815178 0.17038107 0.059374318
0.5581755 0.17116307 0.059369549
0.55819929 0.17194507 0.059364785
0.55822307 0.17272705 0.05936002
0.55824685 0.17350905 0.059355255
0.55827063 0.17429104 0.059350491
0.55829436 0.17507303 0.059345726
0.55831814 0.17585503 0.059340958
0.55834192 0.17663702 0.059336193
0.55754018 0.1777371 0.058770683
0.55756396 0.17852068 0.058765907
0.55676234 0.17962554 0.058200348
0.55596083 0.18073359 0.057634789
0.55515939 0.18184482 0.057069194
0.55435807 0.18295923 0.056503594
0.5311417 -0.021004453 0.045374025
0.53283995 -0.020020826 0.04648811
0.53370148 -0.019122083 0.047042705
0.53372639 -0.018303456 0.047037717
0.53458774 -0.017409498 0.047592312
0.53461254 -0.016592467 0.047587335
0.53463739 -0.015775435 0.047582354
0.53549856 -0.014887846 0.048136987
0.53635961 -0.014003437 0.048691642
0.5372206 -0.01312222 0.049246311
0.53724527 -0.012309964 0.04924136
0.53810614 -0.011433521 0.049796097
0.53813076 -0.010622859 0.049791154
0.53899145 -0.009751196 0.050345886
0.53901601 -0.0089421272 0.050340958
0.53987658 -0.0080752447 0.050895713
0.53990108 -0.0072677629 0.050890792
0.53992563 -0.0064602881 0.050885871
0.54078597 -0.005599773 0.051440667
0.54081047 -0.0047938917 0.051435757
0.54083496 -0.0039880103 0.051430847
0.54085946 -0.0031821257 0.051425938
0.54088396 -0.0023762444 0.051421024
0.54090846 -0.0015703596 0.051416114
0.54093295 -0.00076447474 0.051411204
0.54012197 -4.818329e-07 0.05084651
0.54014653 0.00080699299 0.050841589
0.54017109 0.0016144678 0.050836667
0.54019564 0.0024219425 0.050831746
0.54022014 0.0032294174 0.050826825
0.53940952 0.0040029669 0.050262071
0.53943408 0.0048120352 0.050257143
0.53945869 0.0056211036 0.05025221
0.53948325 0.0064301724 0.050247282
0.53867286 0.0072116842 0.049682476
0.53869748 0.0080223447 0.049677536
0.53872216 0.0088330051 0.049672596
0.53791183 0.0096208854 0.049107719
0.53793657 0.010433139 0.049102772
0.53796124 0.011245393 0.049097821
0.53798592 0.012057647 0.04909287
0.5380106 0.012869901 0.049087923
0.53803527 0.013682155 0.049082972
0.53722543 0.014481184 0.048518062
0.53725016 0.01529503 0.048513103
0.5372749 0.016108878 0.048508145
0.53729963 0.016922724 0.048503187
0.53732437 0.017736569 0.048498224
0.53651476 0.018545156 0.047933254
0.53653955 0.019360594 0.047928289
0.53656435 0.020176034 0.047923319
0.53658909 0.020991473 0.04791835
0.53577977 0.021808023 0.047353335
0.53580457 0.022625053 0.047348354
0.53582942 0.023442086 0.047343377
0.53502023 0.024265004 0.046778318
0.53504515 0.025083629 0.046773329
0.53423607 0.025911327 0.046208214
0.53426099 0.026731545 0.046203215
0.5342859 0.027551761 0.046198219
0.53347713 0.028385829 0.045633093
0.5335021 0.029207639 0.045628086
0.53269339 0.030046485 0.045062933
0.55583757 0.16025865 0.057150569
0.55668706 0.16076243 0.057707541
0.55671096 0.16154762 0.057702757
0.5567348 0.16233279 0.05769797
0.55758411 0.16283017 0.058254998
0.55760795 0.16361377 0.058250222
0.55763179 0.16439734 0.058245447
0.55765557 0.16518092 0.058240671
0.55767941 0.16596453 0.058235899
0.5577032 0.16674812 0.058231123
0.55855221 0.16723435 0.058788203
0.55857593 0.16801634 0.058783438
0.55859971 0.16879834 0.058778673
0.55862349 0.16958033 0.058773905
0.55864727 0.17036232 0.05876914
0.558671 0.17114432 0.058764376
0.55951965 0.17161942 0.059321538
0.55954337 0.1723998 0.05931678
0.55956709 0.17318019 0.059312027
0.55959082 0.17396061 0.05930727
0.55961454 0.174741 0.059302516
0.55881363 0.17583628 0.058735784
0.55883741 0.17661828 0.058731019
0.5588612 0.17740026 0.058726255
0.55806047 0.1785019 0.058159497
0.55808431 0.17928547 0.058154725
0.5572837 0.18039191 0.057587925
0.55648327 0.18150149 0.057021119
0.5556829 0.18261428 0.056454282
0.53163838 -0.021847602 0.044741817
0.53166342 -0.021024195 0.044736799
0.53335965 -0.020040492 0.045853354
0.53422016 -0.019141709 0.046409182
0.53508055 -0.018246118 0.046964999
0.53594089 -0.017353712 0.047520839
0.53513026 -0.016612057 0.046955042
0.53599042 -0.015722835 0.0475109
0.53685051 -0.014836798 0.048066773
0.53687525 -0.014022949 0.048061814
0.53773522 -0.013141694 0.048617717
0.5377599 -0.012329438 0.04861277
0.53861976 -0.011452957 0.049168736
0.53864443 -0.010642295 0.049163796
0.53950411 -0.0097705936 0.049719758
0.53952867 -0.0089615248 0.049714826
0.54038817 -0.0080946041 0.050270818
0.54041272 -0.0072871218 0.050265897
0.54043728 -0.006479647 0.050260976
0.54046184 -0.0056721722 0.050256055
0.5413211 -0.0048132129 0.050812095
0.5413456 -0.0040073316 0.050807185
0.54137009 -0.0032014467 0.050802272
0.54056001 -0.0024422731 0.050236374
0.54058456 -0.0016347982 0.050231453
0.54060906 -0.00082731596 0.050226532
0.54063362 -1.9841165e-05 0.050221611
0.54065818 0.00078763365 0.050216693
0.54068273 0.0015951085 0.050211772
0.53987294 0.0023654322 0.049645804
0.53989756 0.0031745008 0.049640872
0.53992212 0.0039835693 0.049635943
0.53911257 0.004760264 0.049069937
0.53913724 0.0055709258 0.049064998
0.53916186 0.0063815862 0.049060058
0.53918648 0.0071922485 0.049055118
0.53837717 0.0079769036 0.048489027
0.53840184 0.0087891575 0.048484076
0.53842652 0.0096014114 0.048479129
0.53845119 0.010413665 0.048474178
0.53847587 0.011225919 0.048469227
0.53766686 0.012020133 0.047903117
0.53769159 0.012833981 0.047898155
0.53771633 0.013647826 0.047893196
0.53774107 0.014461672 0.047888238
0.5377658 0.015275517 0.047883276
0.53695709 0.01607929 0.047317106
0.53698188 0.016894728 0.047312137
0.53700668 0.017710166 0.047307167
0.53703141 0.018525606 0.047302198
0.53622293 0.019337339 0.046735976
0.53624779 0.02015437 0.046730999
0.53627259 0.020971403 0.046726018
0.53629744 0.021788433 0.046721041
0.5354892 0.022608129 0.046154771
0.53551406 0.023426754 0.046149783
0.53470594 0.024251228 0.045583453
0.53473085 0.025071446 0.045578454
0.53475577 0.025891662 0.045573458
0.53394789 0.026722508 0.045007117
0.53397286 0.027544316 0.04500211
0.53399783 0.028366126 0.044997104
0.53319007 0.029203342 0.044430725
0.53321511 0.030026743 0.044425707
0.53240752 0.030868737 0.043859303
0.55718458 0.16074361 0.057099901
0.55803299 0.16124423 0.05765814
0.55723232 0.16231395 0.057090331
0.55808061 0.16281138 0.057648588
0.55810446 0.16359498 0.057643816
0.5581283 0.16437857 0.05763904
0.55815208 0.16516213 0.057634264
0.55900013 0.16565162 0.058192555
0.55902392 0.16643362 0.05818779
0.5590477 0.1672156 0.058183026
0.55907142 0.1679976 0.058178261
0.5590952 0.16877958 0.058173493
0.55911899 0.16956158 0.058168728
0.55996668 0.17003989 0.058727108
0.55999041 0.1708203 0.058722351
0.56001413 0.1716007 0.058717597
0.56003785 0.17238109 0.05871284
0.56006157 0.17316149 0.058708083
0.5600853 0.17394191 0.058703329
0.56010902 0.1747223 0.058698572
0.56013274 0.17550269 0.058693819
0.56015646 0.17628311 0.058689062
0.56018019 0.17706351 0.058684308
0.55938041 0.17816351 0.058116309
0.55940419 0.1789455 0.058111545
0.5586046 0.18005028 0.057543539
0.55862844 0.18083386 0.057538766
0.55782896 0.18194343 0.056970716
0.53301978 -0.020962153 0.044661589
0.53471398 -0.019979959 0.045780648
0.53557342 -0.019082736 0.046337686
0.53643274 -0.0181887 0.046894748
0.53645754 -0.01737326 0.046889778
0.53648233 -0.016557822 0.046884809
0.53734148 -0.015670156 0.047441907
0.53736621 -0.014856311 0.047436949
0.53822523 -0.01397342 0.047994073
0.53824991 -0.013161168 0.047989126
0.53910881 -0.01228305 0.048546314
0.53913343 -0.011472393 0.048541375
0.53999215 -0.010599059 0.049098559
0.54001671 -0.0097899903 0.049093626
0.54004133 -0.0089809224 0.049088698
0.54089981 -0.0081139635 0.049645923
0.54092437 -0.0073064812 0.049641002
