# .PCD v0.7 - Point Cloud Data file format
VERSION 0.7
FIELDS x y z
SIZE 4 4 4
TYPE F F F
COUNT 1 1 1
WIDTH 1363
HEIGHT 1
VIEWPOINT 0 0 0 1 0 0 0
POINTS 1363
DATA ascii
0.49429104 0.039804839 0.024373155
0.49431813 0.040696725 0.02436772
0.49434525 0.041588612 0.024362285
0.49437237 0.042480495 0.024356849
0.49356139 0.043411911 0.023797261
0.49358854 0.044305388 0.023791816
0.49361572 0.045198869 0.023786372
0.49364287 0.046092346 0.023780927
0.49367002 0.046985827 0.023775483
0.49369717 0.047879305 0.023770038
0.4928866 0.048821863 0.023210419
0.49291381 0.049716935 0.023204966
0.49294102 0.05061201 0.02319951
0.4929682 0.051507082 0.023194056
0.49299541 0.05240215 0.023188602
0.49302262 0.053297222 0.023183148
0.49304983 0.054192293 0.023177693
0.49307704 0.055087365 0.023172239
0.49310425 0.055982437 0.023166785
0.49313146 0.056877509 0.023161329
0.49315867 0.057772581 0.023155876
0.49318588 0.058667656 0.023150422
0.49321306 0.059562724 0.023144968
0.49324027 0.060457796 0.023139512
0.49326748 0.061352868 0.023134058
0.49329469 0.062247943 0.023128605
0.4933219 0.063143015 0.023123151
0.4925122 0.064114235 0.022563353
0.49170259 0.065088645 0.022003537
0.49089307 0.06606625 0.021443702
0.48924682 0.067127965 0.020329446
0.48927426 0.068031006 0.020323941
0.48762837 0.069102272 0.019209661
0.48681924 0.070094213 0.018649703
0.48601025 0.071089327 0.018089764
0.48520136 0.072087623 0.017529802
0.48355609 0.073179603 0.016415393
0.4835839 0.074093781 0.016409822
0.48277524 0.075101651 0.015849771
0.48113042 0.076207958 0.014735273
0.47948572 0.077320643 0.013620704
0.47616881 0.078636594 0.011397176
0.42361987 0.11688145 -0.024284495
0.42281649 0.11806131 -0.024845559
0.42201319 0.11924437 -0.025406683
0.42204461 0.120278 -0.02541298
0.42124146 0.12146583 -0.025974095
0.42127293 0.12250105 -0.025980402
0.42213884 0.1233789 -0.025431877
0.42300472 0.12425355 -0.024883294
0.42470479 0.12496446 -0.023779877
0.48418164 -0.0080507677 0.017868107
0.4842093 -0.0071413657 0.017862566
0.48507661 -0.0061838496 0.018411839
0.48594388 -0.0052295187 0.018961167
0.48681101 -0.0042783739 0.019510483
0.48683852 -0.0033737454 0.01950497
0.4877055 -0.0024273775 0.020054312
0.48941189 -0.0014440491 0.021158576
0.49027863 -0.00050564972 0.021707965
0.49114528 0.00042956986 0.022257378
0.49201182 0.0013616021 0.022806806
0.49287829 0.0022904507 0.023356259
0.49290544 0.0031839274 0.023350814
0.49293259 0.0040774057 0.02334537
0.49379891 0.0049998839 0.023894891
0.493826 0.0058917725 0.023889456
0.49385312 0.0067836572 0.023884023
0.49388021 0.0076755439 0.023878587
0.49390733 0.0085674282 0.023873152
0.49393445 0.0094593167 0.023867717
0.49396154 0.010351203 0.023862282
0.49398866 0.011243088 0.023856847
0.49401578 0.012134977 0.023851411
0.49404287 0.013026863 0.023845978
0.49406999 0.013918748 0.023840543
0.49409708 0.014810635 0.023835108
0.4941242 0.015702523 0.023829672
0.49415132 0.016594408 0.023824237
0.49417841 0.017486295 0.023818802
0.49420553 0.018378181 0.023813369
0.49423265 0.019270066 0.023807934
0.49425974 0.020161955 0.023802498
0.49428686 0.021053839 0.023797063
0.49515215 0.021944463 0.024346745
0.49517921 0.022834757 0.024341319
0.49520627 0.023725051 0.024335895
0.49523333 0.024615346 0.024330469
0.49526039 0.02550564 0.024325043
0.49528745 0.026395932 0.024319619
0.49531451 0.027286226 0.024314193
0.49450374 0.028188931 0.023753583
0.49453086 0.029080817 0.023748148
0.49455795 0.029972704 0.023742715
0.49458507 0.030864591 0.02373728
0.49461219 0.031756476 0.023731844
0.49463928 0.032648362 0.023726409
0.4946664 0.033540249 0.023720974
0.49469349 0.034432136 0.023715539
0.49472061 0.035324022 0.023710104
0.49474773 0.036215909 0.02370467
0.49477482 0.037107795 0.023699235
0.49480194 0.037999682 0.0236938
0.49482906 0.038891569 0.023688365
0.49401888 0.039816573 0.023127584
0.49404606 0.040710051 0.023122139
0.49407321 0.041603532 0.023116695
0.49410036 0.042497009 0.02311125
0.49412751 0.043390486 0.023105806
0.49415469 0.044283967 0.023100361
0.49334493 0.045220118 0.022539545
0.49337211 0.04611519 0.022534091
0.49339932 0.047010262 0.022528637
0.49342653 0.047905333 0.022523183
0.49345374 0.048800405 0.022517728
0.49348095 0.049695477 0.022512274
0.49350816 0.050590549 0.02250682
0.49353537 0.05148562 0.022501364
0.49356258 0.052380692 0.022495911
0.49358976 0.053275764 0.022490457
0.49361697 0.054170836 0.022485003
0.49364418 0.055065908 0.022479547
0.49367139 0.055960979 0.022474093
0.4936986 0.056856051 0.02246864
0.49372581 0.057751123 0.022463186
0.49375302 0.058646195 0.02245773
0.49294406 0.059609421 0.021896752
0.49297133 0.060506083 0.021891288
0.49299857 0.061402749 0.021885823
0.49302584 0.062299412 0.02188036
0.49305308 0.063196078 0.021874895
0.49224442 0.064168856 0.021313857
0.49143589 0.065144822 0.020752801
0.49146321 0.066044673 0.020747317
0.48981902 0.067106321 0.019630592
0.48984647 0.068009354 0.01962509
0.48903823 0.068996467 0.019063966
0.48823011 0.069986768 0.01850282
0.48658648 0.071067519 0.017385982
0.4857786 0.072065786 0.016824787
0.48497084 0.073067233 0.016263576
0.48416314 0.074071869 0.015702343
0.48335552 0.075079694 0.015141058
0.4817127 0.076185927 0.014024097
0.47923476 0.077395357 0.012351363
0.47759238 0.078515925 0.011234314
0.42677397 0.11641338 -0.023413915
0.42597148 0.11758843 -0.02397619
0.42600268 0.1186157 -0.02398245
0.42520034 0.11979552 -0.024544748
0.42523161 0.12082438 -0.024551017
0.42526287 0.12185322 -0.024557287
0.42529416 0.12288209 -0.024563557
0.42615882 0.12375201 -0.024013748
0.48473024 -0.0089819767 0.01716987
0.48475787 -0.0080725709 0.017164329
0.48478553 -0.0071631689 0.017158786
0.48565182 -0.0062056147 0.017709294
0.48651811 -0.0052512456 0.018259855
0.48654565 -0.0043450273 0.018254332
0.48741171 -0.003395434 0.018804889
0.4882777 -0.002449028 0.019355463
0.48914358 -0.0015058095 0.019906057
0.4900094 -0.00056577573 0.020456707
0.4908751 0.00037107192 0.02100734
0.49257895 0.0013401426 0.022114122
0.49260616 0.0022352128 0.022108668
0.49347156 0.003162506 0.022659359
0.49349871 0.0040559843 0.022653915
0.49352589 0.0049494626 0.02264847
0.49355304 0.0058429451 0.022643026
0.49358019 0.0067364234 0.022637581
0.49360734 0.0076299016 0.022632137
0.49363452 0.0085233804 0.022626692
0.49366167 0.0094168605 0.022621246
0.49368882 0.010310339 0.022615802
0.49371597 0.011203817 0.022610357
0.49458089 0.012113594 0.023161191
0.49460801 0.01300548 0.023155756
0.49463511 0.013897365 0.023150321
0.49466223 0.014789252 0.023144886
0.49468932 0.01568114 0.023139451
0.49471644 0.016573025 0.023134016
0.49474356 0.017464912 0.023128582
0.49477065 0.018356798 0.023123147
0.49479777 0.019248683 0.023117712
0.49482489 0.020140572 0.023112277
0.49485198 0.021032456 0.023106841
0.4948791 0.021924343 0.023101406
0.49490622 0.02281623 0.023095971
0.49493331 0.023708116 0.023090538
0.49496043 0.024600003 0.023085102
0.49498752 0.02549189 0.023079667
0.49501464 0.026383774 0.023074232
0.49504176 0.027275661 0.023068797
0.49506885 0.028167548 0.023063362
0.49509597 0.029059434 0.023057928
0.49512309 0.029951321 0.023052493
0.49515018 0.030843208 0.023047058
0.4951773 0.031735092 0.023041623
0.49520442 0.032626979 0.023036188
0.49523151 0.033518866 0.023030752
0.49525863 0.034410752 0.023025317
0.49528572 0.035302639 0.023019884
0.49447641 0.036221232 0.022457909
0.49450356 0.037114713 0.022452464
0.49453071 0.038008191 0.02244702
0.49455786 0.038901672 0.022441575
0.49458504 0.039795149 0.022436131
0.49461219 0.04068863 0.022430684
0.49463934 0.041582108 0.02242524
0.49383044 0.042513441 0.021863224
0.49385765 0.043408513 0.021857768
0.49388486 0.044303585 0.021852314
0.49391207 0.04519866 0.021846861
0.49393925 0.046093728 0.021841407
0.49396646 0.0469888 0.021835951
0.49315789 0.047931284 0.021273866
0.49318516 0.04882795 0.021268401
0.4932124 0.049724612 0.021262938
0.49323967 0.050621279 0.021257473
0.49326691 0.051517941 0.02125201
0.49329418 0.052414607 0.021246547
0.49332142 0.05331127 0.021241082
0.49334869 0.054207932 0.021235619
0.49337596 0.055104598 0.021230154
0.4934032 0.056001265 0.021224691
0.49343047 0.056897927 0.021219226
0.4934577 0.05779459 0.021213762
0.49348497 0.058691259 0.021208297
0.49351221 0.059587922 0.021202834
0.49353948 0.060484584 0.021197369
0.49356672 0.061381251 0.021191906
0.49275899 0.06235081 0.020629652
0.49278629 0.063249066 0.020624179
0.49281359 0.064147323 0.020618705
0.49200603 0.065123245 0.020056415
0.49119854 0.066102371 0.019494072
0.49039119 0.06708467 0.018931745
0.49041864 0.067987703 0.018926241
0.48961145 0.068974778 0.018363884
0.48880434 0.069965042 0.017801508
0.48799726 0.070958495 0.017239077
0.48719034 0.071955122 0.016676661
0.48638353 0.072954945 0.016114224
0.48557681 0.073957942 0.015551769
0.48477018 0.074964136 0.014989296
0.48229498 0.076163895 0.013312924
0.48065433 0.077276424 0.012193425
0.47734547 0.078592077 0.0099600358
0.46903184 0.080520287 0.0043847566
0.46405578 0.082074098 0.001037197
0.45908028 0.08364702 -0.0023104788
0.42924473 0.12120572 -0.023124306
0.42927581 0.12222821 -0.023130536
0.48695457 -0.0098040719 0.017586151
0.48614427 -0.0089508193 0.017023344
0.48700967 -0.0079916315 0.017575106
0.48619947 -0.0071351915 0.017012279
0.48706475 -0.0061791907 0.017564062
0.48709232 -0.0052729724 0.017558539
0.48711985 -0.0043667541 0.017553017
0.48798493 -0.0034171224 0.018104807
0.48884988 -0.0024706784 0.018656615
0.48971474 -0.0015274216 0.019208442
0.49057958 -0.0005873497 0.019760324
0.49144426 0.00034953616 0.020312192
0.49230883 0.0012832384 0.020864077
0.4931733 0.0022137533 0.021415982
0.49320051 0.0031088255 0.021410529
0.49322772 0.0040038973 0.021405075
0.49325493 0.0048989695 0.021399619
0.49328214 0.0057940418 0.021394165
0.49330935 0.0066891136 0.021388711
0.49333656 0.0075841839 0.021383256
0.49420065 0.008501959 0.021935239
0.4942278 0.0093954392 0.021929795
0.49425495 0.010288917 0.02192435
0.49428213 0.011182396 0.021918906
0.49430928 0.012075878 0.021913461
0.49433643 0.012969356 0.021908017
0.49436358 0.013862835 0.021902572
0.49439076 0.014756314 0.021897128
0.49441791 0.015649794 0.021891683
0.49444506 0.016543271 0.021886239
0.49447221 0.01743675 0.021880794
0.49449939 0.018330231 0.021875348
0.49452654 0.019223709 0.021869903
0.49539 0.020119188 0.022422055
0.49541712 0.021011073 0.02241662
0.49544421 0.02190296 0.022411186
0.49547133 0.022794846 0.022405751
0.49549845 0.023686733 0.022400316
0.49552554 0.02457862 0.022394881
0.49555266 0.025470506 0.022389445
0.49557975 0.026362391 0.02238401
0.49560687 0.027254278 0.022378575
0.49563399 0.028146164 0.022373142
0.49566108 0.029038051 0.022367707
0.4956882 0.029929938 0.022362271
0.49571532 0.030821824 0.022356836
0.49574241 0.031713709 0.022351401
0.4949339 0.032625895 0.021788236
0.49496105 0.033519376 0.021782791
0.4949882 0.034412853 0.021777345
0.49501535 0.035306334 0.0217719
0.49504253 0.036199812 0.021766456
0.49506968 0.037093293 0.021761011
0.49509683 0.03798677 0.021755567
0.49428874 0.038911697 0.021192355
0.49431595 0.039806768 0.021186901
0.49434316 0.04070184 0.021181447
0.49437037 0.041596912 0.021175992
0.49439758 0.042491984 0.021170538
0.49442479 0.043387055 0.021165084
0.494452 0.044282127 0.02115963
0.4936443 0.045219794 0.02059634
0.49367154 0.046116456 0.020590875
0.49369881 0.047013123 0.020585412
0.49372604 0.047909785 0.020579947
0.49375331 0.048806451 0.020574484
0.49294591 0.049753673 0.020011136
0.49297321 0.05065193 0.020005662
0.49300051 0.051550187 0.020000188
0.49302781 0.052448444 0.019994715
0.49305511 0.053346701 0.019989241
0.4930824 0.054244958 0.019983767
0.49310973 0.055143218 0.019978294
0.49313703 0.056041472 0.01997282
0.49316433 0.056939729 0.019967346
0.49319163 0.057837985 0.019961873
0.49321893 0.058736246 0.019956399
0.49324623 0.059634499 0.019950924
0.49327353 0.06053276 0.01994545
0.49330083 0.061431013 0.019939978
0.49332815 0.062329274 0.019934503
0.49335545 0.063227527 0.019929029
0.49254885 0.064201824 0.019365517
0.49257621 0.065101676 0.019360034
0.49176973 0.066080756 0.018796457
0.49096337 0.067063019 0.018232895
0.49099082 0.067966051 0.018227393
0.49018463 0.068953089 0.017663801
0.48937854 0.069943309 0.017100193
0.48940608 0.07084953 0.01709467
0.48860008 0.071844541 0.016530998
0.48779422 0.072842725 0.015967341
0.48698846 0.073844098 0.015403663
0.48618278 0.074848659 0.014839965
0.48454386 0.075951561 0.013718061
0.48207191 0.077157564 0.012037985
0.47876701 0.078471474 0.0097996406
0.47129664 0.080297776 0.0047702631
0.4663265 0.081848174 0.0014153288
0.46052387 0.083520807 -0.0024979608
0.48752877 -0.0098257987 0.016884837
0.48755634 -0.0089195762 0.016879316
0.48758388 -0.0080133574 0.016873794
0.48761141 -0.0071071396 0.016868271
0.48763895 -0.0062009175 0.01686275
0.48850313 -0.0052480679 0.017415753
0.48853061 -0.0043434394 0.017410239
0.48939461 -0.0033953637 0.017963268
0.48942205 -0.0024923289 0.017957766
0.49028593 -0.0015490338 0.018510826
0.49114975 -0.00060892379 0.019063938
0.49201339 0.00032800029 0.01961704
0.49204072 0.0012262578 0.019611565
0.49290422 0.0021584046 0.020164695
0.49293149 0.0030550703 0.02015923
0.49295872 0.0039517344 0.020153766
0.49382207 0.00487751 0.020706931
0.49384928 0.0057725823 0.020701477
0.49387649 0.006667654 0.020696023
0.4939037 0.0075627244 0.020690568
0.49393091 0.0084577966 0.020685114
0.49395809 0.0093528703 0.02067966
0.4939853 0.01024794 0.020674206
0.4940125 0.011143013 0.020668751
0.49403971 0.012038085 0.020663297
0.49406692 0.012933156 0.020657843
0.49409413 0.013828227 0.020652389
0.49412134 0.014723299 0.020646933
0.49414855 0.015618373 0.02064148
0.49417573 0.016513443 0.020636026
0.49503836 0.01741533 0.021189339
0.49506551 0.018308809 0.021183895
0.49509266 0.019202288 0.021178449
0.49511981 0.020095767 0.021173004
0.49514699 0.020989247 0.02116756
0.49517414 0.021882726 0.021162115
0.49520129 0.022776203 0.021156671
0.49522844 0.023669684 0.021151226
0.49525562 0.024563164 0.021145782
0.49528277 0.025456643 0.021140337
0.49530992 0.02635012 0.021134892
0.49533707 0.027243599 0.021129448
0.49536425 0.028137079 0.021124003
0.4953914 0.029030558 0.021118559
0.49541855 0.029924037 0.021113114
0.4954457 0.030817516 0.02110767
0.49547288 0.031710997 0.021102225
0.49550003 0.032604475 0.021096781
0.49552718 0.033497956 0.021091336
0.49555433 0.034391433 0.021085892
0.49474707 0.035309948 0.020521484
0.49477428 0.036205024 0.02051603
0.49480149 0.037100092 0.020510577
0.4948287 0.037995163 0.020505121
0.49485591 0.038890235 0.020499667
0.49488309 0.039785311 0.020494213
0.4949103 0.040680382 0.020488758
0.49493751 0.041575454 0.020483304
0.49413067 0.042508304 0.019918812
0.49415794 0.043404967 0.019913349
0.49418518 0.044301633 0.019907886
0.49421245 0.045198295 0.019902421
0.49340585 0.04613911 0.019337879
0.49343315 0.047037367 0.019332405
0.49346045 0.047935624 0.019326931
0.49348775 0.048833881 0.019321458
0.49351507 0.049732137 0.019315984
0.49270877 0.050682507 0.018751383
0.4927361 0.051582355 0.018745899
0.49359697 0.052426908 0.019299563
0.49279082 0.053382054 0.018734934
0.49281818 0.054281905 0.01872945
0.49284551 0.055181757 0.018723967
0.49287286 0.056081604 0.018718483
0.4937335 0.056918193 0.019272193
0.49376079 0.05781645 0.019266721
0.49378809 0.05871471 0.019261247
0.49381539 0.059612963 0.019255772
0.49300963 0.060580853 0.018691065
0.49303699 0.061480701 0.018685583
0.49306431 0.062380552 0.018680099
0.49309167 0.063280404 0.018674616
0.49311903 0.064180247 0.018669132
0.49314639 0.065080099 0.018663649
0.49234089 0.066059142 0.01809884
0.49153557 0.067041367 0.017534046
0.49156302 0.0679444 0.017528543
0.49159047 0.068847433 0.017523041
0.49078533 0.069836028 0.016958211
0.48998028 0.070827805 0.016393358
0.49000782 0.071734026 0.016387835
0.48920289 0.072730586 0.015822921
0.48839808 0.073730327 0.01525802
0.48676103 0.074826777 0.014133723
0.48512411 0.075929604 0.013009352
0.48348746 0.077038787 0.011884973
0.48018655 0.078350954 0.0096417116
0.47355735 0.080075428 0.0051606679
0.46859318 0.081622414 0.0017983589
0.4636296 0.083188504 -0.0015640693
0.488103 -0.0098475246 0.016183525
0.48813054 -0.008941303 0.016178003
0.48815808 -0.0080350842 0.016172482
0.48818561 -0.0071288664 0.016166959
0.48821318 -0.0062226439 0.016161436
0.48907632 -0.0052697565 0.01671567
0.48910379 -0.004365128 0.016710157
0.48996681 -0.0034170139 0.01726442
0.48999426 -0.0025139791 0.017258916
0.49085709 -0.001570646 0.017813211
0.4917199 -0.00063049776 0.018367557
0.49174726 0.00026935342 0.018362073
0.49260986 0.001204722 0.018916413
0.49263716 0.0021029795 0.018910941
0.49349964 0.0030335726 0.019465312
0.49352688 0.0039302367 0.019459847
0.49355415 0.0048269005 0.019454384
0.49358138 0.0057235663 0.019448919
0.49360865 0.0066202302 0.019443456
0.49363589 0.007516894 0.019437991
0.49366316 0.0084135579 0.019432528
0.4936904 0.0093102232 0.019427063
0.49371767 0.010206887 0.0194216
0.49374491 0.011103551 0.019416137
0.49377218 0.012000217 0.019410672
0.49379942 0.012896881 0.019405209
0.49382669 0.013793545 0.019399744
0.49468848 0.01470184 0.019954249
0.49471569 0.015596913 0.019948794
0.4947429 0.016491983 0.01994334
0.49477008 0.017387055 0.019937886
0.49479729 0.018282128 0.019932432
0.4948245 0.019177198 0.019926976
0.49485171 0.02007227 0.019921523
0.49487892 0.020967342 0.019916069
0.49574026 0.021861304 0.020470664
0.49576741 0.022754783 0.020465219
0.49579459 0.023648264 0.020459775
0.49582174 0.024541741 0.02045433
0.49584889 0.02543522 0.020448886
0.49587604 0.0263287 0.020443441
0.49590322 0.027222179 0.020437997
0.49593037 0.028115658 0.020432552
0.49595752 0.029009137 0.020427106
0.49598467 0.029902617 0.020421661
0.49517819 0.030813131 0.019856071
0.4952054 0.031708203 0.019850617
0.49523258 0.032603275 0.019845162
0.49525979 0.033498347 0.019839708
0.495287 0.034393419 0.019834254
0.49531421 0.03528849 0.0198288
0.49534142 0.036183562 0.019823344
0.49536863 0.037078634 0.019817891
0.49539584 0.037973706 0.019812437
0.49458981 0.038900148 0.019246751
0.49461707 0.039796811 0.019241286
0.49464431 0.040693477 0.019235823
0.49467158 0.041590139 0.019230358
0.49469882 0.042486805 0.019224895
0.49389309 0.043422803 0.018659148
0.49392042 0.04432106 0.018653674
0.49394771 0.045219317 0.018648202
0.49314216 0.046161685 0.018082418
0.49316952 0.047061533 0.018076936
0.49319687 0.047961384 0.018071452
0.49322423 0.048861235 0.018065969
0.49325156 0.049761083 0.018060485
0.49327892 0.050660934 0.018055001
0.49330628 0.051560782 0.018049518
0.49333364 0.052460633 0.018044034
0.493361 0.053360481 0.01803855
0.49338832 0.054260332 0.018033067
0.49341568 0.055160183 0.018027583
0.49344304 0.056060031 0.018022101
0.4934704 0.056959882 0.018016618
0.49349773 0.05785973 0.018011134
0.49352509 0.058759581 0.01800565
0.49355245 0.059659429 0.018000167
0.4935798 0.06055928 0.017994683
0.49360713 0.061459128 0.0179892
0.49363449 0.062358979 0.017983716
0.49366185 0.063258827 0.017978232
0.49368921 0.064158678 0.017972749
0.49288467 0.06513609 0.017406719
0.49291208 0.066037528 0.017401226
0.49210775 0.067019716 0.016835198
0.4921352 0.067922749 0.016829696
0.49216264 0.068825781 0.016824191
0.49135852 0.069814339 0.016258128
0.49138603 0.070718966 0.016252615
0.49058202 0.0717123 0.015686523
0.49060959 0.072618522 0.015681
0.48980567 0.073616631 0.015114843
0.48900193 0.07461793 0.014548698
0.48653573 0.075812563 0.012861296
0.48406973 0.077016756 0.011173801
0.48160404 0.078230508 0.0094862469
0.47581407 0.079853229 0.0055560376
0.4708558 0.081396796 0.0021863165
0.46589819 0.082959481 -0.0011834864
0.48951203 -0.00981458 0.016043151
0.48953953 -0.0089099547 0.016037637
0.48956701 -0.0080053266 0.016032126
0.48959452 -0.0071006981 0.016026612
0.489622 -0.0061960737 0.016021101
0.4896495 -0.0052914452 0.016015587
0.49051154 -0.0043417029 0.016571077
0.49053898 -0.0034386644 0.016565574
0.49056643 -0.0025356296 0.01656007
0.49142829 -0.0015922582 0.017115595
0.49229008 -0.00065207185 0.017671172
0.49231744 0.00024777933 0.017665688
0.49234477 0.0011476268 0.017660204
0.49320632 0.0020814438 0.01821579
0.49323362 0.0029797012 0.018210318
0.49326092 0.0038779569 0.018204844
0.49328825 0.0047762142 0.018199369
0.49331555 0.0056744721 0.018193897
0.49334285 0.0065727294 0.018188423
0.49337015 0.0074709849 0.018182948
0.49339744 0.0083692428 0.018177476
0.49342474 0.0092674997 0.018172001
0.49345204 0.010165757 0.018166527
0.49347934 0.011064013 0.018161053
0.49350667 0.011962272 0.01815558
0.49353397 0.012860528 0.018150106
0.49356127 0.013758786 0.018144632
0.49442208 0.014668711 0.018700361
0.49444935 0.015565377 0.018694896
0.49447659 0.016462041 0.018689433
0.49450386 0.017358704 0.018683968
0.4945311 0.01825537 0.018678505
0.49539164 0.019155739 0.019234292
0.49541885 0.020050811 0.019228838
0.49544606 0.020945882 0.019223383
0.49547327 0.021840954 0.019217929
0.49550048 0.022736026 0.019212475
0.49552768 0.0236311 0.019207019
0.49555489 0.02452617 0.019201566
0.49558207 0.025421241 0.019196112
0.49560928 0.026316313 0.019190658
0.49563649 0.027211385 0.019185202
0.4956637 0.028106457 0.019179748
0.49569091 0.029001528 0.019174295
0.49571812 0.0298966 0.019168841
0.49574533 0.030791672 0.019163385
0.49577254 0.031686746 0.019157931
0.49579972 0.032581817 0.019152477
0.49582693 0.033476889 0.019147024
0.49585414 0.034371961 0.019141568
0.49504894 0.035291992 0.018574689
0.49507621 0.036188658 0.018569224
0.49510345 0.037085321 0.01856376
0.49513072 0.037981983 0.018558297
0.49515796 0.038878649 0.018552832
0.49435306 0.03980824 0.017985893
0.49438035 0.040706497 0.017980421
0.49440765 0.041604754 0.017974947
0.49443495 0.04250301 0.017969472
0.49363029 0.043440562 0.017402483
0.49365765 0.044340413 0.017397
0.49368498 0.045240261 0.017391516
0.49371234 0.046140112 0.017386032
0.49373969 0.04703996 0.017380551
0.49376705 0.047939811 0.017375067
0.49296266 0.048888516 0.016807979
0.49299005 0.049789958 0.016802486
0.49301746 0.0506914 0.016796993
0.49304485 0.051592842 0.0167915
0.49307227 0.052494284 0.016786007
0.49309966 0.053395726 0.016780514
0.49312705 0.054297168 0.016775021
0.49315447 0.055198614 0.016769528
0.49318185 0.056100052 0.016764034
0.49404055 0.056938305 0.017320232
0.49406791 0.057838157 0.017314749
0.49409527 0.058738008 0.017309265
0.49412259 0.059637856 0.017303782
0.49414995 0.060537707 0.017298298
0.49417731 0.061437555 0.017292814
0.49420467 0.062337406 0.017287331
0.49340105 0.063311592 0.01672009
0.49342847 0.064213037 0.016714597
0.49345586 0.065114476 0.016709102
0.49348325 0.066015922 0.016703609
0.49351066 0.06691736 0.016698116
0.49270737 0.067901105 0.016130848
0.49273482 0.06880413 0.016125346
0.49276227 0.06970717 0.016119843
0.49195921 0.070697278 0.015552533
0.49198672 0.071601905 0.01554702
0.49118379 0.072596796 0.014979685
0.49121132 0.07350301 0.014974162
0.48957816 0.074596129 0.013844919
0.48711497 0.075790651 0.01215382
0.48465201 0.076994725 0.010462627
0.48301953 0.078110144 0.0093332483
0.47806671 0.07963118 0.0059563033
0.47311446 0.081171334 0.0025792394
0.4681628 0.082730599 -0.00079793821
0.49008521 -0.0098362686 0.015343071
0.49011272 -0.0089316433 0.015337558
0.4901402 -0.0080270153 0.015332046
0.49016771 -0.0071223867 0.015326533
0.49019521 -0.0062177619 0.015321021
0.49022269 -0.0053131338 0.015315508
0.49108374 -0.0043633534 0.015872227
0.49111119 -0.0034603146 0.015866725
0.49113864 -0.00255728 0.015861223
0.49199945 -0.0016138705 0.016417976
0.49202687 -0.00071242935 0.016412484
0.49205425 0.00018901174 0.016406991
0.49291494 0.0011260528 0.016963823
0.4929423 0.0020259039 0.016958339
0.49296963 0.0029257534 0.016952856
0.49299699 0.0038256026 0.016947372
0.49302435 0.004725452 0.016941888
0.49305171 0.0056253029 0.016936406
0.49307907 0.0065251524 0.016930923
0.4931064 0.0074250018 0.016925439
0.49313375 0.0083248513 0.016919956
0.49316111 0.0092247026 0.016914472
0.49318847 0.010124549 0.016908988
0.4932158 0.011024399 0.016903505
0.49324316 0.01192425 0.016898021
0.49327052 0.0128241 0.016892537
0.49413043 0.01373725 0.017449481
0.49415773 0.014635506 0.017444007
0.49418503 0.015533765 0.017438533
0.49421233 0.016432021 0.01743306
0.49423963 0.017330278 0.017427586
0.49426693 0.018228535 0.017422112
0.49512652 0.019130535 0.017979123
0.49515375 0.0200272 0.017973658
0.49518102 0.020923864 0.017968195
0.49520826 0.02182053 0.01796273
0.49523553 0.022717193 0.017957266
0.49609482 0.02360964 0.018514335
0.49612203 0.02450471 0.018508881
0.49614921 0.025399782 0.018503426
0.49617642 0.026294854 0.018497972
0.49620363 0.027189925 0.018492518
0.49623084 0.028084997 0.018487064
0.4954263 0.028993843 0.017919019
0.49545357 0.029890509 0.017913554
0.49548081 0.030787174 0.017908091
0.49550807 0.031683836 0.017902626
0.49553531 0.032580502 0.017897163
0.49556258 0.033477165 0.017891698
0.49558982 0.034373831 0.017886234
0.4947857 0.035295419 0.017318111
0.494813 0.036193676 0.017312637
0.49484029 0.037091933 0.017307164
0.49486759 0.03799019 0.01730169
0.49489489 0.038888447 0.017296216
0.49409103 0.039819591 0.016728034
0.49411839 0.040719438 0.016722551
0.49414575 0.04161929 0.016717069
0.49417311 0.042519137 0.016711585
0.49420047 0.043418989 0.016706102
0.49339685 0.044359688 0.016137827
0.49342424 0.045261133 0.016132334
0.49345163 0.046162572 0.016126841
0.49347904 0.047064018 0.016121348
0.49350643 0.04796546 0.016115854
0.49353385 0.048866902 0.016110361
0.49356124 0.049768344 0.016104868
0.49358863 0.050669786 0.016099375
0.49278551 0.05162482 0.015531051
0.49364343 0.05247267 0.016088389
0.49367085 0.053374115 0.016082896
0.49369824 0.054275554 0.016077403
0.49372563 0.055176999 0.01607191
0.49375305 0.056078441 0.016066415
0.49378043 0.056979883 0.016060922
0.49380782 0.057881325 0.016055429
0.49383524 0.058782768 0.016049936
0.49386263 0.05968421 0.016044443
0.49389005 0.060585652 0.016038951
0.49391744 0.061487094 0.016033458
0.49394482 0.062388539 0.016027965
0.49397224 0.063289978 0.016022472
0.49399963 0.064191423 0.016016977
0.49402702 0.065092862 0.016011484
0.49322468 0.06607338 0.015443006
0.49325213 0.066976413 0.015437502
0.49327958 0.067879453 0.015432
0.49330702 0.068782479 0.015426497
0.49333447 0.069685519 0.015420994
0.4925324 0.070675589 0.014852454
0.49255991 0.071580216 0.014846941
0.49258739 0.072484843 0.014841429
0.49178553 0.073481284 0.01427285
0.49015439 0.074574329 0.013141143
0.48935276 0.075578734 0.012572515
0.48606351 0.076876104 0.010314549
0.48526222 0.077891655 0.009745854
0.49149123 -0.0098032122 0.015206396
0.49151868 -0.0089001777 0.015200893
0.49071342 -0.0080487039 0.014631963
0.4907409 -0.0071440754 0.014626451
0.49160102 -0.006191073 0.015184385
0.49162847 -0.0052880384 0.015178882
0.49165592 -0.0043850034 0.015173378
0.49168336 -0.003481965 0.015167876
0.49171081 -0.0025789302 0.015162373
0.49173826 -0.0016758955 0.01515687
0.49259803 -0.00073404156 0.015714869
0.49262545 0.00016739956 0.015709376
0.49265283 0.0010688406 0.015703883
0.49268022 0.0019702855 0.015698388
0.49270764 0.0028717266 0.015692895
0.49273503 0.0037731696 0.015687402
0.49276242 0.0046746107 0.015681909
0.49278983 0.0055760555 0.015676416
0.49281722 0.0064774966 0.015670924
0.49284464 0.0073789395 0.015665431
0.49370393 0.0083032772 0.01622357
0.49373126 0.0092031285 0.016218087
0.49375862 0.010102975 0.016212603
0.49378598 0.011002825 0.016207119
0.49381334 0.011902676 0.016201636
0.49384069 0.012802525 0.016196152
0.49386802 0.013702375 0.016190669
0.49389538 0.014602224 0.016185187
0.49392274 0.015502076 0.016179703
0.4939501 0.016401924 0.01617422
0.49480879 0.017308742 0.016732434
0.49483609 0.018206999 0.016726959
0.49486339 0.019105256 0.016721487
0.49489069 0.020003513 0.016716013
0.49491802 0.020901769 0.016710538
0.49494532 0.021800026 0.016705066
0.49580368 0.022695696 0.017263347
0.49583092 0.02359236 0.017257884
0.49585819 0.024489025 0.017252419
0.49588543 0.025385689 0.017246956
0.4959127 0.026282353 0.017241491
0.49593994 0.027179018 0.017236028
0.49596721 0.028075682 0.017230563
0.49599445 0.028972346 0.0172251
0.49602172 0.029869011 0.017219635
0.49604896 0.030765675 0.017214172
0.49524564 0.031680852 0.016644854
0.49527293 0.032579109 0.01663938
0.49530023 0.03347737 0.016633907
0.49532756 0.034375627 0.016628433
0.49535486 0.035273883 0.016622959
0.49455181 0.036198616 0.016053583
0.49457917 0.037098467 0.0160481
0.49460652 0.037998315 0.016042616
0.49463385 0.038898166 0.016037133
0.49466121 0.039798014 0.016031649
0.49385843 0.040732309 0.015462184
0.49388582 0.041633751 0.01545669
0.4939132 0.042535193 0.015451198
0.49394062 0.043436635 0.015445705
0.49396801 0.044338077 0.015440212
0.49316555 0.045281924 0.014870722
0.493193 0.046184957 0.01486522
0.49322045 0.047087993 0.014859716
0.4932479 0.047991026 0.014854213
0.49327534 0.048894063 0.014848711
0.49330279 0.049797099 0.014843208
0.49333024 0.050700136 0.014837705
0.49335769 0.051603168 0.014832202
0.49338514 0.052506205 0.014826699
0.49341258 0.053409237 0.014821197
0.49344003 0.054312274 0.014815694
0.49346748 0.05521531 0.014810191
0.49349493 0.056118343 0.014804688
0.49352238 0.057021379 0.014799185
0.49354982 0.057924412 0.014793682
0.49357727 0.058827449 0.01478818
0.49443382 0.059662599 0.015346828
0.49446121 0.060564041 0.015341335
0.4944886 0.061465479 0.015335842
0.49451602 0.062366925 0.015330348
0.4945434 0.063268363 0.015324855
0.49374196 0.064245656 0.014755162
0.49376941 0.065148689 0.014749659
0.49379686 0.066051729 0.014744157
0.4938243 0.066954769 0.014738654
0.49385175 0.067857802 0.014733151
0.4938792 0.068760835 0.014727648
0.49390665 0.069663867 0.014722145
0.49310559 0.070653901 0.014152371
0.4931331 0.071558528 0.014146859
0.49316061 0.072463155 0.014141346
0.49235973 0.073459558 0.013571534
0.49155891 0.074459158 0.01300167
0.48993 0.075556889 0.011867503
0.48830125 0.076660998 0.010733296
0.48667267 0.077771477 0.009599016
0.48255992 0.079187542 0.0067716548
0.47761959 0.080720872 0.0033798413
0.4920634 -0.0098248627 0.014507544
0.49209085 -0.0089218281 0.014502041
0.4921183 -0.0080187935 0.014496539
0.49214575 -0.0071157585 0.014491036
0.49217319 -0.0062127234 0.014485532
0.49220064 -0.0053096889 0.01448003
0.49222809 -0.0044066543 0.014474527
0.49225554 -0.0035036155 0.014469024
0.49228299 -0.0026005807 0.014463522
0.49231043 -0.001697546 0.014458018
0.49233788 -0.00079451123 0.014452515
0.49236533 0.00010852353 0.014447013
0.49239278 0.0010115546 0.01444151
0.49325141 0.0019486733 0.015000771
0.49244767 0.0028176277 0.014430504
0.49247512 0.0037206626 0.014425001
0.49250257 0.0046236957 0.014419499
0.49253002 0.0055267322 0.014413996
0.49255747 0.0064297668 0.014408492
0.49258491 0.0073328018 0.01440299
0.49344322 0.0082587684 0.014962318
0.49347061 0.0091602132 0.014956825
0.493498 0.010061654 0.014951332
0.49352542 0.010963095 0.01494584
0.4935528 0.01186454 0.014940346
0.49358019 0.012765981 0.014934853
0.49360761 0.013667424 0.01492936
0.493635 0.014568865 0.014923867
0.49366242 0.01547031 0.014918373
0.49452025 0.016380351 0.015477834
0.49454761 0.0172802 0.015472351
0.49457496 0.01818005 0.015466867
0.49460229 0.019079899 0.015461383
0.49462965 0.019979749 0.015455901
0.49465701 0.020879598 0.015450417
0.49468437 0.021779448 0.015444933
0.49554178 0.022676747 0.016004438
0.49556908 0.023575006 0.015998963
0.49559638 0.024473261 0.015993489
0.49562368 0.025371518 0.015988017
0.49565098 0.026269775 0.015982542
0.49567828 0.027168032 0.015977068
0.4957056 0.028066289 0.015971594
0.4957329 0.028964547 0.015966121
0.4957602 0.029862804 0.015960647
0.4957875 0.030761061 0.015955172
0.49498522 0.031677794 0.015384615
0.49501258 0.032577645 0.015379132
0.49503994 0.033477493 0.015373649
0.49506727 0.034377344 0.015368165
0.49509463 0.035277192 0.015362682
0.49512199 0.036177043 0.015357198
0.49432001 0.037104927 0.014786538
0.49434739 0.038006369 0.014781045
0.49437481 0.038907811 0.014775552
0.4944022 0.039809253 0.014770059
0.49442959 0.040710695 0.014764565
0.49362797 0.041648135 0.014193881
0.49365541 0.042551167 0.014188379
0.49368286 0.043454204 0.014182876
0.49371031 0.044357236 0.014177374
0.49373776 0.045260273 0.01417187
0.49376521 0.046163309 0.014166367
0.49296388 0.047111895 0.013595613
0.49299139 0.048016522 0.0135901
0.4930189 0.048921149 0.013584588
0.49304637 0.049825776 0.013579075
0.49307388 0.050730404 0.013573563
0.49392989 0.051581517 0.01413335
0.49395734 0.052484553 0.014127848
0.49398479 0.05338759 0.014122345
0.49401224 0.054290622 0.014116841
0.49403968 0.055193659 0.014111339
0.49406713 0.056096695 0.014105836
0.49409458 0.056999728 0.014100334
0.49412203 0.057902761 0.01409483
0.49414948 0.058805797 0.014089327
0.49417692 0.059708834 0.014083825
0.49420437 0.060611866 0.014078322
0.49423182 0.061514903 0.014072819
0.49425927 0.062417939 0.014067316
0.49428672 0.063320972 0.014061813
0.49431416 0.064224012 0.01405631
0.49434161 0.065127045 0.014050808
0.49436906 0.066030078 0.014045305
0.49439651 0.066933118 0.014039802
0.49442396 0.067836151 0.014034299
0.4944514 0.068739183 0.014028796
0.4936513 0.069727585 0.013457799
0.49367881 0.070632212 0.013452287
0.49370629 0.071536839 0.013446774
0.49373379 0.072441466 0.013441262
0.49293393 0.073437832 0.012870219
0.49213412 0.074437387 0.012299121
0.49133447 0.075440124 0.01172804
0.48888052 0.076639079 0.010025817
0.48725393 0.077749483 0.0088890698
0.48397335 0.079065658 0.006621127
0.47903901 0.080597162 0.0032219291
0.47410527 0.082147777 -0.00017738812
0.49263561 -0.0098465132 0.013808695
0.49266306 -0.0089434786 0.013803192
0.4926905 -0.0080404431 0.013797689
0.49271795 -0.0071374089 0.013792187
0.4927454 -0.0062343739 0.013786684
0.49277285 -0.0053313393 0.013781181
0.4928003 -0.0044283043 0.013775678
0.49282774 -0.003525266 0.013770175
0.49285519 -0.0026222311 0.013764672
0.49288264 -0.0017191964 0.01375917
0.49291009 -0.00081616163 0.013753667
0.49293754 8.6873129e-05 0.013748163
0.49296498 0.00098990416 0.013742661
0.49299243 0.0018929427 0.013737158
0.49301988 0.0027959775 0.013731656
0.49304733 0.0036990121 0.013726152
0.49307477 0.0046020453 0.013720649
0.49310222 0.0055050817 0.013715147
0.49312967 0.0064081163 0.013709644
0.49315712 0.0073111514 0.013704141
0.49318457 0.0082141859 0.013698638
0.49321201 0.0091172224 0.013693135
0.49323946 0.010020258 0.013687632
0.49326691 0.010923292 0.01368213
0.49329436 0.011826329 0.013676627
0.49332181 0.012729362 0.013671124
0.49334925 0.013632396 0.013665621
0.49420619 0.014547253 0.014226251
0.49423358 0.015448698 0.014220757
0.494261 0.016350139 0.014215264
0.49428838 0.017251581 0.014209772
0.49431577 0.018153025 0.014204279
0.49517247 0.019058324 0.014764999
0.49519983 0.019958174 0.014759515
0.49522719 0.020858023 0.014754032
0.49525452 0.021757875 0.014748548
0.49528188 0.022657724 0.014743065
0.49530923 0.023557574 0.014737582
0.49533659 0.024457423 0.014732098
0.49536392 0.025357272 0.014726615
0.49539128 0.026257122 0.014721131
0.49541864 0.027156971 0.014715647
0.495446 0.028056821 0.014710165
0.49547333 0.02895667 0.014704681
0.49550068 0.029856522 0.014699197
0.49552804 0.030756371 0.014693714
0.4955554 0.031656221 0.01468823
0.49558276 0.032556068 0.014682747
0.49478158 0.033477545 0.014110895
0.49480897 0.034378987 0.014105402
0.49483636 0.035280429 0.014099909
0.49486378 0.036181871 0.014094415
0.4940629 0.037111308 0.013522547
0.49409035 0.038014341 0.013517044
0.4941178 0.038917378 0.013511541
0.49414524 0.039820414 0.013506038
0.49417269 0.040723447 0.013500536
0.49420014 0.041626483 0.013495033
0.49422759 0.042529516 0.013489529
0.4934271 0.043471694 0.012917584
0.49345461 0.044376321 0.012912071
0.49348208 0.045280952 0.012906559
0.49350959 0.046185575 0.012901046
0.4935371 0.047090206 0.012895534
0.49356458 0.047994833 0.012890021
0.49359208 0.048899461 0.012884509
0.49361956 0.049804088 0.012878996
0.49364707 0.050708715 0.012873483
0.49367458 0.051613346 0.01286797
0.49370205 0.052517973 0.012862458
0.49372956 0.053422596 0.012856945
0.49375707 0.054327227 0.012851433
0.49378455 0.055231854 0.01284592
0.49381205 0.056136481 0.012840408
0.49383953 0.057041109 0.012834895
0.4946942 0.057881113 0.013395982
0.49472165 0.05878415 0.013390479
0.4947491 0.059687182 0.013384975
0.49477655 0.060590219 0.013379473
0.49480399 0.061493251 0.01337397
0.49483144 0.062396288 0.013368467
0.49485889 0.063299321 0.013362965
0.49488634 0.064202361 0.013357461
0.49491379 0.065105394 0.013351959
0.49494123 0.066008426 0.013346456
0.494142 0.066992015 0.012774257
0.4941695 0.067896642 0.012768744
0.49419701 0.068801269 0.012763232
0.49422449 0.069705896 0.012757719
0.494252 0.070610523 0.012752207
0.49427947 0.07151515 0.012746694
0.49348059 0.072509885 0.012174428
0.49350813 0.073416106 0.012168906
0.49270934 0.074415624 0.011596575
0.4919107 0.075418323 0.011024261
0.49028596 0.076520681 0.0098851332
0.48866135 0.077629417 0.008745933
0.48455864 0.079043515 0.0059062564
0.48045644 0.080473535 0.0030664834
0.47552869 0.082022332 -0.00034021819
0.49320778 -0.0098681636 0.013109846
0.49323523 -0.008965129 0.013104344
0.49326268 -0.0080620935 0.013098841
0.49329013 -0.0071590589 0.013093337
0.49331757 -0.0062560244 0.013087835
0.49334502 -0.0053529898 0.013082332
0.49337247 -0.0044499547 0.013076829
0.49339992 -0.0035469164 0.013071327
0.49342737 -0.0026438816 0.013065823
0.49345481 -0.0017408468 0.01306032
0.49348226 -0.00083781203 0.013054818
0.49350971 6.5222732e-05 0.013049315
0.49270797 0.00093250728 0.012476591
0.49273545 0.0018371356 0.012471079
0.49276295 0.0027417622 0.012465566
0.49279046 0.0036463889 0.012460054
0.49281794 0.0045510153 0.012454541
0.49284545 0.0054556457 0.012449029
0.49287292 0.0063602724 0.012443516
0.49290043 0.0072649005 0.012438004
0.49292794 0.0081695272 0.012432491
0.49295542 0.0090741552 0.012426979
0.49298292 0.0099787842 0.012421466
0.49383909 0.010901642 0.012983281
0.49386653 0.011804678 0.012977778
0.49389398 0.012707711 0.012972275
0.49392143 0.013610746 0.012966773
0.49394888 0.014513781 0.012961269
0.49397632 0.015416818 0.012955766
0.49400377 0.016319852 0.012950264
0.49403122 0.017222887 0.012944761
0.49405867 0.018125921 0.012939258
0.49491435 0.019032853 0.01350117
0.49494177 0.019934297 0.013495676
0.49496916 0.020835739 0.013490183
0.49499655 0.021737181 0.01348469
0.49502397 0.022638623 0.013479197
0.49505135 0.023540067 0.013473704
0.49507874 0.024441509 0.013468211
0.49510616 0.025342951 0.013462718
0.49513355 0.026244393 0.013457225
0.49516097 0.027145835 0.013451732
0.49518836 0.028047277 0.013446238
0.49521574 0.028948721 0.013440745
0.49524316 0.029850163 0.013435252
0.49527055 0.030751605 0.013429759
0.49529794 0.031653047 0.013424266
0.49532536 0.032554489 0.013418772
0.49452528 0.033477519 0.01284571
0.49455273 0.034380551 0.012840207
0.49458018 0.035283588 0.012834704
0.49460763 0.036186621 0.012829201
0.49463508 0.037089657 0.012823698
0.49466252 0.037992693 0.012818195
0.49468997 0.038895726 0.012812693
0.49389032 0.039831497 0.012239552
0.49391779 0.040736124 0.01223404
0.4939453 0.041640751 0.012228527
0.49397281 0.042545378 0.012223014
0.49400029 0.043450005 0.012217501
0.4932009 0.044395331 0.011644303
0.49322847 0.045301553 0.01163878
0.493256 0.046207771 0.011633258
0.49328354 0.047113992 0.011627736
0.49331108 0.04802021 0.011622214
0.49333864 0.048926432 0.011616691
0.49336618 0.049832653 0.011611169
0.49339372 0.050738875 0.011605646
0.49342126 0.051645093 0.011600125
0.49344882 0.052551314 0.011594602
0.49347636 0.053457532 0.01158908
0.49433026 0.054305539 0.012151351
0.49435773 0.055210166 0.012145839
0.49438524 0.056114793 0.012140326
0.49441275 0.05701942 0.012134814
0.49444023 0.057924047 0.0121293
0.49446774 0.058828678 0.012123788
0.49449524 0.059733305 0.012118275
0.49452272 0.060637932 0.012112763
0.49455023 0.061542559 0.01210725
0.49457771 0.062447187 0.012101738
0.49460521 0.063351817 0.012096225
0.49463272 0.064256445 0.012090713
0.4946602 0.065161072 0.0120852
0.49468771 0.066065699 0.012079688
0.49471521 0.066970326 0.012074175
0.49474269 0.067874953 0.012068663
0.4947702 0.06877958 0.01206315
0.49397218 0.069769494 0.011489679
0.49399972 0.070675723 0.011484157
0.49402726 0.071581937 0.011478635
0.49405479 0.072488159 0.011473113
0.49408236 0.073394381 0.01146759
0.49328455 0.074393861 0.010894029
0.49248692 0.075396523 0.010320481
0.49086419 0.076498806 0.0091788871
0.48841646 0.077705495 0.007469187
0.48514396 0.079021364 0.0051913862
0.48104677 0.080451198 0.0023454493
0.47695008 0.081896946 -0.00050058449
0.49295118 -0.0099447109 0.01184266
0.49297869 -0.0090400865 0.011837147
0.4930062 -0.0081354585 0.011831635
0.4938623 -0.0071807094 0.012394489
0.49306118 -0.0063262051 0.01182061
0.49308869 -0.0054215766 0.011815097
0.49311617 -0.004516948 0.011809585
0.49314368 -0.0036123197 0.011804072
0.49317116 -0.0027076914 0.01179856
0.49319866 -0.0018030629 0.011793047
0.49322617 -0.00089843821 0.011787535
0.49325365 6.1902324e-06 0.011782022
0.49328116 0.00091081864 0.01177651
0.49330866 0.0018154471 0.011770997
0.49333614 0.0027200736 0.011765485
0.49336365 0.0036247002 0.011759971
0.49339113 0.0045293267 0.011754459
0.4925907 0.0054061315 0.011180447
0.49261823 0.0063123517 0.011174925
0.49347362 0.0072432118 0.011737921
0.49350113 0.0081478385 0.011732409
0.49352863 0.0090524675 0.011726896
0.49355611 0.0099570956 0.011721384
0.49358362 0.010861722 0.011715871
0.49361113 0.011766351 0.011710359
0.4936386 0.012670979 0.011704846
0.49366611 0.013575605 0.011699334
0.49369359 0.014480232 0.011693821
0.4937211 0.015384862 0.011688309
0.49374861 0.016289489 0.011682796
0.49460343 0.017201237 0.012245912
0.49463087 0.018104272 0.012240409
0.49465832 0.019007307 0.012234907
0.49468577 0.019910341 0.012229403
0.49471322 0.020813378 0.0122239
0.49474066 0.021716412 0.012218398
0.49476811 0.022619447 0.012212895
0.49479556 0.023522481 0.012207392
0.49482301 0.024425516 0.012201889
0.49485046 0.025328552 0.012196386
0.4948779 0.026231587 0.012190883
0.49490535 0.027134622 0.012185381
0.4949328 0.028037656 0.012179878
0.49496025 0.028940691 0.012174374
0.4949877 0.029843727 0.012168872
0.49501514 0.030746762 0.012163369
0.49504259 0.031649798 0.012157867
0.49507004 0.032552831 0.012152364
0.49509749 0.033455867 0.01214686
0.49512494 0.0343589 0.012141358
0.49432603 0.035286669 0.011567032
0.4943535 0.036191296 0.011561519
0.49438101 0.037095923 0.011556007
0.49440852 0.03800055 0.011550494
0.494436 0.038905181 0.011544982
0.49363738 0.039842501 0.010970601
0.49366492 0.040748723 0.010965079
0.49369249 0.041654944 0.010959557
0.49372002 0.042561162 0.010954035
0.49374756 0.043467384 0.010948513
0.4937751 0.044373605 0.01094299
0.49380267 0.045279823 0.010937468
0.4938302 0.046186045 0.010931945
0.49385774 0.047092266 0.010926424
0.49388531 0.047998484 0.010920901
0.49391285 0.048904706 0.010915379
0.49394038 0.049810927 0.010909856
0.49396792 0.050717145 0.010904334
0.49399549 0.051623367 0.010898812
0.49402303 0.052529588 0.01089329
0.49405056 0.053435806 0.010887767
0.4940781 0.054342024 0.010882245
0.49410567 0.055248249 0.010876723
0.4941332 0.056154467 0.010871201
0.49416074 0.057060689 0.010865678
0.49418828 0.057966907 0.010860156
0.49421585 0.058873128 0.010854634
0.49424338 0.05977935 0.010849112
0.49427092 0.060685568 0.010843589
0.49429846 0.061591789 0.010838067
0.49432603 0.062498011 0.010832544
0.49435356 0.063404232 0.010827023
0.4943811 0.064310446 0.010821501
0.49440864 0.065216668 0.010815978
0.4944362 0.06612289 0.010810456
0.49446374 0.067029111 0.010804933
0.49449128 0.067935333 0.010799412
0.49451882 0.068841547 0.010793889
0.49454638 0.069747768 0.010788367
0.49457392 0.07065399 0.010782844
0.49460146 0.071560211 0.010777323
0.49380457 0.072556466 0.010202548
0.49383217 0.073464282 0.010197015
0.4930355 0.074465312 0.0096222432
0.49223891 0.075469524 0.0090474552
0.49061826 0.076573327 0.0079033878
0.4881736 0.077781491 0.0061899782
0.48572925 0.078999221 0.0044765128
0.48163712 0.080428854 0.0016244152
0.4775455 0.081874423 -0.0012277794
0.49184123 -0.010984093 0.010008942
0.4935244 -0.0099663995 0.011142581
0.49355188 -0.0090617752 0.011137068
0.49357939 -0.0081571471 0.011131556
0.49360687 -0.0072525181 0.011126043
0.49363437 -0.0063478937 0.011120531
0.49366188 -0.0054432652 0.011115018
0.49368936 -0.0045386367 0.011109506
0.49371687 -0.0036340083 0.011103992
0.49374437 -0.0027293798 0.01109848
0.49294454 -0.0018653553 0.01052331
0.49297208 -0.00095913693 0.010517787
0.49299961 -5.2918596e-05 0.010512265
0.49302715 0.00085330347 0.010506743
0.49305472 0.0017595256 0.010501221
0.49308226 0.0026657439 0.010495698
0.49310979 0.0035719641 0.010490176
0.49313736 0.0044781845 0.010484654
0.4931649 0.0053844047 0.010479132
0.49319243 0.0062906248 0.010473609
0.49321997 0.007196845 0.010468087
0.49324754 0.0081030652 0.010462564
0.49327508 0.0090092877 0.010457043
0.49330261 0.0099155055 0.01045152
0.49333015 0.010821726 0.010445998
0.49335772 0.011727948 0.010440476
0.49338526 0.012634168 0.010434953
0.49341279 0.013540386 0.010429432
0.49426681 0.014458544 0.010993741
0.49429429 0.015363174 0.010988229
0.49432179 0.016267801 0.010982716
0.49434927 0.017172428 0.010977204
0.49437678 0.018077055 0.010971691
0.49440429 0.018981682 0.010966179
0.49443176 0.019886311 0.010960666
0.49445927 0.020790938 0.010955154
0.49448678 0.021695565 0.010949641
0.49451426 0.022600193 0.010944129
0.49454176 0.023504822 0.010938616
0.49456927 0.024409449 0.010933104
0.49459675 0.025314076 0.010927591
0.49545008 0.026209936 0.011492034
0.49547753 0.027112972 0.011486531
0.49550498 0.028016007 0.011481029
0.49470675 0.028932586 0.010905541
0.49473423 0.029837215 0.010900028
0.49476174 0.030741842 0.010894516
0.49478924 0.031646471 0.010889003
0.49481672 0.032551099 0.010883491
0.49484423 0.033455726 0.010877978
0.49487171 0.034360353 0.010872466
0.49407387 0.035289675 0.010296897
0.49410141 0.036195897 0.010291375
0.49412897 0.037102114 0.010285852
0.49415651 0.038008336 0.010280331
0.49418405 0.038914554 0.010274808
0.49421158 0.039820775 0.010269286
0.49423915 0.040726997 0.010263763
0.49426669 0.041633215 0.010258242
0.49429423 0.042539436 0.010252719
0.49349681 0.043484688 0.0096770246
0.4935244 0.0443925 0.0096714925
0.493552 0.045300312 0.0096659604
0.4935796 0.046208125 0.0096604284
0.49360719 0.047115941 0.0096548963
0.49363479 0.048023753 0.0096493643
0.49366239 0.048931565 0.0096438322
0.49368995 0.049839377 0.0096383002
0.49371755 0.050747193 0.009632769
0.49374515 0.051655006 0.009627237
0.49377275 0.052562818 0.0096217049
0.49462476 0.05341408 0.010186451
0.4946523 0.054320298 0.01018093
0.49467987 0.05522652 0.010175408
0.49470741 0.056132741 0.010169885
0.49473494 0.057038963 0.010164363
0.49476248 0.057945181 0.010158841
0.49479005 0.058851402 0.010153319
0.49481758 0.05975762 0.010147796
0.49484512 0.060663842 0.010142274
0.49487266 0.061570063 0.010136751
0.49490023 0.062476285 0.01013123
0.49492776 0.063382506 0.010125707
0.4949553 0.06428872 0.010120185
0.49498284 0.065194942 0.010114662
0.49501041 0.066101164 0.010109141
0.49503794 0.067007385 0.010103618
0.49506548 0.067913607 0.010098096
0.49426943 0.068903454 0.0095221298
0.49429703 0.06981127 0.0095165977
0.49432462 0.070719078 0.0095110657
0.49435219 0.071626894 0.0095055336
0.49437979 0.072534703 0.0095000016
0.4935841 0.073534101 0.0089240056
0.49278846 0.074536689 0.0083479937
0.49199292 0.07554245 0.0077719623
0.4903743 0.076647773 0.0066253869
0.48793277 0.077857412 0.0049083051
0.48549148 0.079076618 0.003191133
0.48222747 0.080406517 0.00090338098
0.47814089 0.081851892 -0.0019549774
0.49076283 -0.011118993 0.0081648109
0.49327084 -0.010043066 0.0098716971
0.49329838 -0.0091368435 0.0098661752
0.49332592 -0.0082306257 0.0098606525
0.49335346 -0.0073244073 0.0098551307
0.49338102 -0.0064181848 0.0098496079
0.49340856 -0.0055119665 0.0098440861
0.4934361 -0.0046057482 0.0098385634
0.49346364 -0.0036995225 0.0098330416
0.4934912 -0.0027933042 0.0098275188
0.49351874 -0.001887082 0.009821997
