# .PCD v0.7 - Point Cloud Data file format
VERSION 0.7
FIELDS x y z
SIZE 4 4 4
TYPE F F F
COUNT 1 1 1
WIDTH 1420
HEIGHT 1
VIEWPOINT 0 0 0 1 0 0 0
POINTS 1420
DATA ascii
0.52597517 0.12660702 0.049941603
0.52600038 0.12743679 0.049936544
0.52602565 0.12826656 0.049931489
0.52605087 0.12909633 0.049926434
0.52607608 0.1299261 0.049921375
0.52610129 0.13075589 0.04991632
0.5261265 0.13158566 0.049911264
0.52615172 0.13241543 0.049906209
0.52617693 0.1332452 0.04990115
0.5262022 0.13407497 0.049896095
0.5253877 0.13512291 0.049344461
0.52541298 0.13595428 0.049339395
0.52543825 0.13678564 0.049334329
0.52546352 0.13761701 0.049329262
0.52548879 0.13844837 0.049324196
0.52551407 0.13927974 0.049319129
0.52553934 0.1401111 0.049314063
0.52556461 0.14094247 0.049308997
0.52558988 0.14177383 0.04930393
0.52477592 0.1428377 0.0487522
0.52480125 0.14367066 0.048747122
0.52398735 0.14473931 0.048195329
0.52401274 0.14557387 0.048190244
0.52319908 0.14664729 0.047638454
0.52322447 0.14748344 0.047633361
0.52241093 0.14856164 0.047081541
0.5215975 0.14964302 0.046529703
0.52162302 0.15048234 0.046524592
0.52080971 0.1515685 0.045972724
0.51999652 0.15265788 0.045420803
0.5191834 0.1537504 0.044868898
0.51920909 0.15459451 0.044863757
0.51839614 0.15569183 0.044311821
0.51758325 0.15679231 0.043759864
0.517609 0.15763962 0.043754701
0.51679623 0.1587449 0.043202687
0.51598364 0.15985337 0.042650681
0.51600951 0.16070384 0.042645499
0.51519704 0.16181707 0.042093471
0.51522291 0.16266915 0.042088278
0.51441061 0.16378716 0.041536216
0.51443654 0.16464083 0.041531015
0.51362437 0.16576362 0.040978923
0.51281226 0.16688961 0.04042678
0.5128383 0.16774647 0.04042156
0.51202637 0.16887723 0.03986942
0.51121455 0.17001116 0.039317265
0.5104028 0.1711483 0.038765084
0.5095911 0.17228863 0.038212854
0.50961733 0.17315184 0.038207594
0.50880587 0.17429692 0.037655368
0.50799447 0.17544521 0.037103124
0.50718313 0.17659666 0.036550861
0.50637192 0.1777513 0.035998575
0.50639838 0.17862089 0.035993274
0.50558728 0.17978035 0.035440929
0.5047763 0.18094295 0.034888595
0.50396544 0.18210873 0.034336247
0.50315464 0.18327773 0.033783872
0.50150663 0.18474612 0.032684397
0.50069612 0.18592305 0.032131974
0.50072289 0.18680379 0.032126609
0.49907535 0.18828651 0.03102708
0.49910221 0.18917042 0.031021694
0.49829197 0.19035852 0.03046917
0.49748188 0.19154982 0.029916665
0.49750885 0.19243692 0.029911259
0.49753579 0.19332401 0.029905854
0.49672592 0.19452167 0.029353304
0.49675292 0.19541039 0.029347887
0.52622354 0.11745962 0.049355067
0.52624875 0.1182894 0.049350012
0.52627397 0.11911916 0.049344957
0.52629918 0.11994894 0.049339898
0.52632439 0.12077871 0.049334843
0.5263496 0.12160849 0.049329787
0.52637482 0.12243826 0.049324729
0.52640009 0.12326803 0.049319673
0.5264253 0.1240978 0.049314618
0.52645051 0.12492757 0.049309563
0.52647573 0.12575735 0.049304504
0.52734011 0.12638493 0.049847163
0.52736527 0.12721311 0.049842115
0.52739042 0.12804128 0.049837068
0.52741563 0.12886946 0.049832024
0.52744079 0.12969765 0.049826976
0.52746594 0.13052581 0.049821928
0.52749115 0.131354 0.049816884
0.52751631 0.1321822 0.049811836
0.52754146 0.13301036 0.049806789
0.52756667 0.13383855 0.049801741
0.52759182 0.13466673 0.049796697
0.52761698 0.1354949 0.049791649
0.52680361 0.13654439 0.049238771
0.52682883 0.13737418 0.049233716
0.52685404 0.13820393 0.049228657
0.52687925 0.13903372 0.049223602
0.52690446 0.13986349 0.049218547
0.5260914 0.14092253 0.048665613
0.52611667 0.1417539 0.048660547
0.52614194 0.14258526 0.04865548
0.52532899 0.1436507 0.048102506
0.52535433 0.14448366 0.048097428
0.5245415 0.14555386 0.047544397
0.52372885 0.14662725 0.046991374
0.5237543 0.1474634 0.046986278
0.52294177 0.14854155 0.046433229
0.52212936 0.1496229 0.045880158
0.52215487 0.15046223 0.045875043
0.52134258 0.15154834 0.045321945
0.52053034 0.15263768 0.044768792
0.51971823 0.15373017 0.044215653
0.51974392 0.15457428 0.044210512
0.51893198 0.15567155 0.04365734
0.51812011 0.156772 0.043104157
0.51730835 0.15787567 0.042550918
0.5173341 0.15872455 0.042545743
0.51652253 0.15983297 0.041992508
0.5165484 0.16068345 0.041987326
0.51573694 0.16179664 0.041434061
0.51492554 0.16291304 0.040880777
0.51495153 0.16376668 0.040875576
0.51414031 0.16488786 0.040322263
0.51332915 0.16601221 0.039768897
0.5133552 0.16686907 0.039763674
0.51254421 0.16799819 0.039210316
0.51173335 0.16913052 0.038656935
0.51175946 0.16999054 0.038651694
0.51011181 0.17140472 0.037550081
0.51013803 0.17226793 0.03754482
0.50932753 0.17341138 0.036991373
0.50851709 0.17455803 0.036437903
0.50770676 0.17570786 0.035884418
0.5068965 0.17686088 0.03533091
0.50608629 0.17801709 0.034777351
0.50611275 0.17888826 0.034772042
0.50530279 0.18004926 0.034218483
0.50449288 0.18121342 0.033664912
0.50368309 0.18238077 0.033111315
0.50203699 0.18384589 0.032009393
0.50122738 0.18502121 0.031455752
0.50125414 0.18590194 0.031450383
0.49960855 0.18738137 0.030348403
0.49963543 0.18826531 0.030343017
0.49882615 0.18945178 0.029789276
0.49801701 0.19064143 0.029235547
0.49804398 0.19152854 0.02923014
0.49723497 0.19272296 0.028676383
0.497262 0.19361167 0.028670967
0.497289 0.19450037 0.028665552
0.52669883 0.11578017 0.048723031
0.52672404 0.11660996 0.048717976
0.52674925 0.11743972 0.048712917
0.52677453 0.1182695 0.048707861
0.52679974 0.11909927 0.048702806
0.52766347 0.11973962 0.049246617
0.52685016 0.12075882 0.048692692
0.52687538 0.1215886 0.048687637
0.52690059 0.12241837 0.048682578
0.52776414 0.12305234 0.049226429
0.52778935 0.12388053 0.049221382
0.52781451 0.1247087 0.049216338
0.52783966 0.12553689 0.04921129
0.52786487 0.12636507 0.049206242
0.52872813 0.12698948 0.049750149
0.52875322 0.12781608 0.049745113
0.52877837 0.12864266 0.049740076
0.52880347 0.12946925 0.049735039
0.52882862 0.13029584 0.049730003
0.52885371 0.13112243 0.049724966
0.52887887 0.13194902 0.04971993
0.52890396 0.1327756 0.049714893
0.52892911 0.1336022 0.049709853
0.52895421 0.13442877 0.049704816
0.52897936 0.13525537 0.04969978
0.52816695 0.13630323 0.049145684
0.5281921 0.13713141 0.049140636
0.52821726 0.13795958 0.049135588
0.52824247 0.13878776 0.04913054
0.52743024 0.1398436 0.048576396
0.52745545 0.14067337 0.048571337
0.52748072 0.14150314 0.048566282
0.52666873 0.14256534 0.048012096
0.526694 0.14339671 0.04800703
0.52588212 0.14446367 0.047452811
0.52507031 0.14553384 0.046898548
0.5250957 0.1463684 0.046893459
0.52428406 0.14744334 0.046339195
0.52347255 0.14852147 0.045784913
0.52266115 0.14960277 0.045230608
0.52268666 0.15044211 0.045225494
0.52187538 0.15152818 0.044671163
0.52106416 0.15261747 0.04411678
0.52025312 0.15370993 0.043562409
0.51944214 0.15480557 0.043008018
0.51863122 0.1559044 0.042453609
0.51865697 0.15675169 0.042448446
0.51784623 0.15785532 0.041893974
0.51703554 0.1589621 0.041339517
0.51706141 0.15981258 0.041334335
0.51625091 0.16092414 0.040779848
0.51544052 0.16203891 0.040225338
0.51546645 0.16289257 0.040220138
0.51465625 0.1640121 0.039665602
0.51384598 0.16513483 0.039111014
0.51387203 0.16599168 0.039105792
0.51306206 0.16711918 0.038551208
0.51225215 0.16824986 0.037996605
0.5114423 0.16938373 0.03744198
0.51063251 0.17052078 0.036887307
0.5106588 0.17138402 0.036882047
0.50984919 0.17252584 0.036327377
0.5090397 0.17367084 0.035772681
0.50823033 0.17481904 0.035217971
0.50742108 0.17597045 0.034663241
0.50661182 0.17712502 0.03410846
0.50580275 0.17828277 0.03355369
0.50499374 0.1794437 0.032998905
0.50502032 0.18031809 0.032993574
0.50421149 0.18148381 0.032438759
0.50256729 0.18294567 0.031334389
0.50175869 0.18411934 0.030779524
0.50178546 0.18500009 0.030774157
0.50014174 0.18647626 0.029669736
0.50016862 0.18736018 0.029664349
0.49936032 0.18854505 0.029109381
0.49855214 0.18973304 0.028554428
0.49774405 0.19092424 0.027999457
0.49777108 0.19181296 0.02799404
0.49779809 0.19270165 0.027988626
0.4969902 0.19389923 0.027433615
0.49701726 0.19478951 0.027428189
0.52798682 0.11309433 0.04864607
0.52717417 0.11410074 0.048090994
0.52719939 0.11493052 0.048085935
0.5272246 0.11576028 0.04808088
0.52724981 0.11659007 0.048075825
0.52727503 0.11741983 0.048070766
0.52813786 0.11806341 0.048615787
0.52816308 0.11889158 0.048610743
0.52735072 0.11990915 0.048055597
0.52821338 0.12054795 0.048600648
0.52823859 0.12137613 0.048595604
0.52826375 0.12220431 0.048590556
0.5282889 0.12303248 0.048585508
0.52831411 0.12386067 0.04858046
0.52833927 0.12468885 0.048575416
0.52920163 0.1253165 0.049120538
0.52922672 0.1261431 0.049115501
0.53008896 0.12676594 0.049660686
0.53011405 0.12759094 0.049655657
0.53013915 0.12841593 0.049650632
0.53016424 0.12924093 0.049645603
0.53102618 0.12985583 0.050190803
0.53021437 0.13089091 0.049635548
0.53023946 0.13171591 0.049630523
0.5302645 0.13254091 0.049625494
0.53028959 0.1333659 0.049620468
0.53031468 0.1341909 0.049615439
0.53033972 0.13501589 0.049610414
0.5295282 0.13606213 0.049055055
0.52955335 0.13688873 0.049050018
0.52957851 0.13771531 0.049044982
0.52876723 0.13876791 0.048489623
0.52879238 0.1395961 0.048484575
0.52881753 0.14042428 0.048479527
0.52800643 0.14148325 0.047924131
0.52803171 0.14231302 0.047919076
0.52722073 0.14337677 0.047363646
0.52640992 0.14444371 0.046808198
0.5264352 0.14527667 0.046803121
0.52562445 0.1463484 0.046247613
0.52481389 0.1474233 0.045692116
0.52400339 0.14850138 0.045136601
0.52319294 0.14958265 0.044581063
0.52238268 0.15066712 0.044025507
0.52157241 0.15175475 0.043469902
0.52159798 0.15259728 0.043464769
0.52078795 0.1536897 0.042909164
0.51997799 0.15478531 0.042353541
0.51916808 0.15588409 0.041797899
0.51835829 0.15698607 0.041242205
0.5183841 0.15783496 0.041237034
0.51757443 0.15894172 0.04068134
0.51676494 0.16005166 0.040125631
0.51679081 0.16090372 0.040120438
0.51598144 0.16201843 0.039564699
0.51517212 0.16313633 0.039008942
0.51436287 0.16425744 0.038453132
0.51438892 0.1651143 0.038447909
0.51357991 0.16624016 0.037892099
0.51277095 0.1673692 0.037336275
0.51196206 0.16850144 0.036780428
0.51115328 0.16963686 0.036224529
0.51034462 0.17077549 0.035668645
0.51037091 0.17164031 0.035663374
0.50956237 0.17278367 0.03510746
0.50875396 0.17393024 0.034551527
0.5079456 0.17508 0.033995576
0.50713736 0.17623295 0.033439569
0.50632924 0.17738907 0.032883577
0.50552118 0.17854838 0.032327566
0.50471324 0.17971088 0.031771537
0.50473988 0.18058684 0.031766199
0.50309759 0.18204544 0.030659385
0.50312436 0.18292458 0.030654028
0.50231671 0.18409823 0.03009793
0.50067496 0.18557116 0.028991064
0.50070184 0.18645507 0.028985677
0.49989447 0.18763828 0.028429486
0.49908727 0.18882468 0.027873313
0.49828017 0.19001424 0.027317116
0.49830717 0.19090293 0.027311701
0.49750021 0.19209731 0.026755476
0.49752727 0.19298759 0.02675005
0.49755433 0.19387788 0.026744626
0.49758139 0.19476818 0.026739201
0.52851158 0.11307447 0.048005152
0.5285368 0.11390265 0.048000105
0.52856195 0.11473083 0.047995057
0.5285871 0.11555901 0.047990013
0.52861232 0.1163872 0.047984965
0.52863747 0.11721537 0.047979917
0.52866262 0.11804355 0.04797487
0.52868783 0.11887173 0.047969826
0.52871299 0.11969991 0.047964778
0.52873814 0.12052809 0.04795973
0.52876335 0.12135627 0.047954686
0.52878851 0.12218446 0.047949638
0.52964997 0.12281691 0.048495959
0.52967513 0.1236435 0.048490923
0.52970022 0.12447009 0.048485886
0.53056157 0.12509617 0.049032286
0.53058666 0.12592117 0.049027257
0.53061175 0.12674616 0.049022231
0.5314728 0.12736589 0.049568634
0.53149784 0.12818928 0.049563617
0.53235883 0.12880424 0.05011005
0.5323838 0.12962604 0.050105039
0.53157294 0.13065949 0.049548563
0.53243375 0.13126966 0.050095025
0.53162301 0.13230631 0.049538527
0.53164804 0.1331297 0.049533509
0.53167307 0.13395309 0.049528491
0.53169805 0.1347765 0.049523477
0.53088754 0.1358211 0.048966929
0.53091264 0.13664609 0.0489619
0.53010225 0.13769549 0.048405293
0.53012735 0.13852207 0.048400257
0.52931714 0.13957624 0.047843657
0.52934229 0.14040442 0.04783861
0.52853221 0.14146335 0.047281977
0.52855748 0.14229313 0.047276922
0.52774751 0.14335684 0.046720263
0.52693766 0.14442374 0.046163581
0.526963 0.1452567 0.046158504
0.52615327 0.14632839 0.045601763
0.52534366 0.14740326 0.045045029
0.52453417 0.14848129 0.044488285
0.52372479 0.14956252 0.043931514
0.52291548 0.15064695 0.043374728
0.52210623 0.15173456 0.042817887
0.52129716 0.15282536 0.042261064
0.52048814 0.15391932 0.041704215
0.52051383 0.15476502 0.041699063
0.51970494 0.15586378 0.041142192
0.51889616 0.15696572 0.040585265
0.51808751 0.15807085 0.040028349
0.51727891 0.15917915 0.039471414
0.51730478 0.16003123 0.039466221
0.51649636 0.1611443 0.038909264
0.51568806 0.16226058 0.038352281
0.51487976 0.16338006 0.037795246
0.51490581 0.1642369 0.037790023
0.51409769 0.16536114 0.037232995
0.51328975 0.16648856 0.036675945
0.51248181 0.16761917 0.036118876
0.51167399 0.16875295 0.035561755
0.51086628 0.16988993 0.035004649
0.51089257 0.17075475 0.034999378
0.51008499 0.1718965 0.034442242
0.50927752 0.17304143 0.033885084
0.50847018 0.17418955 0.033327911
0.50766289 0.17534088 0.032770682
0.50685573 0.17649539 0.032213468
0.50604862 0.17765306 0.031656235
0.50524163 0.17881392 0.03109898
0.50526828 0.17968988 0.031093644
0.50446147 0.18085553 0.030536359
0.50365466 0.18202436 0.029979024
0.50284803 0.18319638 0.029421706
0.50204146 0.18437158 0.028864363
0.50123507 0.18554996 0.028307004
0.50042868 0.18673155 0.027749594
0.4996224 0.18791629 0.027192194
0.49964938 0.1888034 0.027186789
0.49884325 0.18999293 0.026629359
0.49803725 0.19118565 0.026071914
0.49806431 0.19207595 0.026066488
0.49725845 0.19327344 0.025509011
0.49728554 0.19416532 0.025503576
0.52903634 0.11305462 0.047364231
0.52906156 0.11388279 0.047359183
0.52908671 0.11471097 0.047354136
0.52911186 0.11553916 0.047349092
0.52913707 0.11636734 0.047344044
0.52916223 0.11719551 0.047338996
0.52918738 0.11802369 0.047333952
0.53004813 0.11866415 0.047881462
0.52923775 0.11968005 0.047323857
0.5292629 0.12050824 0.047318812
0.53012347 0.12114392 0.047866352
0.53014863 0.12197051 0.047861315
0.53017372 0.1227971 0.047856275
0.53019887 0.12362368 0.047851238
0.53105927 0.1242514 0.048398856
0.53191948 0.12487593 0.048946466
0.53194451 0.12569934 0.048941448
0.53196955 0.12652275 0.04893643
0.53282958 0.12714091 0.049484074
0.53285456 0.12796271 0.049479067
0.53287953 0.12878452 0.049474057
0.53373939 0.12939632 0.050021742
0.53292948 0.13042815 0.049464043
0.53295445 0.13124996 0.049459036
0.53297943 0.13207176 0.049454026
0.5330044 0.13289358 0.049449019
0.53219479 0.13393337 0.048891272
0.53221983 0.13475677 0.048886254
0.5322448 0.13558017 0.048881236
0.53143537 0.13662632 0.048323449
0.53146046 0.13745131 0.04831842
0.53065109 0.13850226 0.047760572
0.53067625 0.13932885 0.047755536
0.52986705 0.14038457 0.047197688
0.52905798 0.14144346 0.046639826
0.52908319 0.14227323 0.046634771
0.5282743 0.14333691 0.046076875
0.52746546 0.14440377 0.045518961
0.52665669 0.14547382 0.044960994
0.52584809 0.14654706 0.044403046
0.52503955 0.14762346 0.043845076
0.525065 0.14846121 0.043839969
0.52425659 0.14954241 0.043281969
0.52344835 0.15062679 0.04272395
0.52264011 0.15171435 0.042165875
0.52183199 0.1528051 0.041607819
0.52102399 0.15389904 0.041049741
0.52021611 0.15499617 0.040491641
0.51940823 0.15609649 0.039933495
0.51860052 0.15719998 0.039375357
0.51862639 0.15805046 0.039370172
0.51781881 0.15915872 0.038812008
0.51701134 0.16027018 0.038253821
0.51620394 0.16138481 0.03769562
0.51539665 0.16250266 0.037137359
0.5154227 0.16335952 0.03713214
0.51461554 0.1644821 0.036573887
0.51380855 0.1656079 0.036015619
0.51300156 0.16673687 0.035457324
0.51219469 0.16786905 0.034898981
0.51138794 0.1690044 0.03434065
0.51058131 0.17014292 0.0337823
0.51060766 0.17100932 0.033777021
0.50980115 0.17215264 0.033218645
0.50899476 0.17329912 0.032660242
0.50818837 0.17444882 0.032101795
0.50738221 0.17560168 0.031543355
0.50657606 0.17675772 0.030984899
0.50577009 0.17791696 0.030426422
0.50579667 0.17879291 0.030421084
0.50499082 0.17995693 0.029862581
0.50418502 0.18112415 0.029304022
0.50337934 0.18229453 0.028745478
0.50257373 0.18346809 0.028186917
0.50176823 0.18464486 0.027628332
0.50096279 0.18582481 0.027069699
0.50098974 0.18671031 0.027064303
0.50018448 0.18789503 0.02650567
0.49937934 0.18908294 0.025947019
0.49857432 0.19027402 0.025388351
0.49860138 0.19116431 0.025382925
0.49779648 0.19236019 0.024824224
0.5295611 0.11303476 0.046723314
0.52958626 0.11386294 0.046718266
0.52961147 0.11469112 0.046713218
0.52963662 0.1155193 0.046708174
0.52966177 0.11634748 0.046703126
0.53052163 0.11699117 0.047251847
0.52971214 0.11800384 0.046693034
0.53057188 0.11864433 0.047241773
0.53059697 0.11947093 0.047236737
0.53062212 0.12029752 0.0472317
0.53064722 0.1211241 0.047226664
0.53067237 0.12195069 0.047221627
0.53153181 0.12258163 0.047770459
0.5315569 0.12340662 0.04776543
0.53241616 0.1240328 0.048314258
0.5324412 0.1248562 0.04830924
0.53330034 0.1254776 0.048858099
0.53332531 0.1262994 0.048853092
0.53418428 0.12691601 0.04940198
0.53420919 0.12773623 0.049396981
0.53423417 0.12855645 0.049391981
0.53425908 0.12937666 0.049386986
0.534284 0.13019688 0.049381986
0.53430897 0.1310171 0.049376987
0.53433388 0.13183731 0.049371991
0.53352511 0.13287388 0.04881303
0.53355014 0.13369568 0.04880802
0.53274155 0.13473703 0.048249032
0.53276658 0.13556042 0.048244014
0.5319581 0.13660654 0.047684994
0.53114974 0.13765585 0.047125924
0.53117484 0.13848245 0.047120888
0.53036666 0.13953653 0.046561819
0.53039181 0.14036471 0.046556771
0.52958375 0.14142357 0.045997672
0.52877581 0.1424856 0.045438558
0.52880108 0.14331697 0.045433491
0.52799326 0.1443838 0.044874344
0.5271855 0.14545381 0.044315148
0.52637786 0.14652701 0.043755963
0.52557033 0.14760338 0.04319676
0.52476293 0.14868295 0.042637538
0.52395558 0.1497657 0.042078294
0.5231483 0.15085165 0.041518997
0.52234119 0.15194076 0.040959716
0.52153414 0.15303308 0.040400416
0.52155983 0.15387876 0.040395264
0.52075297 0.15497586 0.039835934
0.5199461 0.15607613 0.039276548
0.51913941 0.15717959 0.03871718
0.51833278 0.15828623 0.038157791
0.51752627 0.15939605 0.037598386
0.51671988 0.16050906 0.03703896
0.51674587 0.1613643 0.037033748
0.51593953 0.16248213 0.036474258
0.51513338 0.1636031 0.035914782
0.51432735 0.16472726 0.035355285
0.51352137 0.16585459 0.034795772
0.5127154 0.16698512 0.034236204
0.51190966 0.16811885 0.033676654
0.51110393 0.16925575 0.033117082
0.51113027 0.17012215 0.0331118
0.50949287 0.17153908 0.031997878
0.50951934 0.17240869 0.031992577
0.5087139 0.17355676 0.031432904
0.50790864 0.17470798 0.030873243
0.5071035 0.1758624 0.030313564
0.50629848 0.17702001 0.029753866
0.50632507 0.17789595 0.029748527
0.50552016 0.17905833 0.029188801
0.50471532 0.18022391 0.028629018
0.50474203 0.18110307 0.028623661
0.503106 0.18256462 0.027509466
0.50313282 0.18344693 0.027504088
0.50232834 0.18462366 0.026944274
0.50152391 0.18580358 0.026384408
0.50071961 0.18698665 0.025824554
0.50074661 0.18787375 0.025819149
0.49994245 0.18906163 0.025259266
0.49913841 0.19025268 0.02469936
0.49833447 0.1914469 0.024139438
0.5300355 0.11135854 0.046092488
0.53008586 0.11301491 0.046082392
0.53011101 0.11384308 0.046077345
0.53013623 0.11467126 0.046072301
0.53016138 0.11549944 0.046067253
0.53102022 0.11614476 0.046617199
0.53104538 0.11697135 0.046612162
0.53107047 0.11779794 0.046607126
0.53109562 0.11862452 0.046602089
0.53112072 0.11945111 0.046597049
0.53197932 0.12008687 0.047147088
0.53200442 0.12091186 0.047142059
0.53202951 0.12173685 0.047137033
0.53288782 0.12236624 0.047687072
0.53291285 0.12318965 0.047682058
0.5337711 0.12381426 0.048232127
0.53379607 0.12463608 0.04822712
0.53465414 0.12525591 0.048777219
0.53467906 0.12607613 0.04877222
0.53470397 0.12689635 0.04876722
0.53556192 0.1275098 0.049317397
0.53558683 0.12832843 0.049312409
0.53561169 0.12914705 0.049307421
0.53480375 0.13017721 0.04874723
0.53482866 0.13099743 0.048742231
0.53485358 0.13181765 0.048737232
0.53404588 0.13285418 0.048177041
0.53407085 0.13367598 0.048172034
0.53326327 0.13471729 0.04761181
0.5324558 0.13576177 0.047051568
0.53248084 0.13658676 0.047046538
0.53167349 0.13763604 0.046486236
0.53169858 0.13846263 0.0464812
0.53089142 0.13951668 0.045920897
0.53008431 0.1405739 0.045360576
0.53010952 0.14140368 0.045355521
0.5293026 0.14246567 0.04479517
0.52849573 0.14353088 0.044234805
0.52768892 0.14459926 0.043674383
0.52688223 0.14567082 0.043113977
0.52607572 0.14674558 0.042553551
0.52526921 0.1478235 0.041993104
0.52529472 0.14866284 0.041987989
0.52448845 0.14974554 0.041427512
0.52368212 0.15083145 0.040866986
0.52287602 0.15192053 0.040306471
0.52206999 0.1530128 0.039745938
0.52126408 0.15410824 0.039185386
0.52045816 0.1552069 0.038624778
0.51965243 0.15630873 0.038064189
0.51884681 0.15741372 0.037503578
0.51887268 0.1582658 0.037498385
0.51806718 0.15937558 0.036937747
0.5172618 0.16048856 0.036377087
0.51645643 0.16160473 0.035816375
0.51565123 0.16272406 0.035255674
0.51484615 0.1638466 0.034694958
0.51404113 0.16497231 0.03413422
0.51323617 0.16610122 0.03357343
0.51243132 0.16723329 0.033012655
0.5116266 0.16836856 0.032451861
0.51165295 0.16923498 0.032446582
0.51001745 0.17064865 0.031330209
0.51004386 0.17151824 0.031324912
0.50923944 0.17266469 0.030764015
0.50843513 0.17381428 0.030203132
0.50763094 0.17496707 0.029642228
0.50682688 0.17612302 0.029081307
0.50685352 0.176999 0.029075969
0.50604957 0.17815974 0.02851502
0.50524563 0.1793237 0.027954014
0.50444192 0.18049082 0.027393028
0.50446868 0.18137155 0.02738766
0.50366503 0.18254346 0.026826641
0.50286156 0.18371853 0.026265603
0.50205809 0.18489684 0.025704512
0.50125474 0.18607828 0.025143435
0.50128174 0.18696539 0.02513803
0.50047857 0.18815161 0.024576923
0.49967548 0.18934104 0.024015797
0.49887249 0.19053364 0.023454655
0.53141838 0.11199201 0.046002693
0.53061062 0.11299505 0.045441471
0.53146863 0.11364518 0.04599262
0.53149372 0.11447177 0.045987584
0.53151888 0.11529836 0.045982543
0.53154397 0.11612494 0.045977507
0.53156912 0.11695153 0.04597247
0.53242683 0.1175921 0.046523713
0.53245193 0.11841709 0.046518683
0.53247702 0.11924209 0.046513658
0.53250206 0.12006709 0.046508629
0.53335953 0.1206997 0.047059882
0.53338456 0.1215231 0.047054864
0.53424186 0.12215094 0.047606152
0.53426683 0.12297275 0.047601145
0.5342918 0.12379456 0.047596134
0.53514892 0.12441603 0.048147459
0.53517383 0.12523626 0.048142459
0.53519881 0.12605646 0.04813746
0.53605574 0.12667155 0.048688855
0.5360806 0.12749018 0.048683867
0.53610551 0.1283088 0.048678879
0.53613037 0.12912741 0.048673891
0.53532344 0.13015755 0.048112471
0.53534836 0.13097776 0.048107471
0.53537327 0.13179798 0.048102472
0.53456658 0.13283448 0.047541048
0.53459156 0.13365628 0.047536042
0.53378499 0.13469754 0.046974584
0.53297853 0.13574199 0.046413112
0.53300357 0.13656698 0.046408083
0.53219724 0.13761622 0.045846548
0.53139096 0.13866863 0.04528502
0.53141618 0.13949682 0.045279976
0.53061008 0.14055401 0.044718426
0.52980411 0.14161438 0.044156849
0.5289982 0.14267793 0.043595262
0.52819234 0.14374471 0.043033618
0.52821773 0.14457925 0.04302853
0.52741206 0.14565077 0.04246689
0.5266065 0.14672549 0.041905232
0.52580106 0.14780338 0.041343551
0.52499568 0.14888446 0.040781856
0.52419037 0.14996874 0.040220104
0.52338523 0.15105619 0.039658368
0.52258015 0.15214682 0.039096612
0.52177519 0.15324064 0.038534835
0.52180094 0.15408793 0.038529672
0.52099603 0.15518655 0.037967835
0.52019131 0.15628833 0.037406012
0.51938671 0.15739329 0.036844168
0.51858217 0.15850146 0.036282305
0.51777768 0.15961279 0.035720423
0.51697332 0.16072734 0.035158485
0.51616907 0.16184504 0.034596566
0.51536494 0.16296594 0.034034625
0.51456088 0.16409002 0.033472665
0.51375687 0.1652173 0.032910652
0.51295298 0.16634776 0.032348655
0.51214921 0.16748138 0.031786636
0.51217556 0.16834779 0.031781353
0.51054204 0.16975822 0.030662538
0.51056844 0.1706278 0.030657241
0.50976497 0.1717726 0.030095121
0.50896162 0.17292058 0.029533017
0.50815839 0.17407173 0.02897089
0.50735527 0.17522608 0.028408747
0.50738192 0.17610203 0.028403409
0.50657892 0.17726116 0.027841235
0.50577599 0.17842346 0.027279008
0.50497317 0.17958896 0.026716797
0.50499994 0.18046971 0.02671143
0.5041973 0.18163997 0.026149187
0.50422412 0.1825223 0.026143812
0.5034216 0.18369734 0.025581542
0.50261915 0.18487561 0.025019219
0.50181687 0.18605702 0.024456907
0.50184381 0.18694411 0.024451502
0.50104165 0.1881303 0.023889165
0.50023961 0.1893197 0.023326805
0.42576647 0.034314904 -0.023151159
0.53103471 0.10966247 0.044820737
0.53105986 0.11049065 0.044815693
0.53108501 0.11131883 0.044810645
0.53194213 0.11197219 0.045363005
0.53113538 0.1129752 0.044800553
0.53199238 0.11362536 0.045352932
0.53201747 0.11445195 0.045347895
0.53204262 0.11527854 0.045342859
0.53289944 0.11592233 0.045895312
0.53292453 0.11674733 0.045890283
0.53294957 0.11757232 0.045885257
0.53297466 0.11839731 0.045880228
0.53383118 0.11903315 0.046432696
0.53385621 0.11985656 0.046427678
0.53471261 0.12048762 0.046980176
0.53473759 0.12130944 0.046975169
0.53476256 0.12213124 0.046970163
0.53561878 0.12275593 0.047522698
0.5356437 0.12357614 0.047517698
0.53566861 0.12439637 0.047512699
0.53652465 0.12501468 0.048065308
0.53654957 0.12583329 0.04806032
0.53657442 0.12665193 0.048055332
0.53659934 0.12747055 0.048050344
0.53662419 0.12828918 0.048045356
0.53664911 0.12910779 0.048040368
0.53584313 0.13013789 0.047477711
0.53586805 0.13095811 0.047472715
0.53589302 0.13177831 0.047467716
0.53508729 0.13281476 0.046905059
0.53428167 0.13385439 0.04634238
0.5343067 0.1346778 0.046337362
0.53350127 0.13572221 0.045774657
0.53269583 0.13676982 0.045211896
0.53272098 0.1375964 0.04520686
0.53191572 0.13864878 0.044644102
0.53111064 0.13970433 0.044081327
0.53030556 0.14076307 0.043518532
0.52950066 0.14182502 0.042955719
0.529526 0.14265797 0.042950645
0.52872115 0.14372469 0.042387765
0.52791643 0.14479458 0.041824903
0.52711183 0.14586766 0.041262023
0.52630734 0.14694393 0.040699121
0.52550298 0.14802337 0.040136199
0.52469862 0.14910603 0.039573226
0.52472425 0.14994854 0.039568093
0.52392006 0.15103595 0.039005123
0.52311599 0.15212654 0.038442135
0.52231205 0.15322033 0.037879128
0.5215081 0.1543173 0.037316065
0.52070433 0.15541746 0.036753017
0.51990068 0.1565208 0.036189955
0.51909709 0.15762733 0.035626866
0.51829362 0.15873703 0.035063762
0.51749021 0.15984994 0.034500603
0.51668692 0.16096602 0.033937458
0.51671302 0.16182445 0.033932228
0.51590985 0.16294532 0.033369057
0.51427758 0.16433339 0.032247879
0.5134747 0.1654622 0.031684656
0.51350099 0.16632701 0.031679388
0.51269823 0.16746061 0.031116134
0.51189554 0.1685974 0.030552864
0.51109302 0.16973737 0.029989576
0.5102905 0.17088054 0.029426232
0.50948811 0.17202687 0.028862905
0.50868583 0.17317642 0.028299557
0.50788367 0.17432912 0.027736189
0.50708163 0.175485 0.027172802
0.50710827 0.17636256 0.027167454
0.50630629 0.17752326 0.026604004
0.50550449 0.17868711 0.026040571
0.50553125 0.17956784 0.026035203
0.50472957 0.18073648 0.025471739
0.50475639 0.18161881 0.025466364
0.50395483 0.18279223 0.024902871
0.50398171 0.18367614 0.024897484
0.50318027 0.18485437 0.024333928
0.50157773 0.18722031 0.023206823
0.42718875 0.032225087 -0.023373518
0.42721984 0.033247571 -0.023379749
0.42725092 0.034270056 -0.023385979
0.42728201 0.03529254 -0.02339221
0.42731306 0.036315024 -0.023398442
0.42817959 0.037312429 -0.022846943
0.53155947 0.10964261 0.04417982
0.53158462 0.11047079 0.044174772
0.53244072 0.11112577 0.044728357
0.53246588 0.11195237 0.044723317
0.53249097 0.11277896 0.04471828
0.53251612 0.11360554 0.044713244
0.53254122 0.11443213 0.044708207
0.53339708 0.11507756 0.045261882
0.53342217 0.11590255 0.045256857
0.53344727 0.11672755 0.045251828
0.53430289 0.11736661 0.04580551
0.53432792 0.11819001 0.045800492
0.5343529 0.11901341 0.045795474
0.53520834 0.11964611 0.046349194
0.53523332 0.12046792 0.046344187
0.53608865 0.12109584 0.046897937
0.53611356 0.12191605 0.046892937
0.53613847 0.12273627 0.046887938
0.53699362 0.1233578 0.047441762
0.53701848 0.12417642 0.047436774
0.53704339 0.12499505 0.047431786
0.53706825 0.12581366 0.047426797
0.53709316 0.1266323 0.047421809
0.53711802 0.12745091 0.047416821
0.53714293 0.12826955 0.047411833
0.53716779 0.12908816 0.047406845
0.53636283 0.13011822 0.046842955
0.5363878 0.13093844 0.046837959
0.53558302 0.13197325 0.046274077
0.53560799 0.13279507 0.046269067
0.53480339 0.13383466 0.045705158
0.53399891 0.13487743 0.045141228
0.534024 0.13570243 0.045136198
0.53321958 0.13675 0.044572208
0.53241533 0.13780074 0.044008229
0.53161114 0.13885467 0.043444231
0.53163636 0.13968444 0.043439176
0.53083235 0.14074315 0.042875148
0.53002846 0.14180504 0.042311102
0.52922457 0.14287013 0.041747004
0.52842081 0.14393839 0.041182917
0.52761722 0.14500985 0.040618815
0.52764267 0.14584757 0.040613707
0.5268392 0.14692381 0.040049575
0.52603579 0.14800321 0.039485421
0.52523243 0.14908583 0.038921215
0.52442926 0.15017161 0.038357019
0.52362615 0.15126057 0.037792809
0.52282315 0.15235272 0.037228577
0.52202022 0.15344808 0.036664296
0.52121741 0.15454659 0.036100026
0.52124321 0.15539707 0.036094844
0.52044058 0.15650037 0.035530545
0.51880956 0.15786126 0.034407102
0.51883554 0.15871653 0.03440189
0.51803309 0.15982939 0.033837501
0.51723081 0.16094545 0.033273123
0.51642865 0.16206467 0.032708727
0.51562655 0.16318709 0.032144312
0.51482457 0.16431269 0.031579841
0.51402265 0.16544147 0.031015387
0.51322085 0.16657344 0.030450914
0.51241916 0.16770859 0.029886421
0.51161754 0.16884694 0.029321909
0.51081604 0.16998847 0.028757345
0.51001459 0.17113318 0.028192792
0.50921333 0.17228107 0.027628222
0.50841206 0.17343216 0.027063632
0.50761098 0.17458643 0.026499022
0.50763762 0.17546396 0.026493676
0.50683665 0.17662302 0.025929002
0.50603575 0.17778526 0.025364343
0.50606251 0.178666 0.025358977
0.50526178 0.17983301 0.02479429
0.5052886 0.18071532 0.024788912
0.50448805 0.18188712 0.024224196
0.50451493 0.18277104 0.024218811
0.50371444 0.18394761 0.023654032
0.50374132 0.18483314 0.023648636
0.53208423 0.10962275 0.043538898
0.53210938 0.11045094 0.04353385
0.53296447 0.11110596 0.044088669
0.53298962 0.11193255 0.044083633
0.53301471 0.11275914 0.044078596
0.53303987 0.11358573 0.044073556
0.53389478 0.11423279 0.044628456
0.53391981 0.11505778 0.044623427
0.5339449 0.11588278 0.044618402
0.53479958 0.11652346 0.045173306
0.53482461 0.11734687 0.045168288
0.5356791 0.11798278 0.045723222
0.53570408 0.1188046 0.045718215
0.53572905 0.11962641 0.045713209
0.53658342 0.12025595 0.046268176
0.53660834 0.12107617 0.046263181
0.53663325 0.12189638 0.046258181
0.53748745 0.12251955 0.046813227
0.5375123 0.12333817 0.046808239
0.53753722 0.1241568 0.046803251
0.53756207 0.12497542 0.046798263
0.53758699 0.12579404 0.046793275
0.53761184 0.12661268 0.046788286
0.53763676 0.12743129 0.046783298
0.53766161 0.12824991 0.04677831
0.5368576 0.12927833 0.046213198
0.53688258 0.13009855 0.046208199
0.53690749 0.13091877 0.0462032
0.53610379 0.13195355 0.045638088
0.53530014 0.13299151 0.045072954
0.53449661 0.13403267 0.044507802
0.53452164 0.13485765 0.044502772
0.53371823 0.1359036 0.04393756
0.53291494 0.13695271 0.043372355
0.5321117 0.138005 0.042807136
0.53213692 0.13883477 0.042802081
0.53133386 0.13989185 0.042236831
0.53053093 0.14095211 0.041671559
0.529728 0.14201558 0.041106239
0.52892524 0.1430822 0.04054093
0.52895063 0.14391835 0.040535834
0.528148 0.14498976 0.039970499
0.52734548 0.14606434 0.039405141
0.52654308 0.14714214 0.038839765
0.52574068 0.1482231 0.038274337
0.52493846 0.14930727 0.037708919
0.5241363 0.15039459 0.037143487
0.52333426 0.15148512 0.036578033
0.52336001 0.1523324 0.03657287
0.52255809 0.15342772 0.036007352
0.52175629 0.1545262 0.035441849
0.52095455 0.15562788 0.034876328
0.52015299 0.15673274 0.034310788
0.51935142 0.15784076 0.033745229
0.51854998 0.15895201 0.033179615
0.51774865 0.16006641 0.032614015
0.51694745 0.16118401 0.032048397
0.51614636 0.16230479 0.03148276
0.51534528 0.16342877 0.030917065
0.51454431 0.16455592 0.030351391
0.51374352 0.16568626 0.029785693
0.51294279 0.16681978 0.029219978
0.51214212 0.1679565 0.028654244
0.51134151 0.16909641 0.028088452
0.51054108 0.17023948 0.027522681
0.50974077 0.17138575 0.026956886
0.50894052 0.1725352 0.026391072
0.50814033 0.17368783 0.025825243
0.50734025 0.17484365 0.025259355
0.50736696 0.17572281 0.025253998
0.50656706 0.1768834 0.024688119
0.50659382 0.17776415 0.024682753
0.50579405 0.17892951 0.024116842
0.50582087 0.17981185 0.024111465
0.50502127 0.18098199 0.023545526
0.5050481 0.18186593 0.023540139
0.50507498 0.18274985 0.023534752
0.5042755 0.18392637 0.022968741
0.50430244 0.18481192 0.022963345
0.53260899 0.1096029 0.042897981
0.53346312 0.11025956 0.043454017
0.53265929 0.11125926 0.042887885
0.53351337 0.11191273 0.043443944
0.53353846 0.11273932 0.043438908
0.53439242 0.113388 0.04399503
0.53441751 0.114213 0.043990001
0.53444254 0.115038 0.043984976
0.53529626 0.11568032 0.044541102
0.5353213 0.11650372 0.044536084
0.53617483 0.11714127 0.04509224
0.53619981 0.11796308 0.045087233
0.53705323 0.11859585 0.045643419
0.5370782 0.11941607 0.04563842
0.53710312 0.12023629 0.045633424
0.53795636 0.12086268 0.046189677
0.53798127 0.1216813 0.046184689
0.53800613 0.12249992 0.046179701
0.53803104 0.12331854 0.046174712
0.53888398 0.12393698 0.046730988
0.53890884 0.12475401 0.046726007
0.53810567 0.12577441 0.046159748
0.53813052 0.12659305 0.04615476
0.53815544 0.12741166 0.046149772
0.53818029 0.12823029 0.046144783
0.53737736 0.12925868 0.045578443
0.53740227 0.1300789 0.045573447
0.53659952 0.13111204 0.045007106
0.53579682 0.13214837 0.04444075
0.53582186 0.13297176 0.044435732
0.53501934 0.13401288 0.043869346
0.53421682 0.13505718 0.043302909
0.53341448 0.13610467 0.042736486
0.53343964 0.13693285 0.042731438
0.53263748 0.13798511 0.042164985
0.53183538 0.13904056 0.041598514
0.5310334 0.14009918 0.04103202
0.53023142 0.14116101 0.040465474
0.52942961 0.14222601 0.039898943
0.52945501 0.14306214 0.039893847
0.52865338 0.14413193 0.03932729
0.52785182 0.1452049 0.038760707
0.52705032 0.14628105 0.038194109
0.52624893 0.1473604 0.037627459
0.52544761 0.14844291 0.03706082
0.52464646 0.14952862 0.036494162
0.52467215 0.15037432 0.03648901
0.52387112 0.15146481 0.035922322
0.52307016 0.15255848 0.035355587
0.52226931 0.15365534 0.034788858
0.52146858 0.15475537 0.034222115
0.52066791 0.15585861 0.033655349
0.51986736 0.156965 0.033088569
0.51906687 0.15807462 0.032521732
0.5182665 0.15918741 0.031954911
0.51746625 0.16030337 0.031388067
0.51666611 0.16142251 0.030821206
0.51586598 0.16254486 0.030254293
0.51506603 0.16367039 0.029687392
0.51426613 0.16479909 0.029120473
0.51346636 0.16593099 0.028553532
0.5126667 0.16706607 0.027986577
0.51186705 0.16820434 0.027419565
0.51106757 0.16934578 0.026852569
0.51026821 0.17049041 0.026285551
0.50946891 0.17163824 0.025718518
0.50866973 0.17278922 0.02515146
0.50787055 0.17394345 0.024584351
0.50789726 0.17482258 0.024578994
0.50709832 0.17598155 0.024011891
0.50712508 0.17686228 0.024006525
0.50632632 0.17802604 0.023439394
0.50552762 0.17919296 0.022872239
0.50555444 0.18007688 0.022866854
0.50558132 0.18096079 0.022861468
0.50478274 0.18213412 0.022294242
0.50480968 0.18301964 0.022288846
0.50483656 0.18390514 0.02228345
0.53313369 0.10958304 0.042257059
0.53398687 0.11023974 0.042814329
0.53401196 0.11106633 0.042809293
0.53403711 0.11189292 0.042804256
0.53406221 0.11271951 0.042799219
0.53491515 0.11336823 0.043356575
0.53494024 0.11419322 0.04335155
0.53579295 0.11483718 0.043908898
0.53581798 0.11566058 0.04390388
0.53584301 0.11648398 0.043898862
0.5366956 0.11712157 0.044456251
0.53754801 0.11775596 0.045013662
0.53757298 0.11857618 0.045008663
0.53759789 0.1193964 0.045003664
0.53845018 0.12002442 0.045561142
0.5384751 0.12084305 0.045556154
0.53849995 0.12166167 0.045551166
0.539352 0.12228332 0.046108652
0.53937685 0.12310036 0.046103671
0.53940171 0.12391739 0.046098694
0.53942651 0.12473442 0.046093713
0.53862435 0.12575479 0.045526225
0.53864926 0.12657341 0.045521237
0.53867412 0.12739204 0.045516245
0.53787214 0.12841879 0.044948686
0.53789705 0.12923901 0.044943687
0.53709525 0.13027053 0.044376124
0.53712022 0.13109234 0.044371117
0.53631854 0.13212863 0.043803528
0.53551698 0.1331681 0.04323592
0.53471547 0.13421078 0.042668257
0.53474057 0.13503738 0.04266322
0.53393924 0.13608481 0.042095564
0.53313804 0.13713545 0.04152789
0.53233689 0.13818926 0.040960193
0.53153586 0.13924626 0.040392481
0.53073484 0.14030646 0.039824709
0.53076023 0.141141 0.039819624
0.52995944 0.14220597 0.03925186
0.52915871 0.14327411 0.038684078
0.5283581 0.14434545 0.038116276
0.52755761 0.14541996 0.037548453
0.52675712 0.14649768 0.036980581
0.52678275 0.14734019 0.036975447
0.5259825 0.14842267 0.036407575
0.52518231 0.14950834 0.035839684
0.52438223 0.15059718 0.035271775
0.52358222 0.15168925 0.034703817
0.52278233 0.15278447 0.034135867
0.52198255 0.15388288 0.033567898
0.52118289 0.15498446 0.03299991
0.5203833 0.15608925 0.032431908
0.51958376 0.15719722 0.031863846
0.51878434 0.15830837 0.031295802
0.51881045 0.15916683 0.031290572
0.51801121 0.16028275 0.030722497
0.51638669 0.16166094 0.029591518
0.51558769 0.16278483 0.029023394
0.51561397 0.16364965 0.029018125
0.51481509 0.16477832 0.028449973
0.51319122 0.16617562 0.027318908
0.51239258 0.16731226 0.026750676
0.51241904 0.16818345 0.026745368
0.51079565 0.16959508 0.025614215
0.50999731 0.17074127 0.025045957
0.51002395 0.17161722 0.025040619
0.50840092 0.17304321 0.023909349
0.50842762 0.17392237 0.023903992
0.50762963 0.1750797 0.023335665
0.50683171 0.17624021 0.02276732
0.50685853 0.17712255 0.022761943
0.50606078 0.17828785 0.022193568
0.50608766 0.17917177 0.022188183
0.50529003 0.18034185 0.021619745
0.50531691 0.18122737 0.021614349
0.50534385 0.1821129 0.021608951
0.5045464 0.18328933 0.021040509
0.5045734 0.18417643 0.021035103
0.53365844 0.10956319 0.041616142
0.53451061 0.11021993 0.042174645
0.53453571 0.11104651 0.042169608
0.53456086 0.11187311 0.042164572
0.53458595 0.11269969 0.042159531
0.53543788 0.11334845 0.04271812
0.53546298 0.11417345 0.042713095
0.53631473 0.11481744 0.043271676
0.5363397 0.11564084 0.043266658
0.53719133 0.11628006 0.043825272
0.53721631 0.11710186 0.043820262
0.53806776 0.1177363 0.044378903
0.53809267 0.11855652 0.044373907
0.53894401 0.11918618 0.044932608
0.53896892 0.1200048 0.044927619
0.53899378 0.12082342 0.044922631
0.53984487 0.12144671 0.045481339
0.53986973 0.12226374 0.045476362
0.53989452 0.12308077 0.045471381
0.53991938 0.12389781 0.045466404
0.53911817 0.12491654 0.04489769
0.53914309 0.12573516 0.044892699
0.53916794 0.12655379 0.04488771
0.53836691 0.12757891 0.044318926
0.53839183 0.12839913 0.044313926
0.53759098 0.12942901 0.043745145
0.53761595 0.13025083 0.043740138
0.53681523 0.13128549 0.043171324
0.53601462 0.13232334 0.042602494
0.53603971 0.13314833 0.042597465
0.53523922 0.13419096 0.042028572
0.53443885 0.13523678 0.041459695
0.53363854 0.13628578 0.040890794
0.5328384 0.13733795 0.040321875
0.53203827 0.13839333 0.039752938
0.5320636 0.13922629 0.03974786
0.53126365 0.14028645 0.039178863
0.53046381 0.14134978 0.038609877
0.52966404 0.1424163 0.038040869
0.52886438 0.14348599 0.037471846
0.52806485 0.14455888 0.0369028
0.52809042 0.14539979 0.036897674
0.527291 0.14647748 0.036328569
0.52649164 0.14755833 0.035759475
0.52569246 0.14864236 0.035190362
0.52489334 0.14972959 0.034621231
0.52409428 0.15082 0.034052044
0.52329534 0.1519136 0.033482876
0.52249652 0.15301037 0.032913685
0.52169782 0.15411034 0.032344475
0.52089918 0.15521348 0.031775247
0.52010059 0.15631983 0.031205965
0.51930219 0.15742935 0.030636696
0.5193283 0.15828779 0.030631466
0.51853001 0.15940209 0.030062169
0.51773179 0.16051957 0.029492851
0.51693368 0.16164024 0.02892348
0.51613563 0.1627641 0.028354127
0.51533777 0.16389114 0.027784754
0.51453996 0.16502136 0.027215358
0.51374227 0.16615477 0.026645945
0.51294458 0.16729139 0.026076477
0.51132309 0.16869976 0.024942882
0.51134968 0.16957411 0.024937555
0.51055235 0.17072026 0.024368064
0.50893122 0.172143 0.023234345
0.50895792 0.17302212 0.023228988
0.50816089 0.17417786 0.022659441
0.50736398 0.17533673 0.022089873
0.50656712 0.1764988 0.021520283
0.506594 0.17738272 0.021514898
0.50579727 0.1785496 0.020945245
0.50582421 0.17943512 0.020939849
0.50502765 0.18060675 0.020370206
0.50505459 0.18149385 0.020364799
0.50508153 0.18238096 0.020359393
0.50510854 0.18326807 0.020353988
0.50513548 0.18415517 0.020348582
0.5341832 0.10954333 0.040975221
0.53503436 0.11020011 0.04153496
0.53423357 0.11119969 0.040965129
0.53508461 0.11185329 0.041524887
0.5351097 0.11267987 0.041519847
0.53596061 0.11332867 0.042079668
0.53598571 0.11415367 0.042074639
0.53683645 0.1147977 0.042634454
0.53686148 0.1156211 0.042629436
0.53771204 0.11626036 0.04318928
0.53773701 0.11708216 0.043184273
0.53858745 0.11771663 0.043744147
0.53861237 0.11853686 0.043739147
0.53946269 0.11916655 0.044299085
0.5394876 0.11998517 0.044294097
0.53951246 0.1208038 0.044289108
0.5403626 0.12142711 0.044849046
0.54038739 0.12224415 0.044844069
0.54041225 0.12306118 0.044839088
0.539612 0.12407829 0.044269152
0.53963691 0.12489691 0.044264164
0.53966177 0.12571554 0.044259176
0.53886169 0.12673903 0.043689169
0.53888661 0.12755924 0.04368417
0.53808671 0.1285875 0.043114163
0.53811169 0.1294093 0.043109156
0.53731197 0.13044234 0.04253912
0.53651232 0.13147856 0.041969068
0.53653735 0.13230355 0.041964039
0.53573781 0.13334456 0.041393925
0.5349384 0.13438874 0.040823821
0.5341391 0.13543612 0.040253695
0.53333986 0.13648666 0.039683558
0.53336513 0.13731803 0.039678492
0.53256607 0.13837335 0.039108321
0.53176707 0.13943188 0.038538098
0.53096819 0.14049359 0.037967887
0.53016943 0.14155847 0.03739766
0.52937073 0.14262654 0.036827412
0.52857214 0.1436978 0.036257144
0.52859771 0.14453872 0.036252022
0.52779919 0.14561476 0.035681687
0.52700084 0.14669399 0.035111375
0.52620262 0.1477764 0.034541037
0.52540445 0.14886199 0.033970684
0.52460635 0.14995077 0.033400275
0.52380842 0.15104273 0.032829881
0.52301055 0.15213788 0.032259468
0.5222128 0.15323621 0.031689037
0.52141511 0.15433772 0.031118585
0.52061749 0.15544243 0.030548081
0.51982003 0.15655033 0.029977588
0.51984614 0.15740877 0.029972358
0.51904881 0.15852143 0.029401839
0.51825154 0.15963729 0.028831299
0.51745439 0.16075633 0.028260708
0.51665735 0.16187856 0.027690127
0.51586038 0.16300397 0.027119532
0.51506352 0.16413257 0.026548915
0.51426679 0.16526432 0.025978277
0.51347011 0.1663993 0.025407588
0.51267356 0.16753747 0.024836915
0.51187712 0.16867879 0.024266219
0.51108074 0.1698233 0.023695504
0.50946152 0.17124277 0.022559345
0.50948828 0.17212191 0.022553988
0.5086922 0.17327598 0.021983214
0.50789624 0.17443326 0.021412421
0.50710034 0.1755937 0.020841612
0.50712723 0.17647761 0.020836227
0.50633144 0.17764285 0.020265352
0.50553578 0.17881127 0.019694492
0.50556278 0.17969838 0.019689087
0.50558972 0.18058547 0.019683681
0.50561666 0.18147258 0.019678274
0.5048213 0.18264896 0.019107366
0.50567061 0.18324679 0.019667463
0.5048753 0.18442637 0.019096535
0.53388304 0.10969325 0.039768293
0.53473318 0.11035166 0.040329251
0.53475833 0.11117984 0.040324204
0.53478348 0.11200802 0.040319156
0.53563344 0.11266006 0.040880159
0.5356586 0.11348664 0.040875122
0.53650844 0.11413389 0.041436184
0.53653353 0.11495888 0.041431155
0.5373832 0.11560135 0.041992214
0.53823274 0.11624065 0.042553287
0.53825772 0.11706246 0.04254828
0.53910714 0.11769697 0.043109387
0.53913206 0.11851719 0.043104388
0.53998142 0.11914692 0.043665558
0.54000628 0.11996554 0.04366057
0.54003119 0.12078417 0.043655582
0.54005605 0.12160279 0.043650594
0.54008096 0.12242141 0.043645605
0.54010582 0.12324003 0.043640617
0.54013073 0.12405866 0.043635629
0.54015559 0.12487729 0.043630637
0.53935647 0.12589915 0.043059405
0.53938138 0.12671937 0.043054409
0.53858244 0.12774599 0.042483177
0.53860742 0.1285678 0.04247817
0.53780866 0.12959918 0.041906912
0.53700995 0.13063379 0.041335639
0.53703505 0.13145879 0.041330609
0.53623646 0.13249816 0.040759269
0.535438 0.1335407 0.040187944
0.53463966 0.13458644 0.0396166
0.53466487 0.13541622 0.039611544
0.53386664 0.13646673 0.039040171
0.53306854 0.13752043 0.038468774
0.53227049 0.13857733 0.03789733
0.53147256 0.1396374 0.037325896
0.53067476 0.14070065 0.036754448
0.52987701 0.1417671 0.036182974
0.52907944 0.14283672 0.035611484
0.52910495 0.14367764 0.035606362
0.52830744 0.14475206 0.035034809
0.52751005 0.14582963 0.034463271
0.52671278 0.14691041 0.033891711
0.52591556 0.14799438 0.033320133
0.52511841 0.14908153 0.032748502
0.52432144 0.15017186 0.032176886
0.52352452 0.15126538 0.031605251
0.52272773 0.15236208 0.031033594
0.52193105 0.15346196 0.03046192
0.52113438 0.15456505 0.029890193
0.52033788 0.1556713 0.02931848
0.51954144 0.15678075 0.028746746
0.51956761 0.15764078 0.028741505
0.51877129 0.158755 0.028169744
0.51797509 0.15987243 0.027597928
0.51717901 0.16099301 0.027026128
0.51638305 0.1621168 0.026454307
0.51558715 0.16324374 0.025882468
0.51479137 0.16437389 0.025310609
0.51399565 0.16550724 0.024738697
0.51320004 0.16664375 0.024166798
0.51240456 0.16778345 0.02359488
0.51160914 0.16892634 0.023022946
0.50999188 0.17034255 0.021884335
0.51001859 0.17122169 0.021878978
0.50922346 0.17237414 0.021306984
0.50842845 0.17352976 0.020734971
0.50763357 0.17468858 0.020162934
0.50683868 0.17585059 0.019590847
0.50604397 0.17701577 0.019018777
0.50607091 0.17790288 0.019013371
0.50609791 0.17879 0.019007964
0.50530338 0.17996155 0.018435854
0.50533038 0.18085024 0.01843044
0.50535738 0.18173894 0.018425023
0.50538439 0.18262765 0.018419608
0.50541145 0.18351635 0.018414192
0.50543845 0.18440506 0.018408777
0.50546545 0.18529376 0.018403361
0.53440875 0.10967336 0.039126139
0.53443402 0.11050313 0.039121084
0.53528309 0.11115998 0.039683286
0.53530824 0.11198816 0.039678238
0.53533345 0.11281635 0.039673194
0.53618234 0.11346682 0.040235434
0.53620744 0.11429341 0.040230397
0.53705627 0.1149391 0.0407927
0.53790492 0.11558162 0.041354991
0.53875345 0.11622095 0.041917302
0.53877842 0.11704276 0.041912291
0.53962684 0.11767731 0.042474631
0.53965181 0.11849753 0.042469632
0.5405001 0.1191273 0.043032032
0.54052502 0.11994591 0.043027043
0.54054987 0.12076454 0.043022055
0.54057479 0.12158316 0.043017067
0.54059964 0.12240179 0.043012079
0.5406245 0.12322041 0.043007091
0.54064941 0.12403903 0.043002103
0.53985125 0.12505926 0.042429648
0.53987616 0.12587948 0.042424649
0.53907818 0.12690447 0.041852199
0.53910321 0.12772627 0.041847192
0.53830534 0.12875606 0.041274711
0.53833038 0.12957945 0.041269694
0.53753269 0.130614 0.04069718
0.53673506 0.13165176 0.040124621
0.53593761 0.13269266 0.039552074
0.53514022 0.13373677 0.038979504
0.53516543 0.13456655 0.038974449
0.53436816 0.13561544 0.038401853
0.533571 0.1366675 0.037829235
0.53277391 0.13772276 0.037256565
0.53197694 0.1387812 0.036683913
0.53118008 0.13984282 0.036111236
0.53038335 0.14090765 0.035538543
0.52958667 0.14197563 0.034965832
0.52961224 0.14281656 0.034960706
0.52881569 0.14388934 0.034387931
0.52801925 0.14496529 0.033815168
0.52722293 0.14604445 0.033242386
0.52642667 0.14712676 0.032669589
0.52563053 0.1482123 0.032096732
0.52483445 0.14930099 0.031523895
0.52403855 0.15039289 0.030951036
0.52324271 0.15148795 0.030378157
0.52244693 0.15258621 0.02980526
0.52165127 0.15368766 0.029232308
0.52085572 0.15479228 0.028659372
0.52006024 0.15590009 0.028086416
0.52008641 0.15676013 0.028081177
0.51846957 0.1581253 0.026940413
0.5184958 0.15898851 0.026935153
0.51770067 0.16010746 0.026362129
0.51690567 0.16122961 0.025789086
0.51611078 0.16235495 0.025216024
0.51531595 0.16348346 0.024642942
0.51452118 0.16461517 0.024069807
