# .PCD v0.7 - Point Cloud Data file format
VERSION 0.7
FIELDS x y z
SIZE 4 4 4
TYPE F F F
COUNT 1 1 1
WIDTH 1388
HEIGHT 1
VIEWPOINT 0 0 0 1 0 0 0
POINTS 1388
DATA ascii
0.42824018 0.11034743 0.029836252
0.42826968 0.11131735 0.029830342
0.42829916 0.11228728 0.029824432
0.42832863 0.1132572 0.029818522
0.42835811 0.11422714 0.02981261
0.42838761 0.11519706 0.0298067
0.42841709 0.11616699 0.029800789
0.42844656 0.1171369 0.029794879
0.42847604 0.11810684 0.029788969
0.42938432 0.11891611 0.030283671
0.42853501 0.12004669 0.029777149
0.42856449 0.12101661 0.029771237
0.42859396 0.12198654 0.029765327
0.42862344 0.12295647 0.029759416
0.42865294 0.12392639 0.029753506
0.40855137 0.052190382 0.018921494
0.40858188 0.053193755 0.018915381
0.40949351 0.054144807 0.019410485
0.41040498 0.055092681 0.019905576
0.41043541 0.056092869 0.01989948
0.41134673 0.057035964 0.020394601
0.4113771 0.058034554 0.020388516
0.41228828 0.058972873 0.02088367
0.41319942 0.059907999 0.021378865
0.41411042 0.060839947 0.021874059
0.41414064 0.061833762 0.021868004
0.41505149 0.062760927 0.022363221
0.41508165 0.063753158 0.022357175
0.41599235 0.064675547 0.022852421
0.41602248 0.065666176 0.022846384
0.41605258 0.066656806 0.022840347
0.41608268 0.067647435 0.02283431
0.41611281 0.068638071 0.022828273
0.41702321 0.069550902 0.023323584
0.41705328 0.070539944 0.023317557
0.41708335 0.071528979 0.023311531
0.41711339 0.072518021 0.023305504
0.41802365 0.073422886 0.023800889
0.41805366 0.074410327 0.023794871
0.41896367 0.075310424 0.024290254
0.41899365 0.076296277 0.024284245
0.4190236 0.077282131 0.024278238
0.41993344 0.07817585 0.024773659
0.41996336 0.079160109 0.024767661
0.42087305 0.08004906 0.025263118
0.42090291 0.081031725 0.025257129
0.4209328 0.082014397 0.025251141
0.42184228 0.082896963 0.025746631
0.42187211 0.08387804 0.025740651
0.42278153 0.08475583 0.026236203
0.4228113 0.085735314 0.026230233
0.42284107 0.086714797 0.026224265
0.42375022 0.087586224 0.026719822
0.42377993 0.088564113 0.026713863
0.42380968 0.089542001 0.026707904
0.42383939 0.09051989 0.026701944
0.4247483 0.091383353 0.027197557
0.42477798 0.092359647 0.027191607
0.42480767 0.093335949 0.027185658
0.42483732 0.094312243 0.027179709
0.42574599 0.095167749 0.027675362
0.42577565 0.096142456 0.027669422
0.42580527 0.097117156 0.027663482
0.42583489 0.098091856 0.027657542
0.42586452 0.099066563 0.027651604
0.42677295 0.099912502 0.028147347
0.42680252 0.10088561 0.028141418
0.42683211 0.10185872 0.028135488
0.42686167 0.10283183 0.028129559
0.42689127 0.10380495 0.028123628
0.42692083 0.10477806 0.028117698
0.42695042 0.10575117 0.028111769
0.42785841 0.10658438 0.028607558
0.42788795 0.10755589 0.028601639
0.42791748 0.10852741 0.028595718
0.42794701 0.10949893 0.028589798
0.42797655 0.11047045 0.028583877
0.42800605 0.11144196 0.028577957
0.42803559 0.11241349 0.028572038
0.42894322 0.11323395 0.029067911
0.42897269 0.11420389 0.029061999
0.42900217 0.1151738 0.029056089
0.42903164 0.11614373 0.029050179
0.42906111 0.11711365 0.029044269
0.42909062 0.11808358 0.029038358
0.42912009 0.11905351 0.029032448
0.42827183 0.12018564 0.028524676
0.42830136 0.12115715 0.028518755
0.4283309 0.12212867 0.028512836
0.42836043 0.12310021 0.028506916
0.42838997 0.12407172 0.028500995
0.40915665 0.051162954 0.018151104
0.40918714 0.052166324 0.018144991
0.40921766 0.053169698 0.018138876
0.41012827 0.05412079 0.018635213
0.41015872 0.055122569 0.018629109
0.41106915 0.05606889 0.019125443
0.41109955 0.057069074 0.019119348
0.41200984 0.058010615 0.019615712
0.41292 0.058948968 0.020112094
0.41295031 0.059945971 0.020106018
0.41386041 0.060879543 0.020602463
0.41477033 0.061809935 0.021098893
0.41480055 0.062803753 0.021092838
0.41571036 0.063729368 0.021589303
0.41574052 0.064721592 0.021583257
0.41577068 0.065713815 0.021577211
0.41580081 0.066706032 0.021571163
0.41671038 0.06762369 0.022067674
0.41674048 0.068614319 0.022061637
0.41677061 0.069604948 0.0220556
0.41680071 0.070595577 0.022049563
0.41683081 0.071586214 0.022043526
0.41774008 0.072494306 0.022540092
0.41777015 0.07348334 0.022534067
0.41780022 0.074472383 0.022528039
0.41870934 0.075374104 0.023024676
0.41873935 0.076361544 0.02301866
0.41876936 0.077348992 0.023012642
0.41967824 0.078244343 0.023509288
0.41970819 0.079230197 0.023503279
0.42061692 0.08012078 0.023999954
0.42064685 0.081105039 0.023993956
0.42067677 0.082089297 0.023987958
0.42158532 0.082973503 0.02448467
0.42161518 0.083956167 0.024478683
0.42164505 0.084938832 0.024472695
0.42167491 0.085921504 0.024466706
0.42258319 0.086797744 0.024963474
0.42261302 0.087778822 0.024957495
0.42352122 0.088650279 0.025454311
0.42355099 0.089629762 0.025448343
0.42358077 0.090609245 0.025442373
0.42448872 0.091474332 0.025939208
0.42451847 0.092452228 0.025933249
0.42454818 0.093430117 0.02592729
0.42545593 0.094288833 0.026424158
0.42548561 0.095265135 0.026418209
0.42551529 0.096241437 0.02641226
0.42554498 0.097217731 0.02640631
0.42645249 0.098068491 0.026903227
0.42648211 0.099043198 0.026897287
0.42651173 0.1000179 0.026891347
0.42654136 0.10099261 0.026885409
0.42657098 0.1019673 0.026879469
0.42660061 0.10294201 0.026873529
0.42750785 0.10378162 0.027370546
0.42753744 0.10475473 0.027364615
0.42756701 0.10572784 0.027358685
0.4275966 0.10670095 0.027352756
0.42762616 0.10767406 0.027346825
0.42765576 0.10864718 0.027340896
0.42768532 0.10962029 0.027334966
0.42771491 0.1105934 0.027329037
0.42862165 0.11141867 0.027826108
0.42865118 0.1123902 0.027820187
0.42868072 0.11336172 0.027814267
0.42871022 0.11433323 0.027808348
0.42873976 0.11530475 0.027802426
0.42876929 0.11627627 0.027796507
0.42879882 0.11724778 0.027790587
0.42882836 0.11821932 0.027784666
0.42885789 0.11919083 0.027778747
0.42888743 0.12016235 0.027772827
0.42804027 0.12129762 0.027263807
0.42806983 0.12227074 0.027257878
0.42809942 0.12324385 0.027251948
0.42812899 0.12421697 0.027246017
0.4089132 0.051186357 0.016870977
0.40982291 0.052142266 0.017368486
0.4098534 0.053145643 0.017362371
0.40988392 0.054149013 0.017356258
0.41079348 0.055098552 0.017853837
0.41082391 0.056100331 0.017847734
0.4117333 0.057045095 0.018345309
0.4117637 0.058045279 0.018339215
0.41267291 0.058985267 0.01883682
0.41358206 0.059922069 0.019334447
0.41361234 0.060919069 0.019328371
0.41452137 0.061851088 0.019826058
0.41455165 0.062846497 0.019819992
0.41546047 0.063773744 0.020317676
0.41549069 0.064767562 0.02031162
0.41639936 0.065690026 0.020809334
0.41642952 0.066682249 0.020803288
0.41645968 0.067674473 0.020797241
0.41648984 0.068666697 0.020791193
0.41652 0.06965892 0.020785147
0.4174284 0.070571825 0.021282919
0.4174585 0.071562462 0.021276882
0.41748863 0.072553091 0.021270845
0.41751873 0.07354372 0.021264808
0.4184269 0.074448667 0.021762628
0.41845697 0.07543771 0.021756602
0.41848701 0.076426744 0.021750575
0.41939503 0.077325322 0.022248466
0.41942504 0.078312762 0.022242449
0.41945505 0.07930021 0.022236431
0.42036283 0.080192417 0.022734329
0.42039281 0.08117827 0.02272832
0.42042276 0.082164124 0.022722313
0.42045274 0.083149977 0.022716306
0.42136025 0.084034219 0.023214253
0.42139018 0.085018478 0.023208253
0.4214201 0.086002737 0.023202255
0.42232743 0.086880609 0.023700241
0.42235729 0.087863281 0.023694253
0.42238715 0.088845946 0.023688264
0.42329431 0.089717455 0.024186289
0.42332414 0.090698525 0.02418031
0.42335394 0.091679603 0.024174331
0.42426094 0.092544727 0.024672426
0.42429072 0.093524203 0.024666457
0.42519751 0.094384558 0.025164548
0.42522725 0.095362455 0.02515859
0.42525697 0.096340343 0.025152631
0.42616358 0.097194321 0.02565076
0.42619324 0.098170623 0.025644811
0.42622292 0.099146917 0.025638862
0.4262526 0.10012321 0.025632912
0.42628229 0.10109951 0.025626963
0.42718861 0.10194394 0.026125152
0.42721823 0.10291865 0.026119212
0.42724785 0.10389335 0.026113274
0.42727748 0.10486805 0.026107334
0.4273071 0.10584275 0.026101394
0.42733672 0.10681746 0.026095454
0.42736635 0.10779216 0.026089514
0.42827234 0.10862384 0.026587812
0.4283019 0.10959695 0.026581883
0.42833149 0.11057007 0.026575953
0.42836106 0.11154318 0.026570024
0.42839065 0.11251628 0.026564093
0.42842022 0.1134894 0.026558163
0.42844981 0.11446252 0.026552234
0.42847937 0.11543562 0.026546303
0.42938489 0.11625298 0.027044658
0.42853853 0.11738184 0.026534444
0.42856812 0.11835497 0.026528513
0.42859769 0.11932807 0.026522584
0.42862728 0.12030119 0.026516654
0.42865685 0.12127429 0.026510725
0.42781076 0.12241273 0.026000421
0.42696479 0.12355435 0.025490129
0.42699447 0.12453064 0.02548418
0.40954998 0.051162265 0.01609325
0.41045868 0.052118212 0.016591992
0.41048917 0.053121585 0.016585879
0.41139778 0.054072753 0.017084682
0.41142821 0.055074535 0.017078578
0.41145867 0.056076314 0.017072473
0.41236702 0.057021115 0.017571284
0.41239744 0.0580213 0.017565189
0.41330564 0.058961324 0.018064028
0.41333601 0.059959922 0.018057942
0.41424406 0.060895167 0.018556805
0.41427436 0.061892167 0.018550731
0.41518235 0.062822632 0.019049661
0.4152126 0.063818045 0.019043595
0.41524285 0.06481345 0.019037528
0.4161506 0.065737545 0.019536465
0.41618079 0.066731364 0.01953041
0.41621101 0.067725182 0.019524353
0.41711855 0.068642907 0.020023329
0.41714871 0.06963513 0.020017283
0.41717887 0.070627354 0.020011237
0.41720903 0.071619578 0.020005189
0.41723919 0.072611801 0.019999143
0.41814643 0.073519967 0.020498177
0.41817653 0.074510604 0.02049214
0.41820663 0.075501233 0.020486103
0.41823676 0.076491863 0.020480067
0.41914377 0.077392071 0.020979149
0.41917381 0.078381114 0.020973122
0.41920388 0.079370148 0.020967096
0.42011073 0.080263987 0.021466242
0.42014077 0.081251428 0.021460226
0.42017078 0.082238875 0.021454208
0.42020079 0.083226323 0.021448191
0.42110735 0.08411219 0.02194736
0.42113733 0.085098043 0.021941353
0.42116728 0.086083896 0.021935346
0.42207366 0.0869634 0.022434553
0.42210358 0.087947667 0.022428555
0.42213351 0.088931926 0.022422558
0.42303967 0.089805059 0.022921804
0.42306954 0.090787724 0.022915818
0.4230994 0.091770396 0.022909829
0.42400539 0.092637151 0.023409115
0.42403522 0.093618229 0.023403136
0.42494112 0.094480202 0.023902478
0.4249709 0.095459692 0.02389651
0.42500067 0.096439175 0.02389054
0.4259063 0.097294785 0.024389895
0.42593601 0.098272674 0.024383936
0.42596576 0.099250562 0.024377976
0.42687121 0.10009981 0.024877369
0.42690089 0.1010761 0.02487142
0.42693055 0.1020524 0.024865471
0.42696023 0.1030287 0.024859522
0.42698991 0.10400499 0.024853572
0.42701957 0.1049813 0.024847623
0.42792469 0.10581939 0.025347084
0.42795432 0.1067941 0.025341144
0.42798394 0.1077688 0.025335204
0.42801356 0.1087435 0.025329264
0.42804319 0.1097182 0.025323324
0.42807284 0.11069291 0.025317386
0.42810246 0.11166762 0.025311446
0.42900723 0.11249296 0.025811017
0.4290368 0.11346607 0.025805086
0.42906639 0.11443919 0.025799155
0.42909595 0.11541229 0.025793226
0.42912555 0.11638542 0.025787296
0.42915511 0.11735851 0.025781367
0.42830983 0.11849055 0.025269868
0.42833945 0.11946525 0.02526393
0.4283691 0.12043995 0.02525799
0.42752406 0.12157834 0.024746485
0.42755371 0.12255464 0.024740536
0.42670885 0.12369782 0.024229001
0.42586404 0.12484416 0.023717448
0.41015619 0.050133202 0.015321642
0.41018674 0.05113817 0.015315519
0.41021729 0.052143134 0.015309394
0.41112494 0.053097531 0.01580938
0.41115543 0.054100901 0.015803266
0.41118592 0.055104274 0.015797151
0.41209343 0.056052297 0.016297203
0.41212389 0.057054076 0.016291097
0.41303119 0.05799732 0.016791152
0.41306159 0.058997508 0.016785055
0.41396874 0.05993598 0.017285138
0.41399908 0.060934573 0.017279053
0.41490611 0.061868265 0.017779158
0.41493639 0.062865265 0.017773084
0.4149667 0.063862272 0.017767008
0.41587359 0.064789586 0.01826719
0.41590384 0.065784991 0.018261125
0.41593409 0.066780403 0.018255059
0.41596434 0.067775808 0.018248994
0.41687092 0.068695173 0.018749192
0.41690114 0.069688983 0.018743137
0.41693133 0.070682801 0.018737081
0.41696155 0.071676619 0.018731024
0.41786787 0.072588012 0.019231265
0.41789803 0.073580235 0.019225219
0.41792819 0.074572459 0.019219173
0.41795835 0.075564682 0.019213127
0.41886446 0.076468118 0.019713424
0.41889456 0.077458747 0.019707387
0.41892466 0.078449376 0.01970135
0.41983056 0.079346433 0.020201685
0.41986063 0.080335476 0.020195657
0.4198907 0.081324518 0.020189632
0.41992074 0.082313552 0.020183604
0.42082646 0.083202645 0.020684013
0.42085648 0.084190086 0.020677997
0.42088649 0.085177533 0.020671979
0.4209165 0.086164981 0.020665962
0.42182192 0.087046117 0.021166394
0.42185187 0.08803197 0.021160387
0.42188185 0.089017823 0.021154379
0.42278707 0.089892589 0.02165485
0.42281699 0.090876848 0.021648852
0.42284688 0.091861106 0.021642854
0.42375192 0.092729501 0.022143364
0.42378178 0.093712166 0.022137376
0.42381167 0.09469483 0.022131387
0.4247165 0.095556863 0.02263193
0.42562127 0.096415691 0.023132529
0.42565104 0.097395174 0.023126561
0.42568082 0.09837465 0.023120593
0.42658538 0.099227116 0.0236212
0.42661509 0.100205 0.023615239
0.4266448 0.1011829 0.023609281
0.42667454 0.10216079 0.023603322
0.42670426 0.10313868 0.023597363
0.42760852 0.10398158 0.024098022
0.4276382 0.10495789 0.024092073
0.42766786 0.10593419 0.024086123
0.42769754 0.10691048 0.024080174
0.42772722 0.10788678 0.024074225
0.42775688 0.10886308 0.024068275
0.42866081 0.10969484 0.024569008
0.42869043 0.11066955 0.024563069
0.42872006 0.11164425 0.024557129
0.42874968 0.11261895 0.02455119
0.4287793 0.11359365 0.02454525
0.42880893 0.11456837 0.02453931
0.42883855 0.11554307 0.024533371
0.42886817 0.11651777 0.024527431
0.42889783 0.11749247 0.024521492
0.42892745 0.11846718 0.024515552
0.4280833 0.11960234 0.024002833
0.42811298 0.12057864 0.023996884
0.42726901 0.12171858 0.023484142
0.42729872 0.12269647 0.023478184
0.4264549 0.1238412 0.022965407
0.42561111 0.12498911 0.022452578
0.42476746 0.12614021 0.021939768
0.41079298 0.050109111 0.014543916
0.41082352 0.051114075 0.014537793
0.4117302 0.0520701 0.015038996
0.41176069 0.053073473 0.015032881
0.41179121 0.054076847 0.015026767
0.41269773 0.055026498 0.015528047
0.41272819 0.05602828 0.015521943
0.41275862 0.057030059 0.015515838
0.41366491 0.05797334 0.016017118
0.41369534 0.058973528 0.016011024
0.41460148 0.059912037 0.01651234
0.41463181 0.060910631 0.016506255
0.41466218 0.061909225 0.016500169
0.41556814 0.062841363 0.017001519
0.41559842 0.063838363 0.016995443
0.41562873 0.06483537 0.016989367
0.41565904 0.065832369 0.016983291
0.41568935 0.066829368 0.016977217
0.41659507 0.067751944 0.017478662
0.41662532 0.068747357 0.017472595
0.41665557 0.069742762 0.01746653
0.41668582 0.070738174 0.017460464
0.41671607 0.071733579 0.017454399
0.41762146 0.072646603 0.017955864
0.41765165 0.073640421 0.017949808
0.41768187 0.074634239 0.017943751
0.41858706 0.075540893 0.018445261
0.41861722 0.076533116 0.018439215
0.41864738 0.07752534 0.018433169
0.41867754 0.078517564 0.018427122
0.41958246 0.079416253 0.018928681
0.41961259 0.080406889 0.018922644
0.41964269 0.081397519 0.018916607
0.42054743 0.082289845 0.019418199
0.4205775 0.08327888 0.019412173
0.42060757 0.084267914 0.019406145
0.42063761 0.085256957 0.019400118
0.42154217 0.086141303 0.019901797
0.42157218 0.087128751 0.019895779
0.42160219 0.088116199 0.019889763
0.4216322 0.089103647 0.019883744
0.42253646 0.089980043 0.020385433
0.42256644 0.090965889 0.020379426
0.42347056 0.09183751 0.02088115
0.42350048 0.092821769 0.020875152
0.42353037 0.093806028 0.020869154
0.4244343 0.094671272 0.021370916
0.42446417 0.095653944 0.021364927
0.42536795 0.096514411 0.021866713
0.42539775 0.097495489 0.021860735
0.42542759 0.098476566 0.021854756
0.42633122 0.099330649 0.022356613
0.42636099 0.10031013 0.022350645
0.42639077 0.10128962 0.022344675
0.42642054 0.1022691 0.022338707
0.42732388 0.10311523 0.022840586
0.42735359 0.10409312 0.022834627
0.42738333 0.10507102 0.022828668
0.42741305 0.1060489 0.022822708
0.42831615 0.10688707 0.023324637
0.42834583 0.10786337 0.023318687
0.42837548 0.10883967 0.023312738
0.42840517 0.10981596 0.023306789
0.42843485 0.11079226 0.02330084
0.4284645 0.11176856 0.02329489
0.42849419 0.11274485 0.023288941
0.4293969 0.11357029 0.023790939
0.42942652 0.114545 0.023785001
0.42945614 0.11551969 0.023779061
0.42861289 0.11665005 0.023265144
0.42864257 0.11762635 0.023259195
0.42867225 0.11860264 0.023253245
0.42870191 0.11957894 0.023247296
0.42785889 0.12071725 0.022733323
0.42701596 0.12185875 0.022219334
0.42704573 0.12283823 0.022213364
0.42620292 0.12398452 0.021699319
0.42536023 0.12513398 0.021185284
0.42451763 0.12628663 0.020671226
0.42454755 0.12727088 0.020665228
0.39032906 0.04805262 0.0015800425
0.40789807 0.049256541 0.011738133
0.41142973 0.050085016 0.013766179
0.41146028 0.05108998 0.013760054
0.41236597 0.052046046 0.014262496
0.41239646 0.053049419 0.014256382
0.41330203 0.054000702 0.01475888
0.41245747 0.055056162 0.014244154
0.41336292 0.05600426 0.014746672
0.41339338 0.057006042 0.014740567
0.41429868 0.05794936 0.01524308
0.41432908 0.058949549 0.015236986
0.41435948 0.059949737 0.015230891
0.41438988 0.060949922 0.015224797
0.41529492 0.061885282 0.015727365
0.41532525 0.062883876 0.01572128
0.41535562 0.06388247 0.015715195
0.41538596 0.064881071 0.01570911
0.41629076 0.06580846 0.01621172
0.41632107 0.066805467 0.016205646
0.41635138 0.067802466 0.01619957
0.41638169 0.068799473 0.016193494
0.416412 0.069796473 0.016187418
0.4164423 0.070793472 0.016181344
0.41734681 0.071709715 0.016684061
0.41737705 0.072705127 0.016677994
0.4174073 0.073700532 0.01667193
0.41743755 0.074695945 0.016665863
0.41834179 0.07560423 0.017168591
0.41837201 0.076598048 0.017162535
0.41840219 0.077591866 0.017156478
0.41930622 0.078493774 0.017659245
0.41933638 0.079485998 0.017653199
0.41936654 0.080478229 0.017647153
0.4193967 0.081470445 0.017641107
0.42030048 0.082364403 0.018143928
0.42033058 0.083355032 0.018137891
0.42036071 0.084345661 0.018131854
0.42126429 0.085233241 0.018634709
0.42129436 0.086222284 0.018628681
0.42132443 0.087211318 0.018622654
0.42222786 0.088092528 0.019125585
0.42225787 0.089079969 0.019119568
0.42228788 0.090067416 0.01911355
0.42231792 0.091054864 0.019107534
0.42322105 0.09192811 0.019610474
0.42325103 0.092913963 0.019604467
0.42415404 0.093782425 0.020107443
0.42418396 0.094766691 0.020101445
0.42421386 0.095750958 0.020095447
0.42511669 0.09661305 0.020598456
0.42514655 0.097595721 0.020592468
0.42517641 0.098578386 0.020586481
0.42607903 0.099434115 0.021089535
0.42610887 0.10041519 0.021083556
0.4270114 0.10126613 0.021586666
0.42704117 0.10224561 0.021580696
0.42707095 0.1032251 0.021574728
0.42710072 0.10420458 0.021568758
0.42800295 0.10504757 0.022071885
0.42803267 0.10602546 0.022065926
0.42806238 0.10700335 0.022059966
0.42809212 0.10798123 0.022054007
0.42812183 0.10895912 0.022048049
0.42902377 0.10979256 0.022551239
0.42905346 0.11076886 0.022545289
0.42908314 0.11174516 0.02253934
0.42911279 0.11272145 0.022533391
0.42914248 0.11369775 0.022527441
0.42917216 0.11467405 0.022521492
0.42920181 0.11565034 0.022515543
0.42923149 0.11662664 0.022509594
0.42926118 0.11760294 0.022503644
0.42841905 0.11873803 0.021988459
0.4284488 0.11971591 0.0219825
0.42760682 0.12085578 0.021467291
0.42763659 0.12183526 0.021461323
0.42679474 0.12297992 0.020946052
0.425953 0.12412775 0.02043079
0.42511138 0.12527877 0.019915514
0.4251413 0.12626302 0.019909516
0.42429981 0.12741882 0.019394204
0.42432979 0.12840468 0.019388197
0.42348844 0.12956524 0.018872861
0.42264715 0.130729 0.018357469
0.41028744 0.049144123 0.011975041
0.41206652 0.05006092 0.012988452
0.41209707 0.051065888 0.012982328
0.41300172 0.052021988 0.013485998
0.41303223 0.053025361 0.013479884
0.41306272 0.054028735 0.01347377
0.41309321 0.055032104 0.013467656
0.41399768 0.055980243 0.013971406
0.41402814 0.056982022 0.013965301
0.4140586 0.057983801 0.013959196
0.4149628 0.058925569 0.01446296
0.4149932 0.059925761 0.014456864
0.41502362 0.060925946 0.01445077
0.41505402 0.06192613 0.014444675
0.41508442 0.062926315 0.01443858
0.41511482 0.063926503 0.014432485
0.41601869 0.064857125 0.01493631
0.41604906 0.065855719 0.014930225
0.4160794 0.066854313 0.014924141
0.41610977 0.067852907 0.014918055
0.41614011 0.068851501 0.01491197
0.41617048 0.069850095 0.014905885
0.41707402 0.070769571 0.015409778
0.41710433 0.07176657 0.015403703
0.41713461 0.07276357 0.015397627
0.41716492 0.073760569 0.015391552
0.41806829 0.074672081 0.015895525
0.41809854 0.075667486 0.01588946
0.41812879 0.076662898 0.015883394
0.41815907 0.077658303 0.015877329
0.41906211 0.07856185 0.016381323
0.41909233 0.079555668 0.016375268
0.41999525 0.080454439 0.016879287
0.42002541 0.081446663 0.01687324
0.42005557 0.082438886 0.016867194
0.42008573 0.08343111 0.016861148
0.42098838 0.084321909 0.017365223
0.42101851 0.085312545 0.017359186
0.42104861 0.086303174 0.017353149
0.42195109 0.087187603 0.017857255
0.42198116 0.088176645 0.017851228
0.42201123 0.089165688 0.017845202
0.4220413 0.090154722 0.017839175
0.42294359 0.091031186 0.018343361
0.4229736 0.092018634 0.018337345
0.42300361 0.093006082 0.018331327
0.42390564 0.093876176 0.018835522
0.42393562 0.094862029 0.018829513
0.42483753 0.095727354 0.019333743
0.42486742 0.096711613 0.019327745
0.42489734 0.097695872 0.019321747
0.42579907 0.098554827 0.01982601
0.42582893 0.099537492 0.019820021
0.4258588 0.10052016 0.019814033
0.42588866 0.10150284 0.019808045
0.42679015 0.10235382 0.020312356
0.42681995 0.1033349 0.020306377
0.42772132 0.1041811 0.020810755
0.42775109 0.10516058 0.020804785
0.42778087 0.10614006 0.020798817
0.42781064 0.10711955 0.020792847
0.42784041 0.10809902 0.02078688
0.42874146 0.10893568 0.021291276
0.42877117 0.10991357 0.021285318
0.42880088 0.11089146 0.021279359
0.42883062 0.11186935 0.021273401
0.42886034 0.11284724 0.021267442
0.42976108 0.11367434 0.021771897
0.42979077 0.11465064 0.021765947
0.42982042 0.11562693 0.021759998
0.4298501 0.11660323 0.021754049
0.42900896 0.11773669 0.021237647
0.42903867 0.11871458 0.021231687
0.42819768 0.11985282 0.020715255
0.42822745 0.12083229 0.020709286
0.42738655 0.12197532 0.020192787
0.42654577 0.12312152 0.019676307
0.42657563 0.12410419 0.019670319
0.42573503 0.12525517 0.019153809
0.42489451 0.12640934 0.018637273
0.42492446 0.12739518 0.018631266
0.4240841 0.12855412 0.018114707
0.42411411 0.12954156 0.01810869
0.42327383 0.1307053 0.017592071
0.4233039 0.13169433 0.017586043
0.42333397 0.13268337 0.017580017
0.39601782 0.047798295 0.0025203452
0.41092625 0.049119953 0.011194842
0.4118301 0.050082464 0.011699706
0.41186067 0.051089022 0.011693573
0.41276437 0.052046757 0.012198466
0.41366798 0.053001307 0.012703385
0.41369846 0.054004677 0.012697271
0.41372898 0.05500805 0.012691156
0.41375947 0.056011423 0.012685042
0.41378999 0.057014797 0.012678928
0.41469333 0.057959784 0.013183931
0.41472378 0.058961563 0.013177827
0.41475424 0.059963346 0.013171722
0.4147847 0.060965121 0.013165617
0.41481513 0.061966904 0.013159513
0.41571817 0.062902339 0.013664543
0.41574857 0.063902527 0.013658447
0.41577896 0.064902715 0.013652353
0.41580936 0.065902896 0.013646258
0.41583976 0.066903085 0.013640163
0.41587016 0.067903273 0.013634068
0.41677284 0.068827562 0.014139165
0.41680321 0.069826156 0.01413308
0.41683355 0.07082475 0.014126995
0.41686392 0.071823344 0.014120909
0.41689426 0.072821938 0.014114825
0.41779664 0.073736668 0.01461998
0.41782695 0.074733667 0.014613905
0.41785726 0.075730674 0.014607829
0.41788757 0.076727673 0.014601754
0.41878977 0.077634439 0.01510699
0.41882002 0.078629851 0.015100924
0.41885027 0.079625256 0.015094859
0.41975224 0.080525659 0.015600101
0.41978246 0.081519477 0.015594046
0.41981265 0.082513288 0.015587989
0.42071441 0.08340732 0.016093276
0.42074457 0.084399544 0.01608723
0.42077473 0.085391767 0.016081184
0.42167631 0.086279422 0.016586505
0.42170641 0.087270051 0.016580468
0.42173654 0.088260688 0.016574431
0.42176664 0.089251317 0.016568394
0.42266798 0.090131015 0.017073764
0.42269802 0.091120049 0.017067738
0.42359927 0.091994956 0.017573167
0.42362928 0.092982404 0.01756715
0.42365929 0.093969844 0.017561132
0.42456028 0.094838396 0.01806657
0.42459026 0.095824249 0.018060563
0.42462021 0.096810102 0.018054554
0.42552102 0.097672276 0.018560037
0.42555094 0.098656535 0.018554039
0.42558083 0.099640802 0.018548042
0.42561075 0.10062505 0.018542044
0.42651132 0.10147927 0.019047568
0.42654118 0.10246193 0.019041579
0.42657104 0.10344461 0.019035591
0.4274714 0.10429244 0.019541154
0.42750123 0.10527352 0.019535176
0.42753106 0.1062546 0.019529197
0.42843127 0.10709606 0.020034831
0.42846105 0.10807554 0.020028863
0.42849082 0.10905502 0.020022895
0.42852059 0.1100345 0.020016925
0.4294205 0.11086802 0.020522576
0.42945024 0.11184591 0.020516617
0.42947996 0.1128238 0.020510659
0.42950967 0.11380169 0.0205047
0.42953941 0.11477958 0.02049874
0.42956913 0.11575746 0.020492781
0.42959884 0.11673535 0.020486822
0.42962858 0.11771324 0.020480864
0.42965829 0.11869113 0.020474905
0.42881832 0.11982933 0.019957239
0.42884809 0.12080881 0.019951271
0.42800817 0.1219518 0.019433543
0.42716843 0.12309796 0.018915828
0.42719829 0.12408063 0.018909842
0.42635867 0.12523156 0.018392097
0.42638859 0.12621583 0.018386099
0.42554915 0.12737155 0.017868321
0.4255791 0.1283574 0.017862314
0.42473978 0.12951788 0.017344512
0.42476979 0.13050534 0.017338496
0.42393059 0.13167062 0.016820634
0.42396066 0.13265966 0.016814606
0.39667377 0.047773473 0.0017191916
0.41156504 0.049095783 0.010414643
0.41246787 0.050058331 0.010920741
0.41249847 0.05106489 0.010914607
0.41340116 0.052022662 0.011420734
0.4134317 0.053027626 0.01141461
0.41346225 0.05403259 0.011408486
0.41436476 0.054983992 0.011914652
0.41439524 0.055987369 0.011908538
0.41442573 0.056990739 0.011902424
0.41445625 0.057994109 0.011896309
0.41448674 0.058997482 0.011890194
0.41451722 0.060000855 0.01188408
0.41454774 0.061004229 0.011877966
0.41544989 0.061942883 0.012384241
0.41548035 0.062944666 0.012378137
0.4155108 0.063946441 0.012372033
0.41554123 0.064948224 0.012365928
0.41557169 0.065949999 0.012359823
0.41647351 0.066879109 0.012866125
0.41650391 0.067879297 0.01286003
0.4165343 0.068879478 0.012853935
0.4165647 0.069879666 0.01284784
0.4165951 0.070879854 0.012841745
0.41749665 0.071799405 0.013348105
0.41752699 0.072797999 0.01334202
0.41755736 0.073796593 0.013335935
0.4175877 0.074795187 0.01332985
0.41848898 0.075706773 0.013836258
0.41851929 0.076703772 0.013830183
0.4185496 0.077700771 0.013824107
0.41857991 0.078697778 0.013818032
0.41948101 0.079601392 0.014324521
0.41951126 0.080596805 0.014318455
0.41954151 0.08159221 0.014312389
0.41957176 0.082587622 0.014306324
0.42047256 0.083483279 0.014812829
0.42050278 0.084477097 0.014806773
0.42140344 0.085367978 0.015313307
0.4214336 0.086360194 0.015307261
0.42146376 0.087352425 0.015301215
0.42236423 0.088236935 0.015807787
0.42239434 0.089227565 0.015801752
0.42242444 0.090218201 0.015795715
0.4233247 0.091096334 0.016302327
0.42335477 0.092085376 0.016296299
0.42338485 0.093074411 0.016290274
0.42428496 0.093946174 0.016796956
0.42431498 0.094933622 0.016790939
0.42434499 0.095921069 0.016784921
0.42524487 0.096786469 0.017291611
0.42527485 0.097772323 0.017285604
0.4253048 0.098758169 0.017279597
0.42533478 0.099744022 0.017273588
0.42623442 0.10060146 0.017780326
0.42626435 0.10158572 0.017774329
0.42629424 0.10256998 0.017768331
0.4271937 0.10342105 0.018275108
0.42722356 0.10440371 0.01826912
0.42725343 0.10538638 0.018263131
0.42728332 0.10636905 0.018257145
0.42818251 0.10721216 0.018763976
0.42821231 0.10819323 0.018757997
0.42824215 0.1091743 0.018752018
0.42914122 0.11001102 0.019258909
0.429171 0.11099051 0.019252941
0.42920077 0.11196999 0.019246971
0.42923054 0.11294947 0.019241003
0.43012929 0.11377824 0.019747917
0.43015903 0.11475614 0.019741958
0.43018875 0.11573402 0.019735998
0.43021846 0.11671191 0.019730039
0.4302482 0.1176898 0.01972408
0.42940915 0.11882637 0.01920519
0.42943892 0.11980585 0.019199222
0.42859998 0.1209472 0.018680278
0.42862982 0.12192827 0.018674299
0.42779106 0.1230744 0.018155346
0.42782095 0.12405707 0.018149357
0.42698234 0.12520798 0.017630382
0.42614383 0.12636206 0.017111385
0.42617381 0.12734792 0.017105378
0.42620376 0.12833376 0.017099371
0.42623374 0.12931961 0.017093362
0.42539549 0.13048166 0.016574319
0.4254255 0.13146912 0.016568301
0.42545551 0.13245656 0.016562285
0.39907244 0.047667082 0.0019449665
0.41133258 0.049115583 0.0091209859
0.41223446 0.050079763 0.0096283071
0.41226509 0.051087912 0.0096221631
0.41403791 0.051998567 0.010643008
0.41406846 0.053003535 0.010636884
0.41409901 0.054008499 0.01063076
0.41412956 0.055013463 0.010624636
0.4141601 0.056018427 0.010618512
0.41419065 0.057023391 0.010612388
0.4142212 0.058028359 0.010606264
0.41512248 0.058973424 0.011113701
0.415153 0.059976801 0.011107587
0.41518348 0.060980171 0.011101473
0.41521397 0.061983544 0.011095359
0.41524449 0.062986918 0.011089245
0.41527498 0.063990287 0.011083131
0.41530547 0.064993665 0.011077017
0.41533598 0.065997034 0.011070902
0.41623691 0.066927761 0.011578454
0.41626734 0.067929544 0.011572349
0.41629779 0.068931319 0.011566244
0.41632825 0.069933102 0.011560139
0.41722885 0.070855871 0.012067714
0.41725925 0.071856059 0.012061618
0.41728967 0.072856247 0.012055524
0.41732007 0.073856436 0.012049429
0.41822043 0.07477124 0.012557051
0.4182508 0.075769842 0.012550966
0.41828114 0.076768436 0.012544881
0.41831151 0.077767029 0.012538795
0.41921163 0.078673869 0.013046466
0.41924194 0.079670876 0.013040391
0.41927224 0.080667876 0.013034315
0.41930255 0.081664875 0.01302824
0.41933283 0.082661882 0.013022165
0.42023274 0.083559163 0.013529926
0.42026299 0.084554568 0.01352386
0.42116269 0.08544708 0.014031618
0.42119288 0.086440898 0.014025562
0.42209244 0.087328635 0.014533349
0.4221226 0.088320859 0.014527302
0.42215276 0.089313082 0.014521256
0.42305213 0.090194449 0.015029082
0.42308223 0.091185078 0.015023045
0.42311236 0.092175707 0.015017009
0.4240115 0.093050703 0.015524874
0.42404157 0.094039738 0.015518847
0.42407164 0.095028773 0.01551282
0.42497066 0.095897399 0.016020751
0.42500067 0.096884839 0.016014732
0.42503068 0.097872287 0.016008716
0.42592946 0.098734535 0.016516658
0.42595944 0.099720389 0.016510651
0.42598939 0.10070624 0.016504643
0.42601937 0.10169209 0.016498635
0.42691791 0.10254639 0.017006626
0.42694783 0.10353065 0.017000629
0.42697772 0.1045149 0.016994631
0.42700765 0.10549916 0.016988633
0.42790595 0.10634549 0.017496673
0.42793581 0.10732815 0.017490685
0.42796567 0.10831083 0.017484697
0.42886379 0.10915078 0.017992774
0.4288936 0.11013185 0.017986797
0.42892343 0.11111294 0.017980818
0.42982137 0.11194651 0.018488968
0.42985114 0.11292598 0.018482998
0.42988092 0.11390547 0.01847703
0.42991069 0.11488496 0.01847106
0.42994046 0.11586443 0.018465092
0.42997023 0.11684392 0.018459124
0.43000001 0.1178234 0.018453155
0.43002978 0.11880288 0.018447187
0.43005955 0.11978237 0.018441217
0.43008932 0.12076185 0.018435249
0.42925143 0.12190475 0.017915055
0.42841372 0.12305084 0.017394874
0.42844358 0.12403351 0.017388886
0.42760599 0.12518437 0.016868677
0.42763591 0.12616864 0.016862679
0.42679846 0.12732427 0.016342441
0.42769575 0.12813716 0.016850684
0.4268584 0.12929597 0.016330425
0.42688835 0.13028184 0.016324418
0.42691833 0.1312677 0.016318411
0.42694828 0.13225353 0.016312402
0.42697826 0.1332394 0.016306395
0.40059668 0.047601596 0.0016609583
0.4128426 0.04904744 0.0088542514
0.41287324 0.050055593 0.0088481084
0.4129039 0.051063742 0.0088419644
0.41380462 0.052023184 0.0093505485
0.4138352 0.053029742 0.0093444148
0.4138658 0.054036297 0.0093382811
0.41389641 0.055042855 0.0093321474
0.41479689 0.055994336 0.0098407743
0.41482744 0.0569993 0.00983465
0.41485798 0.058004264 0.0098285265
0.41488853 0.059009228 0.0098224021
0.41491908 0.060014196 0.0098162778
0.41494963 0.06101916 0.0098101543
0.41498017 0.062024124 0.0098040299
0.41501072 0.063029088 0.0097979065
0.41591075 0.06396623 0.010306626
0.41594124 0.064969607 0.010300511
0.41597176 0.065972976 0.010294397
0.41600224 0.066976346 0.010288283
0.41603273 0.067979723 0.010282169
0.41606325 0.068983093 0.010276055
0.41696298 0.069909081 0.010784874
0.41699344 0.070910864 0.01077877
0.4170239 0.071912646 0.010772665
0.41792339 0.072832264 0.011281491
0.41795382 0.073832452 0.011275397
0.41798422 0.074832641 0.011269302
0.41801462 0.075832829 0.011263207
0.41804501 0.076833017 0.011257112
0.41894424 0.077743083 0.011765991
0.41897458 0.078741677 0.011759906
0.41900495 0.079740271 0.011753821
0.41903529 0.080738872 0.011747736
0.41993427 0.081640974 0.012256669
0.41996458 0.082637973 0.012250593
0.41999489 0.08363498 0.012244518
0.42002517 0.084631979 0.012238442
0.42092398 0.085526116 0.012747456
0.42095423 0.086521529 0.012741391
0.42185283 0.08741089 0.013250401
0.42188302 0.088404708 0.013244345
0.42278147 0.089289293 0.013753379
0.42281163 0.090281516 0.013747333
0.42284179 0.09127374 0.013741286
0.42374003 0.092151955 0.014250365
0.42377016 0.093142591 0.014244328
0.42380026 0.094133221 0.014238292
0.42469832 0.095005065 0.014747409
0.42472839 0.095994107 0.014741383
0.42562634 0.096861169 0.015250562
0.42565635 0.097848609 0.015244544
0.42568639 0.098836057 0.015238527
0.4257164 0.099823497 0.01523251
0.42661408 0.10068261 0.015741698
0.42664403 0.10166845 0.015735691
0.42667401 0.10265431 0.015729684
0.42670396 0.10364017 0.015723677
0.42673391 0.10462601 0.015717668
0.42763132 0.10547557 0.016226923
0.42766121 0.10645983 0.016220925
0.42769113 0.10744409 0.016214928
0.42858833 0.10828727 0.01672422
0.42861819 0.10926993 0.016718231
0.42864805 0.1102526 0.016712243
0.42867795 0.11123527 0.016706254
0.42957488 0.11207049 0.017215597
0.42960471 0.11305156 0.017209617
0.43050155 0.11388199 0.017719014
0.43053132 0.11486147 0.017713046
0.4305611 0.11584096 0.017707076
0.43059087 0.11682043 0.017701108
0.43062064 0.11779992 0.017695138
0.43065041 0.1187794 0.01768917
0.43068019 0.11975888 0.017683201
0.42984325 0.12090016 0.01716179
0.42987308 0.12188123 0.017155811
0.42990291 0.12286231 0.017149834
0.42906621 0.12400995 0.016628409
0.4290961 0.12499262 0.016622422
0.42825955 0.12614504 0.016100969
0.42828947 0.1271293 0.016094971
0.42831939 0.12811355 0.016088974
0.42748305 0.12927234 0.015567482
0.42837924 0.13008207 0.016076976
0.42754298 0.13124406 0.015555467
0.42757297 0.13222989 0.015549459
0.42760292 0.13321576 0.015543451
0.42246702 0.13629197 0.012438103
0.40124959 0.047576889 0.00086351042
0.41261217 0.049067166 0.0075581274
0.41264287 0.050076906 0.0075519742
0.41354269 0.051039573 0.0080617722
0.41444239 0.051999051 0.0085715828
0.414473 0.05300561 0.0085654492
0.41450357 0.054012164 0.0085593155
0.41453418 0.055018723 0.0085531818
0.41456479 0.056025282 0.0085470481
0.41459537 0.05703184 0.0085409144
0.41462597 0.058038395 0.0085347807
0.41465655 0.059044953 0.008528647
0.41468716 0.060051512 0.0085225133
0.41471776 0.061058071 0.0085163796
0.41561693 0.062000029 0.0090263039
0.41564748 0.063004993 0.0090201795
0.41567802 0.064009957 0.0090140561
0.41570857 0.065014921 0.0090079317
0.41573912 0.066019893 0.0090018082
0.41576967 0.067024849 0.0089956839
0.4166685 0.067955665 0.0095056761
0.41669899 0.068959035 0.009499562
0.41672948 0.069962412 0.0094934469
0.41676 0.070965782 0.0094873328
0.41679049 0.071969159 0.0094812186
0.41768909 0.072890408 0.0099912947
0.41771954 0.073892184 0.0099851908
0.41775 0.074893966 0.009979086
0.41864836 0.075808845 0.010489175
0.41867876 0.076809034 0.01048308
0.41870916 0.077809222 0.010476985
0.41873956 0.07880941 0.01047089
0.41876996 0.079809599 0.010464795
0.41966802 0.080714926 0.010974943
0.41969836 0.081713527 0.010968857
0.41972873 0.082712121 0.010962772
0.41975906 0.083710708 0.010956687
0.42065689 0.084608078 0.011466877
0.4206872 0.085605077 0.011460802
0.42071751 0.086602077 0.011454726
0.42161518 0.087493069 0.011964993
0.42164546 0.088488482 0.011958927
0.42167571 0.089483887 0.011952861
0.42257315 0.090368517 0.012463128
0.4234705 0.091249958 0.012973421
0.42350066 0.092242174 0.012967374
0.42353079 0.093234397 0.012961328
0.42442796 0.094109468 0.01347166
0.42445806 0.095100097 0.013465623
0.42535508 0.095970392 0.013975978
0.42538512 0.096959427 0.013969951
0.42541519 0.097948469 0.013963924
0.42544526 0.098937504 0.013957897
0.42634207 0.099799827 0.014468338
0.42637208 0.10078727 0.014462321
0.42640209 0.10177472 0.014456304
0.4264321 0.10276216 0.014450287
0.42732862 0.10361654 0.014960744
0.42735857 0.10460238 0.014954736
0.42738855 0.10558823 0.014948729
0.4274185 0.10657409 0.014942721
0.42831478 0.10742049 0.015453222
0.4283447 0.10840476 0.015447224
0.42837462 0.10938901 0.015441227
0.42927071 0.11022905 0.015951771
0.42930058 0.11121171 0.015945783
0.42933044 0.11219438 0.015939794
0.43022633 0.11302803 0.016450379
0.43025616 0.11400911 0.0164444
0.43028596 0.1149902 0.016438423
0.43031579 0.11597126 0.016432444
0.43034559 0.11695234 0.016426466
0.43124127 0.11777643 0.016937135
0.43040526 0.11891449 0.016414508
0.43043506 0.11989556 0.016408531
0.43046489 0.12087664 0.016402552
0.4304947 0.12185771 0.016396573
0.43052453 0.12283879 0.016390596
0.42968887 0.12398639 0.015867937
0.42971873 0.12496906 0.015861951
0.42974859 0.12595172 0.015855962
0.42977846 0.12693439 0.015849974
0.42894304 0.12808996 0.015327268
0.42983821 0.12889972 0.015837997
0.42900288 0.13005848 0.015315273
0.4290328 0.13104273 0.015309274
0.42906272 0.132027 0.015303276
0.42822757 0.13319212 0.014780519
0.4265275 0.13454288 0.013740928
0.42309773 0.13626811 0.01166777
0.41151553 0.049130667 0.0057423394
0.41241446 0.050098147 0.0062533412
0.41244522 0.051109485 0.0062471787
0.41334406 0.052072182 0.0067582359
0.41424274 0.053031702 0.0072692866
0.41427341 0.054039851 0.0072631431
0.41430405 0.055048 0.0072569996
0.41433468 0.056056153 0.0072508561
0.41436532 0.057064302 0.0072447127
0.41526374 0.058014262 0.0077558155
0.41529435 0.059020821 0.0077496818
0.41532493 0.06002738 0.0077435481
0.41535553 0.061033938 0.0077374144
0.41538614 0.062040493 0.0077312808
0.41541672 0.063047051 0.0077251471
0.41544732 0.06405361 0.0077190134
0.4154779 0.065060169 0.0077128797
0.41637588 0.065995798 0.0082240757
0.41640642 0.067000762 0.0082179522
0.41643697 0.068005726 0.0082118278
0.41646752 0.06901069 0.0082057044
0.41649806 0.070015654 0.00819958
0.41739577 0.070941724 0.0087108286
0.41742626 0.071945101 0.0087047145
0.41745675 0.072948471 0.0086985994
0.41748726 0.07395184 0.0086924853
0.41751775 0.07495521 0.0086863711
0.41841519 0.075871728 0.0091977157
0.41844565 0.076873504 0.0091916109
0.4184761 0.077875286 0.009185507
0.4193733 0.078785427 0.0096968524
0.4194037 0.079785615 0.0096907569
0.4194341 0.080785811 0.0096846623
0.4194645 0.081785992 0.0096785678
0.4194949 0.08278618 0.0096724732
0.42039183 0.083686769 0.010183882
0.42042217 0.084685363 0.010177797
0.42045251 0.085683957 0.010171712
0.42134923 0.086578175 0.010683155
0.42137954 0.087575175 0.010677079
0.42140985 0.088572182 0.010671004
0.42230642 0.089460023 0.011182522
0.42233667 0.090455435 0.011176457
0.42323306 0.0913385 0.011687968
0.42326328 0.092332318 0.011681912
0.4241595 0.093210608 0.012193457
0.42418966 0.094202831 0.01218741
0.42508575 0.095076345 0.012698979
0.42511585 0.096066982 0.012692942
0.42514598 0.097057611 0.012686906
0.42517608 0.098048247 0.01268087
0.42607194 0.098913789 0.013192493
0.42610198 0.099902838 0.013186466
0.42613205 0.10089187 0.013180438
0.42616212 0.10188091 0.013174412
0.42705777 0.10273848 0.013686109
0.42708778 0.10372594 0.013680092
0.42711779 0.10471338 0.013674075
0.42801321 0.1055646 0.014185785
0.42804319 0.10655045 0.014179778
0.42807314 0.10753631 0.01417377
0.42810312 0.10852215 0.014167763
0.42899829 0.10936541 0.014679516
0.42902818 0.11034967 0.014673518
0.4290581 0.11133394 0.01466752
0.4299531 0.11217082 0.015179318
0.42998296 0.11315349 0.01517333
0.43001282 0.11413615 0.015167342
0.43004268 0.11511882 0.015161354
0.43093744 0.11594774 0.015673194
0.43096724 0.11692882 0.015667215
0.43099707 0.11790989 0.015661238
0.43102688 0.11889096 0.015655259
0.43105671 0.11987204 0.015649281
0.43108654 0.12085312 0.015643302
0.43111634 0.12183419 0.015637323
0.43114617 0.12281527 0.015631346
0.43117598 0.12379634 0.015625367
0.43034136 0.1249455 0.015101473
0.43037125 0.12592816 0.015095484
0.43040112 0.12691084 0.015089497
0.43043098 0.12789351 0.015083509
0.43046084 0.12887616 0.01507752
0.43049073 0.12985884 0.015071532
0.43052059 0.13084151 0.015065544
0.42968637 0.1320034 0.014541566
0.42885223 0.13316849 0.014017574
0.42715415 0.13451917 0.012975523
0.42286444 0.13642827 0.010379381
0.40692303 0.048346803 0.0018542861
0.41042295 0.049194016 0.003921662
0.41218811 0.050119311 0.0049522799
0.413086 0.051085237 0.0054645189
0.41398385 0.052047975 0.0059768097
0.41401455 0.053057719 0.0059706564
0.41404524 0.054067463 0.0059645036
0.41407594 0.055077203 0.0059583504
0.41497347 0.056031983 0.006470663
0.4150041 0.057040133 0.00646452
0.41503477 0.058048282 0.0064583765
0.41506541 0.059056431 0.0064522331
0.41509604 0.060064584 0.0064460896
0.41512668 0.061072733 0.0064399461
0.41515735 0.062080882 0.0064338027
0.41518798 0.063089035 0.0064276597
0.41608509 0.064029478 0.0069400538
0.4161157 0.065036036 0.0069339201
0.41614628 0.066042595 0.0069277864
0.41617689 0.067049146 0.0069216527
0.41620746 0.068055704 0.006915519
0.4171043 0.068986595 0.0074279774
0.41713485 0.069991559 0.0074218535
0.41716537 0.070996523 0.0074157296
0.41719592 0.072001494 0.0074096057
0.41809252 0.07292442 0.0079221064
0.41812301 0.073927782 0.0079159923
0.41815349 0.07493116 0.0079098782
0.41818401 0.075934529 0.007903764
0.4182145 0.076937906 0.0078976499
0.41824499 0.077941276 0.0078915358
0.41914129 0.078853048 0.0084041366
0.41917175 0.079854824 0.0083980318
0.41920221 0.080856606 0.0083919279
0.41923264 0.081858389 0.0083858231
0.42012864 0.082762204 0.0088984463
0.42015904 0.083762385 0.0088923518
0.42018944 0.084762573 0.0088862563
0.42021984 0.085762762 0.0088801617
0.42111561 0.086658604 0.0093928277
0.42114595 0.087657198 0.0093867425
0.42204157 0.08854828 0.0098994384
0.42207187 0.08954528 0.0098933624
0.42210218 0.090542279 0.0098872874
0.42299765 0.091426976 0.010400053
0.4230279 0.092422388 0.010393987
0.42392316 0.093302302 0.010906757
0.42481837 0.094179042 0.011419539
0.42484853 0.095171265 0.011413493
0.42487869 0.096163496 0.011407446
0.42490885 0.09715572 0.0114014
0.42580378 0.098024495 0.011914237
0.42583388 0.099015124 0.011908201
0.42586398 0.10000575 0.011902164
0.42675874 0.10086816 0.012415034
0.42678881 0.10185719 0.012409007
0.42681885 0.10284624 0.01240298
0.42684892 0.10383528 0.012396953
0.42774346 0.10468971 0.012909904
0.42777348 0.10567716 0.012903887
0.42780349 0.1066646 0.01289787
0.4278335 0.10765205 0.012891852
0.42872778 0.10849852 0.013404825
0.42875773 0.10948437 0.013398818
0.42878771 0.11047023 0.01339281
0.42968175 0.11131034 0.013905816
0.42971167 0.1122946 0.013899818
0.42974159 0.11327886 0.01389382
0.43063548 0.11411259 0.014406865
0.43066534 0.11509527 0.014400877
0.43069521 0.11607793 0.014394889
0.43072507 0.1170606 0.0143889
0.43161869 0.11788637 0.014901999
0.43164852 0.11886745 0.014896021
0.43167832 0.11984852 0.014890042
0.43170816 0.1208296 0.014884064
0.43173799 0.12181067 0.014878086
0.43176779 0.12279174 0.014872108
0.43179762 0.12377282 0.014866129
0.43182743 0.12475389 0.01486015
0.43185726 0.12573497 0.014854172
0.43102375 0.12688728 0.014329019
0.43105364 0.12786995 0.014323032
0.4310835 0.12885261 0.014317043
0.43111336 0.12983528 0.014311055
0.43114322 0.13081795 0.014305067
0.43117309 0.13180061 0.014299079
0.42947689 0.13314486 0.013254637
0.42691785 0.13467784 0.011690882
0.42263323 0.13658834 0.0090885703
0.40234205 0.047543366 -0.0020484566
0.40670466 0.048364475 0.0005433716
0.41020054 0.049213436 0.0026156392
0.41196379 0.050140396 0.0036487461
0.41286072 0.051107954 0.0041622086
0.41375756 0.052072328 0.004675691
0.41378829 0.053083662 0.004669528
0.41381904 0.054094996 0.0046633654
0.41384977 0.055106331 0.0046572024
0.41474643 0.056062739 0.0051707653
0.4147771 0.057072479 0.0051646121
0.4148078 0.058082223 0.0051584588
0.41483849 0.059091967 0.0051523061
0.41486919 0.06010171 0.0051461528
0.41576549 0.06104856 0.0056597474
0.41579613 0.062056713 0.0056536039
0.41582677 0.063064858 0.0056474609
0.4158574 0.064073011 0.0056413175
0.41588804 0.065081164 0.005635174
0.41591871 0.06608931 0.0056290305
0.41681466 0.067025013 0.0061426875
0.41684526 0.068031572 0.0061365538
0.41687584 0.06903813 0.0061304201
0.41690645 0.070044689 0.0061242864
0.41780216 0.070972428 0.0066379919
0.4178327 0.071977399 0.006631868
0.41786325 0.072982363 0.006625744
0.4178938 0.073987328 0.0066196197
0.41792434 0.074992292 0.0066134958
0.41881979 0.075910479 0.0071272594
0.41885027 0.076913849 0.0071211453
0.41888076 0.077917218 0.0071150311
0.41891128 0.078920595 0.0071089165
0.41894177 0.079923965 0.0071028024
0.41897225 0.080927342 0.0070966883
0.41900277 0.081930712 0.0070905737
0.41989785 0.082836151 0.0076044472
0.41992831 0.083837926 0.0075983424
0.41995874 0.084839709 0.007592238
0.42085359 0.085738778 0.0081061237
0.42088398 0.086738966 0.0081000291
0.42091438 0.087739155 0.0080939345
0.42180905 0.088631861 0.0086078532
0.42183939 0.089630455 0.0086017679
0.4227339 0.090518378 0.0091157155
0.42276421 0.091515377 0.0091096405
0.42365864 0.092398517 0.0096236495
0.42368889 0.093393929 0.0096175838
0.42371914 0.094389334 0.0096115181
0.4246133 0.095266111 0.01012554
0.42550737 0.096139707 0.010639575
0.42553753 0.09713193 0.010633529
0.42556769 0.098124154 0.010627483
0.42559785 0.099116378 0.010621436
0.42649168 0.099982001 0.01113552
0.42652178 0.10097263 0.011129484
0.42655191 0.10196326 0.011123447
0.42744553 0.10282252 0.011637569
0.4274756 0.10381156 0.011631543
0.42750567 0.1048006 0.011625515
0.42753571 0.10578964 0.011619489
0.42842916 0.10664093 0.012133692
0.4284592 0.10762837 0.012127675
0.42848921 0.10861581 0.012121658
0.42851922 0.10960326 0.012115641
0.42941236 0.11044659 0.012629866
0.42944232 0.11143245 0.012623859
0.43033534 0.112271 0.013138107
0.43036526 0.11325526 0.013132109
0.43039516 0.11423952 0.013126112
0.43042508 0.11522379 0.013120114
0.43131784 0.11605437 0.013634412
0.43134773 0.11703704 0.013628423
0.43137759 0.1180197 0.013622435
0.43140745 0.11900237 0.013616447
0.43143731 0.11998504 0.013610459
0.4323298 0.12080608 0.014124814
0.43235961 0.12178715 0.014118836
0.43238944 0.12276822 0.014112858
0.43241927 0.1237493 0.014106879
0.43244907 0.12473037 0.014100901
0.4324789 0.12571146 0.014094923
0.43250871 0.12669252 0.014088945
0.43253854 0.12767361 0.014082965
0.43256837 0.12865467 0.014076987
0.43173602 0.12981172 0.013550578
0.43176588 0.13079439 0.013544589
0.43179575 0.13177705 0.013538602
0.43010157 0.13312122 0.012491693
0.42668357 0.13483642 0.010403768
0.42240405 0.13674831 0.0077952859
0.402996 0.047518622 -0.0028471376
0.40648827 0.048382074 -0.00077002414
0.40998021 0.049232777 0.0013071933
0.4117415 0.050161406 0.0023427512
0.41263747 0.051130597 0.0028574376
0.41353333 0.052096598 0.0033721433
0.41356412 0.053109527 0.0033659709
0.41445985 0.054070752 0.0038807115
0.41449058 0.055082086 0.0038745487
0.41452134 0.056093421 0.0038683859
0.41455206 0.057104755 0.0038622231
0.41458279 0.058116093 0.0038560603
0.41461354 0.059127428 0.0038498975
0.41464427 0.060138766 0.0038437347
0.41553968 0.061087243 0.0043585734
0.41557038 0.062096987 0.0043524206
0.41560104 0.063106731 0.0043462673
0.41649619 0.064048842 0.0048611243
0.41652685 0.065056995 0.0048549809
0.41655749 0.06606514 0.0048488379
0.41658813 0.067073293 0.0048426944
0.41661876 0.068081446 0.0048365509
0.41751364 0.069014005 0.0053514605
0.41754422 0.070020556 0.0053453268
0.41757482 0.071027115 0.0053391932
