# .PCD v0.7 - Point Cloud Data file format
VERSION 0.7
FIELDS x y z
SIZE 4 4 4
TYPE F F F
COUNT 1 1 1
WIDTH 1373
HEIGHT 1
VIEWPOINT 0 0 0 1 0 0 0
POINTS 1373
DATA ascii
0.4646478 0.074601114 0.02059616
0.46467617 0.075534411 0.020590471
0.46385303 0.076561958 0.020048821
0.46388143 0.077496842 0.020043124
0.46390986 0.078431733 0.020037428
0.46393827 0.079366617 0.02003173
0.4639667 0.080301508 0.020026034
0.4639951 0.081236392 0.020020336
0.46402353 0.082171284 0.02001464
0.46405193 0.083106168 0.020008942
0.46408036 0.084041059 0.020003246
0.46410877 0.08497595 0.019997548
0.4641372 0.085910834 0.019991852
0.4641656 0.086845726 0.019986155
0.464194 0.08778061 0.019980459
0.46422243 0.088715501 0.019974761
0.46340001 0.089766935 0.019432971
0.46342847 0.090703413 0.019427264
0.46345693 0.091639899 0.019421557
0.46348539 0.092576377 0.01941585
0.46351385 0.093512855 0.019410145
0.46354231 0.094449334 0.019404437
0.4635708 0.095385812 0.01939873
0.46359926 0.096322298 0.019393023
0.46362773 0.097258776 0.019387318
0.46365619 0.098195262 0.019381611
0.46368465 0.099131741 0.019375904
0.46286276 0.10020229 0.018833959
0.46289128 0.10114037 0.018828243
0.46291977 0.10207844 0.018822527
0.46294829 0.10301651 0.01881681
0.4621267 0.10409502 0.018274855
0.46215525 0.10503468 0.018269129
0.4621838 0.10597435 0.018263401
0.46221238 0.10691401 0.018257676
0.46139103 0.10800049 0.017715666
0.46141964 0.10894173 0.017709931
0.46059841 0.11003299 0.017167898
0.46062708 0.11097584 0.017162152
0.45980594 0.11207187 0.016620051
0.45898497 0.11317109 0.016077971
0.45901373 0.11411712 0.016072206
0.45819288 0.11522112 0.015530095
0.45737216 0.11632828 0.014987959
0.45655152 0.11743864 0.014445809
0.45239145 0.12112068 0.011746373
0.4537001 0.031860296 0.013694678
0.45458186 0.032793351 0.014225647
0.4554635 0.033723217 0.014756598
0.45719773 0.034627359 0.015824327
0.45722649 0.035573397 0.015818562
0.45810783 0.036493707 0.016349571
0.45813656 0.03743815 0.016343817
0.45901778 0.038353682 0.016874887
0.45989889 0.039266031 0.01740595
0.4599275 0.040207289 0.017400214
0.46080849 0.041114859 0.017931299
0.46083704 0.042054527 0.017925574
0.46171784 0.042957321 0.01845669
0.46174636 0.043895394 0.018450974
0.46262708 0.044793405 0.018982155
0.46265554 0.045729887 0.01897645
0.46268401 0.046666365 0.018970743
0.46356449 0.04755801 0.019501926
0.46359289 0.048492897 0.019496229
0.46362132 0.049427785 0.019490533
0.46364972 0.050362676 0.019484835
0.46367815 0.051297564 0.019479139
0.46455833 0.052179649 0.02001038
0.4645867 0.053112946 0.020004693
0.46461508 0.054046243 0.019999005
0.46464345 0.054979537 0.019993318
0.46467182 0.05591283 0.019987632
0.46470016 0.056846131 0.019981943
0.46472853 0.057779424 0.019976256
0.46475691 0.058712717 0.01997057
0.46478528 0.059646014 0.019964881
0.46481365 0.060579311 0.019959195
0.46484202 0.061512604 0.019953508
0.46487039 0.062445901 0.019947819
0.46489877 0.063379198 0.019942133
0.46492711 0.064312495 0.019936446
0.46495548 0.065245785 0.019930758
0.46498385 0.066179082 0.019925071
0.46501222 0.067112379 0.019919384
0.46504059 0.068045676 0.019913698
0.46506897 0.068978973 0.019908009
0.46509734 0.069912262 0.019902322
0.46427488 0.070930213 0.019359503
0.46430331 0.071865104 0.019353805
0.46433172 0.072799988 0.019348109
0.46436015 0.073734879 0.019342411
0.46438855 0.074669763 0.019336713
0.46441698 0.075604655 0.019331018
0.46444538 0.076539539 0.01932532
0.46447381 0.07747443 0.019319624
0.46450222 0.078409314 0.019313926
0.46453065 0.079344206 0.01930823
0.46370873 0.080379672 0.018765302
0.46373719 0.081316151 0.018759595
0.46376565 0.082252637 0.01875389
0.46379414 0.083189115 0.018748183
0.4638226 0.084125593 0.018742476
0.46385106 0.085062079 0.01873677
0.46387953 0.085998558 0.018731063
0.46390799 0.086935036 0.018725356
0.46393645 0.087871514 0.018719649
0.46396491 0.088808 0.018713944
0.46399337 0.089744478 0.018708237
0.46402186 0.090680957 0.018702529
0.46405032 0.091617443 0.018696822
0.46407878 0.092553921 0.018691117
0.46410725 0.093490399 0.01868541
0.46413571 0.094426885 0.018679703
0.46416417 0.095363364 0.018673996
0.46334308 0.0964275 0.018130857
0.4633716 0.097365573 0.018125141
0.46340013 0.098303653 0.018119425
0.46342865 0.099241726 0.018113708
0.46345714 0.1001798 0.018107992
0.46348566 0.10111787 0.018102275
0.46266496 0.10219315 0.017559106
0.46269354 0.10313282 0.01755338
0.46272209 0.10407249 0.017547654
0.46275064 0.10501215 0.017541928
0.46277922 0.10595182 0.017536202
0.46280777 0.10689148 0.017530475
0.46198744 0.10797792 0.016987238
0.46201605 0.10891917 0.016981503
0.46119583 0.11001039 0.016438231
0.4612245 0.11095323 0.016432485
0.46040437 0.11204923 0.015889157
0.45958441 0.11314841 0.015345842
0.45961317 0.11409444 0.015340077
0.45879334 0.1151984 0.014796727
0.45797363 0.11630552 0.014253364
0.45715401 0.11741585 0.013709981
0.45718288 0.11836666 0.013704186
0.455515 0.11964606 0.012623119
0.45469564 0.12076594 0.012079678
0.43799922 0.028243545 0.0027602122
0.44743022 0.030048955 0.0086656734
0.45430356 0.031837463 0.012957622
0.45603612 0.032751236 0.014027787
0.45691669 0.033679549 0.014559986
0.45864886 0.034582175 0.015630187
0.45867756 0.035526618 0.015624432
0.45955789 0.036445376 0.016156716
0.45958656 0.037388228 0.01615097
0.46046671 0.038302206 0.016683251
0.46049532 0.039243463 0.016677516
0.4613753 0.040152665 0.017209832
0.46140388 0.041092332 0.017204106
0.46228373 0.041996755 0.017736444
0.46231222 0.042934828 0.017730728
0.46234074 0.0438729 0.017725011
0.46322045 0.044770952 0.018257422
0.46324891 0.045707434 0.018251715
0.4632774 0.046643913 0.018246008
0.46330586 0.047580395 0.018240301
0.46333432 0.048516877 0.018234596
0.4642137 0.049405374 0.018767031
0.4642421 0.050340261 0.018761335
0.46427053 0.051275149 0.018755637
0.46429893 0.052210037 0.018749941
0.46432737 0.053144924 0.018744243
0.46435577 0.054079812 0.018738547
0.4643842 0.0550147 0.01873285
0.4644126 0.055949587 0.018727154
0.46444103 0.056884479 0.018721456
0.46446943 0.057819366 0.018715758
0.46449786 0.058754254 0.018710062
0.46452627 0.059689142 0.018704364
0.4645547 0.060624029 0.018698668
0.4645831 0.061558917 0.01869297
0.4646115 0.062493805 0.018687274
0.46463993 0.063428693 0.018681576
0.46466833 0.064363584 0.018675881
0.46469676 0.065298468 0.018670183
0.46472517 0.066233359 0.018664487
0.4647536 0.067168243 0.018658789
0.464782 0.068103135 0.018653093
0.46481043 0.069038026 0.018647395
0.46483883 0.06997291 0.018641699
0.46486726 0.070907801 0.018636001
0.46489567 0.071842685 0.018630305
0.4649241 0.072777577 0.018624607
0.4649525 0.073712461 0.01861891
0.46413133 0.074738339 0.018074809
0.46415979 0.075674817 0.018069101
0.46418825 0.076611295 0.018063396
0.46421671 0.077547781 0.018057689
0.4642452 0.07848426 0.018051982
0.46427366 0.079420738 0.018046275
0.46430212 0.080357216 0.018040569
0.46433058 0.081293702 0.018034862
0.46435905 0.082230181 0.018029155
0.46438751 0.083166659 0.018023448
0.46441597 0.084103145 0.018017743
0.46444443 0.085039623 0.018012036
0.46447289 0.085976109 0.018006328
0.46450138 0.086912587 0.018000621
0.46452984 0.087849066 0.017994916
0.4645583 0.088785544 0.017989209
0.46373788 0.089838497 0.01744491
0.4637664 0.09077657 0.017439194
0.46379492 0.09171465 0.017433478
0.46382344 0.092652723 0.017427761
0.46385193 0.093590796 0.017422045
0.46388045 0.094528869 0.017416328
0.46390897 0.095466942 0.017410612
0.46393749 0.096405014 0.017404895
0.46396598 0.097343087 0.017399179
0.4639945 0.09828116 0.017393462
0.46402302 0.09921924 0.017387746
0.46320325 0.1002913 0.016843364
0.4632318 0.10123096 0.016837636
0.46326035 0.10217062 0.01683191
0.46328893 0.10311029 0.016826184
0.46331748 0.10404996 0.016820459
0.46334603 0.10498963 0.016814733
0.46252662 0.10607284 0.016270276
0.46255523 0.10701409 0.016264539
0.46258384 0.10795535 0.016258804
0.46176457 0.10904492 0.015714314
0.46179324 0.10998778 0.015708568
0.46182191 0.11093063 0.015702823
0.4610028 0.11202659 0.015158262
0.4610315 0.11297104 0.015152507
0.46021259 0.11407176 0.014607949
0.46024135 0.1150178 0.014602184
0.45942259 0.1161233 0.014057597
0.45775646 0.11739305 0.012974152
0.45609048 0.11866917 0.011890643
0.45527211 0.11978742 0.011345979
0.45445383 0.12090886 0.010801288
0.44685733 0.12337295 0.0059455489
0.43777084 0.0282313 0.0014605821
0.44460854 0.0291123 0.0057679554
0.44804177 0.030025816 0.0079187574
0.45147458 0.030926595 0.010069604
0.45490703 0.031814627 0.012220566
0.45663756 0.032728478 0.013293198
0.45836785 0.033635959 0.014365836
0.45924726 0.034559533 0.014899292
0.46012664 0.035479918 0.015432799
0.46015531 0.03642277 0.015427054
0.46103451 0.03733838 0.015960559
0.46106312 0.038279638 0.015954822
0.46194214 0.039190471 0.016488357
0.46197072 0.040130138 0.016482631
0.46199927 0.041069806 0.016476905
0.46287811 0.041974265 0.017010476
0.46290663 0.042912338 0.01700476
0.46293515 0.043850411 0.016999044
0.46296364 0.044788484 0.016993327
0.4638423 0.045684982 0.01752698
0.46387076 0.04662146 0.017521273
0.46389922 0.047557943 0.017515568
0.46392769 0.048494425 0.017509861
0.46395615 0.049430903 0.017504154
0.46398464 0.050367385 0.017498448
0.4640131 0.051303864 0.017492741
0.46404156 0.052240346 0.017487034
0.46407002 0.053176828 0.017481327
0.46409848 0.05411331 0.017475622
0.46412694 0.055049788 0.017469915
0.46415541 0.055986267 0.017464207
0.46418387 0.056922752 0.0174585
0.46421236 0.057859231 0.017452795
0.46424082 0.058795709 0.017447088
0.46511865 0.059666727 0.017980864
0.46514705 0.060601618 0.017975166
0.46517548 0.061536506 0.01796947
0.46520388 0.062471393 0.017963773
0.46523231 0.063406281 0.017958077
0.46526071 0.064341165 0.017952379
0.46528915 0.065276057 0.017946683
0.46531755 0.06621094 0.017940985
0.464497 0.067224041 0.017395727
0.46452546 0.068160519 0.017390022
0.46455392 0.069096997 0.017384315
0.46458238 0.070033483 0.017378608
0.46461084 0.070969962 0.017372901
0.46463931 0.07190644 0.017367195
0.46466777 0.072842918 0.017361488
0.46469623 0.073779397 0.017355781
0.46472472 0.074715883 0.017350074
0.46475318 0.075652361 0.017344369
0.46478164 0.076588847 0.017338661
0.4648101 0.077525325 0.017332954
0.46483856 0.078461811 0.017327247
0.46486703 0.079398289 0.017321542
0.46489549 0.080334768 0.017315835
0.46407565 0.081373349 0.016770389
0.46410418 0.082311422 0.016764672
0.4641327 0.083249494 0.016758958
0.46416119 0.084187567 0.016753241
0.46418971 0.08512564 0.016747525
0.46421823 0.086063713 0.016741809
0.46424675 0.087001786 0.016736092
0.46427524 0.087939858 0.016730376
0.46430376 0.088877931 0.016724659
0.46433228 0.089816011 0.016718943
0.4643608 0.090754084 0.016713226
0.46438929 0.091692165 0.01670751
0.46441782 0.092630237 0.016701793
0.46444634 0.093568303 0.016696077
0.46362728 0.09463077 0.016150519
0.46365583 0.095570438 0.016144792
0.46368438 0.096510105 0.016139066
0.46371296 0.097449772 0.01613334
0.46374151 0.098389432 0.016127614
0.46377009 0.099329099 0.016121889
0.46379864 0.10026877 0.016116163
0.46382719 0.10120843 0.016110437
0.46385577 0.1021481 0.016104709
0.46303719 0.10322649 0.015559055
0.4630658 0.10416774 0.015553319
0.46309441 0.10510901 0.015547583
0.46312302 0.10605027 0.015541847
0.46315163 0.10699152 0.015536112
0.46233335 0.10807948 0.014990398
0.46236199 0.10902232 0.014984652
0.46239066 0.10996518 0.014978907
0.46157253 0.11105951 0.014433122
0.46160123 0.11200394 0.014427367
0.46078327 0.11310305 0.013881586
0.46081203 0.11404908 0.013875821
0.45999423 0.11515296 0.01333001
0.46002305 0.11610058 0.013324236
0.45835891 0.11737026 0.01223833
0.45669496 0.11864631 0.011152354
0.45503122 0.11992873 0.010066371
0.45421395 0.12105172 0.0095204059
0.45170429 0.12251268 0.0078942515
0.43754449 0.028218981 0.00015849104
0.45208207 0.030903608 0.0093276212
0.4555105 0.031791795 0.011483505
0.45808876 0.032686479 0.013099038
0.45981699 0.033592444 0.014174152
0.46069542 0.034514464 0.014708883
0.46072406 0.035457313 0.014703138
0.4616023 0.036374554 0.015237866
0.46163091 0.037315812 0.01523213
0.46250898 0.038228277 0.015766887
0.46253753 0.039167944 0.015761161
0.46256611 0.040107608 0.015755435
0.46259466 0.041047275 0.01574971
0.46347249 0.041951776 0.016284516
0.46350101 0.042889848 0.0162788
0.46352953 0.043827921 0.016273083
0.46355805 0.044765994 0.016267367
0.46358654 0.045704067 0.01626165
0.46361506 0.046642143 0.016255934
0.46364358 0.047580216 0.016250217
0.46452108 0.048471972 0.016785132
0.46454954 0.049408451 0.016779426
0.464578 0.050344933 0.016773719
0.46460646 0.051281411 0.016768012
0.46463493 0.052217893 0.016762305
0.46466339 0.053154375 0.0167566
0.46469185 0.054090858 0.016750893
0.46472034 0.055027336 0.016745185
0.4647488 0.055963818 0.01673948
0.46477726 0.0569003 0.016733773
0.46480572 0.057836778 0.016728066
0.46483418 0.058773257 0.016722359
0.46486264 0.059709739 0.016716653
0.46489111 0.060646221 0.016710946
0.46491957 0.061582699 0.016705239
0.46494803 0.062519185 0.016699532
0.46497652 0.063455664 0.016693827
0.46500498 0.064392142 0.01668812
0.46503344 0.06532862 0.016682412
0.4650619 0.066265106 0.016676705
0.46509036 0.067201585 0.016671
0.46511883 0.068138063 0.016665293
0.46514729 0.069074549 0.016659586
0.46517575 0.070011027 0.016653879
0.46435639 0.071032055 0.016107308
0.46438491 0.071970128 0.016101591
0.46441343 0.0729082 0.016095875
0.46444193 0.073846273 0.016090158
0.46447045 0.074784346 0.016084442
0.46449897 0.075722419 0.016078725
0.46452749 0.076660492 0.016073009
0.46455598 0.077598564 0.016067294
0.4645845 0.078536637 0.016061578
0.46461302 0.07947471 0.016055861
0.46464154 0.080412783 0.016050145
0.46467003 0.081350856 0.016044429
0.46469855 0.082288928 0.016038712
0.46472707 0.083227001 0.016032996
0.46475559 0.084165081 0.016027279
0.46478409 0.085103154 0.016021563
0.46481261 0.086041227 0.016015846
0.46399418 0.087090909 0.015469132
0.46402273 0.088030577 0.015463406
0.46405131 0.088970244 0.01545768
0.46407986 0.089909911 0.015451954
0.46410841 0.090849571 0.015446228
0.46413699 0.091789246 0.015440502
0.46416554 0.092728913 0.015434776
0.46419409 0.093668573 0.01542905
0.46422267 0.09460824 0.015423324
0.46425122 0.095547907 0.015417597
0.4642798 0.096487574 0.015411871
0.46430835 0.097427242 0.015406146
0.4643369 0.098366901 0.015400419
0.46351916 0.099438891 0.01485357
0.46354777 0.10038015 0.014847834
0.46357638 0.1013214 0.014842098
0.46360499 0.10226267 0.014836362
0.4636336 0.10320392 0.014830627
0.46366221 0.10414518 0.014824891
0.46369082 0.10508644 0.014819155
0.46287343 0.10617116 0.014272227
0.4629021 0.10711402 0.014266482
0.46293077 0.10805687 0.014260736
0.46295941 0.10899971 0.014254991
0.46298808 0.10994257 0.014249246
0.46217093 0.11103687 0.013702228
0.46135396 0.11213433 0.013155222
0.46138272 0.11308037 0.013149457
0.46056587 0.1141826 0.012602423
0.46059468 0.11513024 0.012596648
0.45977798 0.11623725 0.012049585
0.45811588 0.11750846 0.010961171
0.45645404 0.11878601 0.0098727569
0.45563772 0.11990578 0.0093256161
0.45313084 0.12136026 0.0076957676
0.44727284 0.12446684 0.0038945819
0.43816915 0.028195344 -0.0006044528
0.44414178 0.029091377 0.0031809711
0.45184073 0.030896638 0.008043983
0.45611396 0.031768959 0.010746449
0.45868921 0.032663763 0.012365682
0.46041542 0.033569802 0.013443258
0.46129283 0.034491859 0.013979222
0.46217009 0.035410728 0.014515174
0.4621987 0.03635199 0.014509438
0.46307582 0.037266083 0.015045418
0.46310437 0.038205747 0.015039693
0.46313292 0.039145414 0.015033967
0.4631615 0.040085081 0.01502824
0.46319005 0.041024748 0.015022514
0.46406689 0.041929286 0.015558548
0.46409538 0.042867359 0.015552832
0.4641239 0.043805432 0.015547115
0.46415243 0.044743504 0.015541399
0.46418095 0.045681577 0.015535682
0.46420944 0.04661965 0.015529966
0.46423796 0.047557723 0.01552425
0.46426648 0.048495799 0.015518533
0.464295 0.049433872 0.015512817
0.46432349 0.050371945 0.0155071
0.46435201 0.051310018 0.015501385
0.46438053 0.052248091 0.015495668
0.46440905 0.053186167 0.015489952
0.46443754 0.05412424 0.015484235
0.46446607 0.055062313 0.015478519
0.46449459 0.056000385 0.015472802
0.46452311 0.056938458 0.015467086
0.4645516 0.057876531 0.015461369
0.46458012 0.058814604 0.015455653
0.46460864 0.05975268 0.015449937
0.46463716 0.060690753 0.015444221
0.46466565 0.061628826 0.015438505
0.46469417 0.062566899 0.015432788
0.46472269 0.063504972 0.015427072
0.46475118 0.064443044 0.015421355
0.4647797 0.065381117 0.015415639
0.46480823 0.06631919 0.015409922
0.46483675 0.067257263 0.015404206
0.46486524 0.068195343 0.015398489
0.46489376 0.069133416 0.015392774
0.46492228 0.070071489 0.015387057
0.4649508 0.071009561 0.015381341
0.46497929 0.071947634 0.015375624
0.46500781 0.072885707 0.015369908
0.46503633 0.07382378 0.015364191
0.46506485 0.074761853 0.015358475
0.46509334 0.075699925 0.015352759
0.46512187 0.076638006 0.015347042
0.46515039 0.077576078 0.015341326
0.46517891 0.078514151 0.01533561
0.46436107 0.079551056 0.014787746
0.46438962 0.080490723 0.01478202
0.4644182 0.08143039 0.014776293
0.46444675 0.08237005 0.014770567
0.46447533 0.083309717 0.014764842
0.46450388 0.084249385 0.014759115
0.46453243 0.085189052 0.014753389
0.46456102 0.086128719 0.014747663
0.46458957 0.087068386 0.014741938
0.46461812 0.088008054 0.014736211
0.4646467 0.088947713 0.014730485
0.46467525 0.089887381 0.014724759
0.4647038 0.090827048 0.014719033
0.46473238 0.091766715 0.014713307
0.46476093 0.092706382 0.014707581
0.4639439 0.093768768 0.014159556
0.46397251 0.09471003 0.01415382
0.46400112 0.095651284 0.014148084
0.46402973 0.096592546 0.014142348
0.46405834 0.0975338 0.014136612
0.46408695 0.098475061 0.014130877
0.46411556 0.099416323 0.014125141
0.46414417 0.10035758 0.014119405
0.46332756 0.1014343 0.013571293
0.46335623 0.10237715 0.013565548
0.46338487 0.10332001 0.013559802
0.46341354 0.10426286 0.013554056
0.46344221 0.10520571 0.013548311
0.46347085 0.10614856 0.013542566
0.46349952 0.10709141 0.01353682
0.46268323 0.10818088 0.012988598
0.46271196 0.10912532 0.012982843
0.46274066 0.11006977 0.012977088
0.46192464 0.11116561 0.012428858
0.4619534 0.11211164 0.012423093
0.4611375 0.11321226 0.011874842
0.46116632 0.11415988 0.011869067
0.46035057 0.11526527 0.01132078
0.46037942 0.11621449 0.011314996
0.45956385 0.11732467 0.010766679
0.45621511 0.11892564 0.0085906927
0.45539981 0.12004697 0.0080422768
0.45289609 0.12150292 0.0064087566
0.45123681 0.12280112 0.0053177117
0.4487336 0.1242746 0.0036840851
0.44285399 0.12643965 -0.00012002434
0.43794584 0.028182909 -0.0019102438
0.44475937 0.02906801 0.0024266606
0.45671743 0.031746127 0.010009394
0.4601374 0.032621879 0.012175222
0.46101382 0.033547159 0.012712362
0.46273789 0.034446903 0.013792481
0.4627665 0.035388164 0.013786745
0.46279511 0.036329422 0.013781009
0.46367121 0.037243553 0.014318218
0.46369976 0.03818322 0.014312492
0.46372834 0.039122887 0.014306766
0.46375689 0.04006255 0.01430104
0.46378544 0.041002218 0.014295314
0.46381402 0.041941885 0.014289588
0.46384257 0.042881548 0.014283862
0.46387115 0.043821216 0.014278135
0.4638997 0.044760883 0.014272409
0.46392825 0.045700546 0.014266684
0.46395683 0.046640214 0.014260957
0.46398538 0.047579881 0.014255231
0.46401393 0.048519548 0.014249505
0.46404251 0.049459212 0.014243779
0.46407107 0.050398879 0.014238053
0.46409962 0.051338542 0.014232327
0.4641282 0.052278209 0.014226601
0.46415675 0.053217877 0.014220875
0.46503195 0.05410175 0.014758274
0.46506044 0.055039823 0.014752558
0.46508896 0.055977896 0.014746841
0.46511748 0.056915969 0.014741125
0.46514601 0.057854041 0.014735408
0.4651745 0.058792114 0.014729692
0.46520302 0.059730187 0.014723975
0.46523154 0.060668264 0.014718259
0.46526006 0.061606336 0.014712542
0.46528855 0.062544405 0.014706826
0.46531707 0.063482478 0.01470111
0.46534559 0.064420559 0.014695394
0.46537408 0.065358631 0.014689677
0.4654026 0.066296704 0.014683961
0.46543112 0.067234777 0.014678244
0.46461374 0.068252534 0.014129258
0.46464229 0.069192201 0.014123532
0.46467087 0.070131861 0.014117805
0.46469942 0.071071528 0.01411208
0.46472797 0.072011195 0.014106354
0.46475655 0.072950862 0.014100627
0.4647851 0.07389053 0.014094901
0.46481368 0.074830197 0.014089175
0.46484223 0.075769857 0.01408345
0.46487078 0.076709531 0.014077723
0.46489936 0.077649198 0.014071997
0.46492791 0.078588866 0.014066271
0.46495646 0.079528525 0.014060545
0.46498504 0.080468193 0.014054819
0.46501359 0.08140786 0.014049093
0.46504214 0.08234752 0.014043367
0.46507072 0.083287187 0.014037641
0.46509928 0.084226862 0.014031915
0.46512786 0.085166529 0.014026188
0.46515641 0.086106189 0.014020463
0.46434003 0.087157391 0.013471277
0.46436864 0.088098645 0.013465542
0.46439725 0.089039907 0.013459806
0.46442586 0.089981169 0.01345407
0.46445447 0.090922423 0.013448335
0.46448308 0.091863684 0.013442599
0.46451169 0.092804946 0.013436863
0.4645403 0.0937462 0.013431127
0.46456891 0.094687462 0.013425392
0.46459752 0.095628716 0.013419656
0.46378168 0.096697442 0.012870358
0.46381035 0.097640291 0.012864613
0.46383899 0.098583147 0.012858868
0.46386766 0.099525996 0.012853122
0.4638963 0.10046884 0.012847377
0.46392497 0.10141169 0.012841632
0.46310943 0.10249157 0.012292234
0.46313813 0.10343602 0.012286479
0.46316683 0.10438047 0.012280724
0.46319553 0.10532491 0.012274968
0.46322426 0.10626935 0.012269214
0.46325296 0.1072138 0.012263458
0.46328166 0.10815824 0.012257703
0.46246654 0.10925085 0.011708266
0.4624953 0.11019689 0.011702501
0.46252406 0.11114293 0.011696736
0.46170914 0.11224191 0.011147255
0.46173796 0.11318954 0.01114148
0.46092317 0.11429329 0.01059197
0.46095204 0.11524252 0.010586185
0.4601374 0.11635105 0.010036651
0.45932281 0.11746278 0.0094870599
0.45682162 0.11890269 0.0078499373
0.45516399 0.12018808 0.0067565087
0.45266333 0.1216455 0.0051192795
0.45100614 0.12294522 0.0040257578
0.448506 0.12442017 0.0023884217
0.44879416 0.029961955 0.0038428477
0.4573209 0.031723294 0.0092723379
0.4598901 0.032618321 0.010898959
0.46161225 0.033524517 0.011981468
0.46248764 0.034446649 0.012519899
0.4633629 0.035365596 0.013058311
0.46339151 0.036306854 0.013052575
0.46342012 0.037248112 0.01304684
0.46429518 0.038160689 0.013585297
0.46432373 0.039100356 0.013579571
0.46435228 0.040040024 0.013573845
0.46438086 0.040979691 0.013568119
0.46440941 0.041919354 0.013562392
0.46443796 0.042859022 0.013556667
0.46446654 0.043798685 0.013550941
0.46449509 0.044738352 0.013545214
0.46452364 0.04567802 0.013539488
0.46455222 0.046617687 0.013533763
0.46458077 0.04755735 0.013528036
0.46460935 0.048497017 0.01352231
0.46463791 0.049436685 0.013516584
0.46466646 0.050376352 0.013510858
0.46469504 0.051316015 0.013505132
0.46472359 0.052255683 0.013499406
0.46475214 0.053195346 0.013493679
0.46478072 0.054135013 0.013487954
0.46480927 0.055074681 0.013482228
0.46483782 0.056014344 0.013476502
0.4648664 0.056954011 0.013470775
0.46489495 0.057893679 0.01346505
0.46492353 0.058833342 0.013459324
0.46495208 0.059773009 0.013453597
0.46498063 0.060712676 0.013447871
0.46500921 0.061652344 0.013442146
0.46503776 0.062592007 0.013436419
0.46506631 0.063531674 0.013430693
0.46509489 0.064471342 0.013424967
0.46512344 0.065411009 0.013419241
0.465152 0.066350676 0.013413515
0.46518058 0.067290336 0.013407789
0.46520913 0.068230003 0.013402062
0.46523771 0.06916967 0.013396337
0.46526626 0.070109338 0.013390611
0.46529481 0.071049005 0.013384884
0.46532339 0.071988672 0.013379158
0.46535194 0.072928332 0.013373433
0.46538049 0.073867999 0.013367706
0.46540907 0.074807666 0.01336198
0.46543762 0.075747333 0.013356254
0.46546617 0.076687001 0.013350529
0.46549475 0.077626668 0.013344802
0.4655233 0.078566335 0.013339076
0.46555188 0.079505995 0.01333335
0.46558043 0.080445662 0.013327624
0.46476477 0.081487268 0.012777259
0.46479338 0.08242853 0.012771523
0.46482199 0.083369784 0.012765787
0.4648506 0.084311053 0.012760052
0.46487921 0.085252307 0.012754316
0.46490782 0.086193569 0.012748579
0.46493644 0.087134823 0.012742843
0.46496505 0.088076085 0.012737108
0.46499366 0.089017339 0.012731372
0.4641785 0.090074874 0.012180915
0.46420714 0.091017731 0.01217517
0.46423581 0.091960579 0.012169424
0.46426445 0.092903435 0.012163679
0.46429312 0.093846284 0.012157934
0.46432179 0.094789132 0.012152188
0.46435043 0.095731989 0.012146442
0.4643791 0.096674837 0.012140697
0.46440774 0.097617686 0.012134952
0.46359304 0.098691158 0.01158436
0.46362174 0.099635601 0.011578605
0.46365044 0.10058004 0.01157285
0.46367913 0.10152449 0.011567094
0.46370786 0.10246893 0.01156134
0.46289346 0.10355195 0.011010727
0.46292222 0.10449798 0.011004962
0.46295097 0.10544402 0.010999197
0.46297973 0.10639006 0.010993432
0.46300846 0.1073361 0.010987667
0.46303722 0.10828213 0.010981902
0.46222317 0.1093763 0.010431217
0.46225199 0.11032393 0.010425442
0.46228078 0.11127156 0.010419668
0.46146691 0.11237209 0.0098689487
0.46149579 0.11332131 0.0098631643
0.46152464 0.11427053 0.0098573808
0.46071097 0.11537744 0.0093066171
0.46073985 0.11632825 0.0093008233
0.45908386 0.11760083 0.0082050059
0.45742813 0.11887974 0.0071091815
0.45493019 0.1203291 0.0054682684
0.45243254 0.12178802 0.0038273029
0.45077747 0.12308924 0.002731343
0.44828036 0.12456568 0.0010902651
0.44409928 0.12639251 -0.0016409729
0.45025358 0.029924428 0.0036387979
0.45792437 0.031700458 0.0085352762
0.46049052 0.032595601 0.010165597
0.46221069 0.033501871 0.011250572
0.46308506 0.034424044 0.011790231
0.46311373 0.035366893 0.011784486
0.4631424 0.036309745 0.01177874
0.46401653 0.037225548 0.012318405
0.46404514 0.038166806 0.01231267
0.46407375 0.039108064 0.012306934
0.46410236 0.040049322 0.012301198
0.46413097 0.04099058 0.012295462
0.4650048 0.041896828 0.012835192
0.46503338 0.042836491 0.012829466
0.46506193 0.043776158 0.01282374
0.46424541 0.044755615 0.01227252
0.46427402 0.045696873 0.012266784
0.46430263 0.046638135 0.012261048
0.46433124 0.047579393 0.012255312
0.46435985 0.048520651 0.012249577
0.46438846 0.049461909 0.012243841
0.46441707 0.050403167 0.012238105
0.46444568 0.051344428 0.012232369
0.46447429 0.052285686 0.012226634
0.46534756 0.053172819 0.01276648
0.46537611 0.054112487 0.012760753
0.46540466 0.05505215 0.012755027
0.46543324 0.055991817 0.012749301
0.46546179 0.056931484 0.012743575
0.46549034 0.057871152 0.012737849
0.46551892 0.058810815 0.012732123
0.46554747 0.059750482 0.012726396
0.46557605 0.06069015 0.012720671
0.4656046 0.061629813 0.012714945
0.46563315 0.062569477 0.012709218
0.46566173 0.063509144 0.012703492
0.46569028 0.064448811 0.012697767
0.46571884 0.065388478 0.012692041
0.46574742 0.066328146 0.012686314
0.46577597 0.067267813 0.012680588
0.46580452 0.06820748 0.012674863
0.46498927 0.069228344 0.012123389
0.46501788 0.070169598 0.012117654
0.4650465 0.07111086 0.012111918
0.46507511 0.072052121 0.012106182
0.46510372 0.072993375 0.012100446
0.4651323 0.073934637 0.012094711
0.46516091 0.074875891 0.012088975
0.46518952 0.075817153 0.012083239
0.46521813 0.076758415 0.012077503
0.46524674 0.077699669 0.012071768
0.46527535 0.07864093 0.012066032
0.46530396 0.079582185 0.012060296
0.46533257 0.080523446 0.01205456
0.46536118 0.0814647 0.012048825
0.46538979 0.082405962 0.012043089
0.4654184 0.083347224 0.012037353
0.46460396 0.084395163 0.011485721
0.46463263 0.085338019 0.011479976
0.46466127 0.086280867 0.01147423
0.46468994 0.087223716 0.011468485
0.46471858 0.088166572 0.011462739
0.46474725 0.089109421 0.011456993
0.46477592 0.090052269 0.011451248
0.46480456 0.090995125 0.011445503
0.46483323 0.091937974 0.011439757
0.46401921 0.09300185 0.010887996
0.46404791 0.093946293 0.010882241
0.46407661 0.094890736 0.010876486
0.46410534 0.095835179 0.010870731
0.46413404 0.096779622 0.010864976
0.46416274 0.097724073 0.01085922
0.4633491 0.098799087 0.010307417
0.46337786 0.099745125 0.010301652
0.46340662 0.10069116 0.010295887
0.46343538 0.1016372 0.010290123
0.46346414 0.10258324 0.010284358
0.4634929 0.10352927 0.010278593
0.46267959 0.10461544 0.0097267283
0.46270841 0.10556307 0.0097209541
0.4627372 0.10651068 0.009715179
0.46276602 0.10745832 0.0097094048
0.46279481 0.10840595 0.0097036297
0.46282363 0.10935357 0.0096978555
0.46201068 0.11045089 0.009145923
0.46203953 0.11140011 0.0091401385
0.46206838 0.11234933 0.0091343541
0.46125561 0.11345302 0.0085823769
0.46128452 0.11440383 0.0085765831
0.46131343 0.11535465 0.0085707884
0.46050081 0.1164647 0.008018746
0.45968834 0.11757796 0.0074667106
0.4571932 0.11901923 0.0058221524
0.45469838 0.12047006 0.0041775675
0.45220384 0.12193046 0.0025328924
0.45055082 0.12323319 0.001434456
0.44805679 0.12471111 -0.00021032584
0.45086613 0.029901251 0.0028906481
0.45852783 0.031677622 0.0077982149
0.46109098 0.032572884 0.0094322357
0.46196446 0.03349987 0.0099730669
0.46283782 0.034423672 0.010513922
0.46286651 0.035368118 0.010508168
0.46373981 0.03628714 0.011049079
0.46376845 0.037229992 0.011043333
0.46379712 0.038172845 0.011037588
0.46467015 0.039085496 0.011578506
0.46469876 0.040026754 0.01157277
0.46472737 0.040968016 0.011567035
0.46475598 0.041909274 0.011561299
0.46478459 0.042850532 0.011555563
0.4648132 0.04379179 0.011549827
0.46484181 0.044733047 0.011544092
0.46487042 0.045674309 0.011538356
0.46489903 0.046615567 0.01153262
0.46492764 0.047556825 0.011526884
0.46495625 0.048498083 0.011521148
0.46498486 0.049439341 0.011515412
0.46501347 0.050380602 0.011509676
0.46504208 0.05132186 0.01150394
0.46507069 0.052263118 0.011498205
0.4650993 0.05320438 0.011492469
0.46512792 0.054145638 0.011486733
0.46515653 0.055086896 0.011480997
0.46518514 0.056028154 0.011475262
0.46521375 0.056969415 0.011469526
0.46524236 0.05791067 0.01146379
0.46527097 0.058851928 0.011458055
0.46529958 0.059793185 0.011452319
0.46532819 0.060734447 0.011446583
0.4653568 0.061675705 0.011440847
0.46538541 0.062616967 0.011435112
0.46541402 0.063558221 0.011429376
0.46544263 0.064499483 0.01142364
0.46547124 0.065440744 0.011417904
0.46549985 0.066381998 0.011412169
0.46552846 0.067323253 0.011406433
0.46555707 0.068264514 0.011400697
0.46558568 0.069205776 0.011394961
0.46561429 0.07014703 0.011389226
0.46480015 0.07117264 0.010836496
0.46482882 0.072115496 0.010830751
0.46485746 0.073058344 0.010825005
0.46488613 0.074001193 0.01081926
0.4649148 0.074944042 0.010813514
0.46494344 0.075886898 0.010807768
0.46497211 0.076829754 0.010802023
0.46500078 0.077772602 0.010796278
0.46502942 0.078715451 0.010790532
0.46505809 0.0796583 0.010784787
0.46508673 0.080601156 0.010779041
0.4651154 0.081544004 0.010773296
0.46514407 0.082486853 0.01076755
0.46517271 0.083429709 0.010761805
0.46520138 0.084372558 0.01075606
0.46523002 0.085315414 0.010750314
0.46441668 0.086368099 0.010197387
0.46444538 0.087312542 0.010191632
0.46447411 0.088256985 0.010185877
0.46450281 0.089201428 0.010180122
0.46453151 0.090145871 0.010174367
0.46456021 0.091090314 0.010168612
0.46458891 0.092034765 0.010162856
0.46461764 0.092979208 0.010157101
0.46380478 0.09404622 0.0096041141
0.46383354 0.094992258 0.0095983492
0.4638623 0.095938295 0.0095925843
0.46389103 0.096884333 0.0095868194
0.46391979 0.097830363 0.0095810546
0.46394855 0.0987764 0.0095752897
0.46397731 0.099722438 0.0095695248
0.46316484 0.1008022 0.0090164654
0.46319363 0.10174983 0.0090106903
0.46322244 0.10269745 0.0090049161
0.46325123 0.10364508 0.0089991419
0.46328005 0.10459271 0.0089933667
0.46246788 0.10568202 0.0084402496
0.46249673 0.10663124 0.0084344652
0.46252558 0.10758048 0.0084286807
0.46255443 0.10852969 0.0084228963
0.46258327 0.10947891 0.0084171118
0.46177137 0.11057778 0.007863936
0.46180028 0.1115286 0.0078581423
0.46182919 0.11247941 0.0078523485
0.46185809 0.11343023 0.0078465547
0.46188697 0.11438103 0.0078407601
0.46107534 0.11548947 0.0072874883
0.46110427 0.11644188 0.0072816848
0.45945242 0.11771587 0.0061809625
0.45696035 0.11915863 0.0045326939
0.45446861 0.12061094 0.0028843996
0.45197713 0.12207281 0.0012360207
0.4503262 0.12337706 0.00013510803
0.44783524 0.12485646 -0.0015133835
0.45147869 0.029878072 0.0021424983
0.45828757 0.03167221 0.0065133399
0.46084771 0.032569174 0.0081510451
0.46172023 0.033497792 0.0086931055
0.46343625 0.034401029 0.0097830277
0.46346495 0.035345472 0.0097772721
0.46349365 0.036289919 0.0097715175
0.46436587 0.037207387 0.010313672
0.46439454 0.03815024 0.010307926
0.46442318 0.039093088 0.01030218
0.46445185 0.040035941 0.010296435
0.46448052 0.040978793 0.01029069
0.46450916 0.041921645 0.010284944
0.46453783 0.042864494 0.010279199
0.46456647 0.043807346 0.010273453
0.46459514 0.044750199 0.010267708
0.46462381 0.045693047 0.010261962
0.46465245 0.0466359 0.010256217
0.46468112 0.047578752 0.010250472
0.46470976 0.048521604 0.010244726
0.46473843 0.049464453 0.010238981
0.4647671 0.050407305 0.010233235
0.46479574 0.051350158 0.010227489
0.46482441 0.052293006 0.010221744
0.46485308 0.053235859 0.010215999
0.46488172 0.054178711 0.010210253
0.46491039 0.055121563 0.010204508
0.46493903 0.056064412 0.010198762
0.46581015 0.056946848 0.010741098
0.46583876 0.057888102 0.010735362
0.46586737 0.058829363 0.010729627
0.46589598 0.059770621 0.010723891
0.46592459 0.060711879 0.010718155
0.4659532 0.061653137 0.010712419
0.46598181 0.062594399 0.010706684
0.46601042 0.063535653 0.010700948
0.46603903 0.064476915 0.010695212
0.46606764 0.065418176 0.010689476
0.46525428 0.066435777 0.010135562
0.46528295 0.067378625 0.010129817
0.46531159 0.068321481 0.010124071
0.46534026 0.06926433 0.010118325
0.46536893 0.070207186 0.01011258
0.46539757 0.071150035 0.010106835
0.46542624 0.072092891 0.010101089
0.46461323 0.073123239 0.009547065
0.46464193 0.074067682 0.0095413104
0.46467063 0.075012125 0.0095355548
0.46469933 0.075956568 0.0095297992
0.46472803 0.076901019 0.0095240446
0.46475676 0.077845462 0.009518289
0.46478546 0.078789905 0.0095125344
0.46481416 0.079734348 0.0095067788
0.46484286 0.080678791 0.0095010241
0.46487159 0.081623234 0.0094952686
0.46490029 0.082567677 0.009489513
0.46492898 0.08351212 0.0094837584
0.46495768 0.084456563 0.0094780028
0.46498641 0.085401013 0.0094722481
0.46501511 0.086345457 0.0094664926
0.46504381 0.0872899 0.009460737
0.46423167 0.088347323 0.0089065805
0.46426043 0.089293353 0.0089008156
0.46428919 0.090239391 0.0088950507
0.46431795 0.091185428 0.0088892858
0.46434671 0.092131466 0.008883521
0.46437544 0.093077503 0.0088777561
0.4644042 0.094023541 0.0088719912
0.46443295 0.094969578 0.0088662263
0.46362126 0.096041329 0.0083119823
0.46365005 0.096988961 0.0083062081
0.46367887 0.097936586 0.0083004329
0.46370766 0.098884217 0.0082946587
0.46373647 0.099831842 0.0082888836
0.46376526 0.10077947 0.0082831094
0.46295393 0.10186238 0.0077287918
0.46298277 0.1028116 0.0077230074
0.46301162 0.10376082 0.0077172229
0.46304047 0.10471004 0.0077114389
0.46222934 0.1058009 0.007157078
0.46225825 0.10675173 0.0071512843
0.46228716 0.10770255 0.00714549
0.46231604 0.10865335 0.0071396963
0.46234494 0.10960416 0.0071339021
0.46237385 0.11055499 0.0071281083
0.46240273 0.11150581 0.0071223141
0.46159196 0.11260942 0.0065678437
0.4616209 0.11356182 0.0065620402
0.46164986 0.11451423 0.0065562367
0.4608393 0.1156242 0.0060017593
0.4608683 0.11657821 0.005995946
0.4592185 0.11785372 0.0048927474
0.45756885 0.1191356 0.0037894775
0.45508015 0.1205878 0.0021374831
0.45259169 0.12204956 0.00048540425
0.45010352 0.12352087 -0.0011667387
0.45209122 0.029854896 0.0013943485
0.45889205 0.031649336 0.0057750507
0.46060649 0.032565389 0.0068673939
0.46232066 0.033475075 0.007959744
0.46234947 0.034422703 0.0079539698
0.46322083 0.035346583 0.0084972866
0.46324956 0.03629262 0.0084915217
0.46412078 0.03721172 0.0090348674
0.4641495 0.038156163 0.0090291118
0.4641782 0.039100606 0.0090233572
0.4642069 0.040045053 0.0090176016
0.4642356 0.040989496 0.009011846
0.4642643 0.041933939 0.0090060914
0.46429303 0.042878382 0.0090003358
0.46432173 0.043822829 0.0089945812
0.46435043 0.044767272 0.0089888256
0.46437913 0.045711715 0.008983071
0.46440786 0.046656162 0.0089773154
0.46443656 0.047600605 0.0089715598
0.46446526 0.048545048 0.0089658052
0.46449396 0.049489491 0.0089600496
0.46452269 0.050433937 0.008954295
0.46455139 0.051378381 0.0089485394
0.46458009 0.052322824 0.0089427847
0.46460879 0.05326727 0.0089370292
0.46463752 0.054211713 0.0089312736
0.46550781 0.055098958 0.0094748456
0.46553645 0.056041807 0.0094691003
0.46556512 0.056984659 0.0094633549
0.46559376 0.057927512 0.0094576096
0.46562243 0.05887036 0.0094518643
0.46565109 0.059813213 0.009446119
0.46567973 0.060756065 0.0094403727
0.4657084 0.061698917 0.0094346274
0.46573707 0.06264177 0.009428882
0.46576571 0.063584618 0.0094231367
0.46579438 0.064527474 0.0094173914
0.46582302 0.065470323 0.0094116461
0.46585169 0.066413172 0.0094058998
0.46588036 0.06735602 0.0094001545
0.4650681 0.068378374 0.0088449465
0.4650968 0.069322817 0.0088391909
0.46512553 0.07026726 0.0088334354
0.46515423 0.071211703 0.0088276807
0.46518293 0.072156146 0.0088219251
0.46521163 0.073100597 0.0088161705
0.46524036 0.07404504 0.0088104149
0.46526906 0.074989483 0.0088046603
0.46529776 0.075933926 0.0087989047
0.46532646 0.076878376 0.0087931491
0.46535516 0.077822819 0.0087873945
0.46538389 0.078767262 0.0087816389
0.46541259 0.079711705 0.0087758843
0.46544129 0.080656148 0.0087701287
0.46462983 0.081702381 0.0082148071
0.46465859 0.082648419 0.0082090423
0.46468732 0.083594449 0.0082032774
0.46471608 0.084540494 0.0081975115
0.46474484 0.085486531 0.0081917467
0.4647736 0.086432561 0.0081859827
0.46480235 0.087378599 0.0081802169
0.46483111 0.088324636 0.008174452
0.46485987 0.089270674 0.008168688
0.46404886 0.090332836 0.0076132682
0.46407768 0.09128046 0.007607494
0.46410647 0.092228092 0.0076017193
0.46413529 0.093175724 0.0075959447
0.46416408 0.094123356 0.00759017
0.4641929 0.09507098 0.0075843954
0.46422169 0.096018605 0.0075786207
0.4642505 0.096966237 0.007572846
0.46343994 0.098042734 0.0070173396
0.46346879 0.098991953 0.0070115556
0.46349767 0.099941179 0.0070057712
0.46352652 0.1008904 0.0069999867
0.46355537 0.10183962 0.0069942027
0.4627451 0.10292567 0.0064386376
0.46277401 0.10387648 0.0064328439
0.46280289 0.1048273 0.0064270496
0.4628318 0.10577811 0.0064212559
0.4628607 0.10672893 0.0064154617
0.46288961 0.10767975 0.0064096679
0.46207964 0.10877695 0.0058540031
0.46210858 0.10972936 0.0058481991
0.46213752 0.11068176 0.0058423956
0.46216649 0.11163417 0.0058365921
0.46219543 0.11258658 0.0058307881
0.46138579 0.11369333 0.0052750972
0.46141478 0.11464734 0.0052692839
0.46144378 0.11560133 0.0052634706
0.46147278 0.11655533 0.0052576573
0.45982501 0.11783077 0.0041519916
0.45733905 0.11927488 0.0024963196
0.45485336 0.12072857 0.00084058917
0.45236802 0.1221918 -0.00081516738
0.45072111 0.1234975 -0.0019210492
0.44930688 0.028915232 -0.0015489316
0.45610034 0.030735461 0.0028414386
0.45865479 0.031643804 0.0044864761
0.46120894 0.032542594 0.0061315717
0.46207947 0.033472881 0.0066760774
0.4629499 0.034399983 0.0072206077
0.46297872 0.035347611 0.0072148331
0.46384901 0.036269937 0.0077593932
0.46387777 0.037215974 0.0077536283
0.46390653 0.038162012 0.0077478634
0.46393529 0.039108045 0.0077420985
0.46396405 0.040054083 0.0077363336
0.46483403 0.040966853 0.0082809515
0.46486273 0.041911297 0.008275196
0.46489143 0.04285574 0.0082694413
0.46407905 0.043838229 0.0077132741
0.46410781 0.044784267 0.0077075092
0.46413657 0.045730304 0.0077017443
0.46416533 0.046676341 0.0076959794
0.46419406 0.047622379 0.0076902146
0.46422282 0.048568413 0.0076844497
0.46425158 0.04951445 0.0076786848
0.46428034 0.050460488 0.0076729199
0.4643091 0.051406525 0.007667155
0.46433786 0.052352559 0.0076613901
0.46520722 0.053244628 0.0082061337
0.46523592 0.054189071 0.0082003791
0.46526465 0.05513351 0.0081946235
0.46529335 0.056077957 0.0081888689
0.46532205 0.0570224 0.0081831133
0.46619117 0.057904907 0.0087279482
0.46621984 0.058847755 0.0087222029
0.46624851 0.059790608 0.0087164566
0.46627715 0.06073346 0.0087107113
0.46630582 0.061676312 0.0087049659
0.46633446 0.062619165 0.0086992206
0.46636313 0.063562013 0.0086934753
0.4655517 0.064577952 0.0081370724
0.4655804 0.065522395 0.0081313169
0.4656091 0.066466838 0.0081255613
0.46563783 0.067411281 0.0081198066
0.46566653 0.068355732 0.0081140511
0.46569523 0.069300175 0.0081082964
0.46488419 0.07032726 0.0075518573
0.46491295 0.07127329 0.0075460924
0.46494171 0.072219327 0.0075403275
0.46497047 0.073165365 0.0075345626
0.46499923 0.074111402 0.0075287977
0.46502796 0.07505744 0.0075230328
0.46505672 0.076003477 0.0075172679
0.46508548 0.076949514 0.0075115031
0.46511424 0.077895552 0.0075057382
0.465143 0.078841589 0.0074999733
0.46517175 0.079787627 0.0074942084
0.46520051 0.080733664 0.0074884435
0.46522924 0.081679702 0.0074826786
0.465258 0.082625739 0.0074769137
0.46444771 0.083676703 0.0069203288
0.4644765 0.084624343 0.0069145542
0.46450531 0.085571967 0.00690878
0.4645341 0.086519599 0.0069030053
0.46456292 0.087467231 0.0068972306
0.46459171 0.088414855 0.006891456
0.46462053 0.089362487 0.0068856813
0.46464932 0.090310112 0.0068799066
0.46467814 0.091257744 0.0068741324
0.46470693 0.092205375 0.0068683578
0.46389714 0.093273863 0.0063116662
0.46392599 0.09422309 0.0063058822
0.46395484 0.095172308 0.0063000978
0.46398371 0.096121535 0.0062943134
0.46401256 0.097070746 0.0062885294
0.46404141 0.098019972 0.0062827449
0.46323195 0.099099614 0.0057259914
0.46326086 0.10005043 0.0057201972
0.46328977 0.10100125 0.0057144035
0.46331865 0.10195206 0.0057086092
0.46334755 0.10290287 0.0057028155
0.46337646 0.10385369 0.0056970213
0.4625673 0.10494448 0.0051401621
0.46259624 0.10589689 0.0051343585
0.46262521 0.1068493 0.0051285545
0.46265414 0.10780171 0.005122751
0.46184528 0.10890047 0.004565875
0.46187428 0.10985445 0.0045600617
0.46190327 0.11080846 0.0045542484
0.46193227 0.11176246 0.0045484351
0.46196127 0.11271646 0.0045426218
0.46199027 0.11367046 0.004536808
0.46118176 0.11478036 0.0039798645
0.46121079 0.11573596 0.0039740414
0.46123984 0.11669154 0.0039682183
0.45959407 0.11796851 0.0028600444
0.45794857 0.11925182 0.0017518697
0.45546591 0.12070539 9.2439361e-05
0.45298362 0.12216851 -0.0015670172
0.45076433 0.028879376 -0.0017505246
0.45670885 0.030712437 0.002098222
0.45926028 0.031620894 0.0037469536
0.46097067 0.032538693 0.0048441826
0.4618403 0.033470612 0.0053899493
0.46270978 0.034399346 0.0059357039
0.46273863 0.035348568 0.0059299194
0.46360797 0.036272522 0.0064757029
0.46363676 0.03722015 0.0064699282
0.46366557 0.038167782 0.0064641535
0.4645347 0.039085366 0.00700997
0.46456346 0.040031403 0.0070042051
0.46459222 0.040977441 0.0069984403
0.46462098 0.041923475 0.0069926754
0.46464974 0.042869512 0.0069869105
0.4646785 0.043815549 0.0069811456
0.46470723 0.044761587 0.0069753807
0.46389601 0.045748815 0.0064179571
0.4639248 0.046696447 0.0064121825
0.46395361 0.047644075 0.0064064078
0.4639824 0.048591703 0.0064006331
0.46401122 0.049539331 0.0063948585
0.46404001 0.050486963 0.0063890838
0.46490854 0.051383842 0.0069350265
0.46493727 0.052329879 0.0069292616
0.46496603 0.053275917 0.0069234967
0.46499479 0.054221954 0.0069177318
0.46502355 0.055167988 0.0069119669
0.46505231 0.056114025 0.0069062021
0.46592048 0.056999758 0.0074522183
0.46594918 0.057944201 0.0074464632
0.46597788 0.058888648 0.0074407081
0.46600661 0.059833091 0.007434953
0.46603531 0.060777534 0.0074291979
0.46606401 0.061721981 0.0074234428
0.46609271 0.062666424 0.0074176877
0.46612141 0.063610867 0.0074119321
0.46615013 0.06455531 0.007406177
0.46533984 0.065574393 0.0068485532
0.4653686 0.06652043 0.0068427883
0.46539736 0.067466468 0.0068370234
0.46542612 0.068412505 0.0068312585
0.46545488 0.069358543 0.0068254936
0.46548364 0.07030458 0.0068197288
0.4646737 0.071334809 0.006262043
0.46470249 0.072282441 0.0062562684
0.46473131 0.073230065 0.0062504937
0.46476009 0.074177697 0.006244719
0.46478891 0.075125322 0.0062389444
0.4648177 0.076072954 0.0062331702
0.46484652 0.077020586 0.0062273955
0.46487531 0.077968217 0.0062216208
0.46490413 0.078915842 0.0062158462
0.46493292 0.079863474 0.0062100715
0.46496174 0.080811098 0.0062042968
0.46499053 0.08175873 0.0061985226
0.46501935 0.082706362 0.006192748
0.46504813 0.083653986 0.0061869733
0.46507695 0.084601618 0.0061811986
0.46510574 0.08554925 0.006175424
0.46429664 0.086606555 0.0056175673
0.46432549 0.087555781 0.0056117829
0.46435434 0.088505 0.0056059989
0.46438318 0.089454219 0.0056002145
0.46441203 0.090403438 0.00559443
0.46444088 0.091352664 0.005588646
0.46446973 0.092301883 0.0055828616
0.46449858 0.093251109 0.0055770772
0.46452746 0.094200328 0.0055712932
0.46371883 0.095273562 0.0050133392
0.46374771 0.096224375 0.005007545
0.46377662 0.097175188 0.0050017512
0.46380553 0.098126002 0.004995957
0.4638344 0.099076822 0.0049901633
0.46386331 0.10002764 0.004984369
0.46389222 0.10097845 0.0049785753
0.46308392 0.10206443 0.0044205119
0.46311289 0.10301684 0.0044147079
0.46314183 0.10396925 0.0044089044
0.46317077 0.10492165 0.0044031008
0.46236277 0.10601559 0.0038450265
0.46239176 0.10696959 0.0038392132
0.46242076 0.1079236 0.0038333996
0.46244976 0.10887759 0.0038275863
0.461642 0.10997949 0.0032694577
0.46167105 0.11093508 0.0032636346
0.46170011 0.11189067 0.0032578115
0.46172914 0.11284627 0.0032519884
0.4617582 0.11380186 0.0032461653
0.46178722 0.11475745 0.0032403423
0.46097982 0.1158705 0.0026821459
0.46100891 0.11682768 0.002676313
0.46020159 0.11794552 0.0021180555
0.45855808 0.11922876 0.001007414
0.45607847 0.12068222 -0.00065571046
0.45221978 0.028843597 -0.0019496509
0.45731738 0.030689411 0.0013549997
0.45986575 0.031597983 0.0030074313
0.46157414 0.032515861 0.004107127
0.46244276 0.033447817 0.0046541244
0.46331123 0.034376588 0.0052011115
0.46334007 0.03532581 0.0051953276
0.46336892 0.036275033 0.0051895431
0.46423721 0.037197433 0.0057365666
0.464266 0.038145062 0.0057307919
0.46429482 0.03909269 0.0057250177
0.46432361 0.040040322 0.0057192431
0.46435243 0.04098795 0.0057134684
0.46438122 0.041935578 0.0057076938
0.46441004 0.04288321 0.0057019191
0.46443883 0.043830838 0.0056961444
0.46446764 0.044778466 0.0056903702
0.46449643 0.045726094 0.0056845956
0.46452525 0.046673726 0.0056788209
0.46455404 0.047621354 0.0056730462
0.46458286 0.048568986 0.0056672716
0.46461165 0.049516615 0.0056614969
0.46464047 0.050464243 0.0056557222
0.46466926 0.051411871 0.005649948
0.46469808 0.052359499 0.0056441734
0.46472687 0.053307131 0.0056383987
0.46475565 0.054254763 0.005632624
0.46478447 0.055202387 0.0056268494
0.46565172 0.056091342 0.0061740768
0.46568048 0.057037383 0.0061683119
0.46570924 0.057983417 0.006162547
0.465738 0.058929455 0.0061567822
0.46576676 0.059875488 0.0061510173
0.46579552 0.060821529 0.0061452524
0.46582428 0.061767563 0.0061394875
0.46585301 0.062713601 0.0061337226
0.46588176 0.063659638 0.0061279577
0.46591052 0.064605676 0.0061221928
0.46593928 0.065551713 0.0061164279
0.46596804 0.066497743 0.0061106631
0.46515891 0.067521572 0.0055517796
0.46518773 0.068469204 0.005546005
0.46521652 0.069416828 0.0055402308
0.46524534 0.07036446 0.0055344561
0.46527413 0.071312085 0.0055286814
0.46530294 0.072259717 0.0055229068
0.46533173 0.073207349 0.0055171321
0.46536055 0.074154973 0.0055113574
0.46455187 0.075193129 0.004952387
0.46458071 0.076142348 0.0049466025
0.46460956 0.077091575 0.0049408185
0.46463841 0.078040801 0.0049350341
0.46466726 0.07899002 0.0049292496
0.46469611 0.079939246 0.0049234657
0.46472496 0.080888465 0.0049176812
0.46475384 0.081837684 0.0049118968
0.46478269 0.08278691 0.0049061123
0.46481153 0.083736129 0.0049003283
0.46484038 0.084685355 0.0048945439
0.46486923 0.085634574 0.0048887595
0.46489808 0.086583801 0.0048829755
0.46492693 0.087533019 0.004877191
0.46411899 0.088595062 0.004318072
0.46414787 0.089545876 0.0043122778
0.46417677 0.090496689 0.004306484
0.46420568 0.09144751 0.0043006898
0.46423459 0.092398323 0.004294896
