# .PCD v0.7 - Point Cloud Data file format
VERSION 0.7
FIELDS x y z
SIZE 4 4 4
TYPE F F F
COUNT 1 1 1
WIDTH 1325
HEIGHT 1
VIEWPOINT 0 0 0 1 0 0 0
POINTS 1325
DATA ascii
0.5150426 0.0161641 0.012520757
0.51506931 0.017041652 0.012515409
0.51509595 0.017919205 0.012510061
0.51512265 0.018796757 0.012504714
0.5151493 0.01967431 0.012499366
0.515176 0.020551862 0.012494018
0.51520264 0.021429414 0.012488671
0.51522934 0.022306968 0.012483323
0.51525599 0.023184519 0.012477975
0.51528269 0.024062071 0.012472628
0.51530933 0.024939625 0.01246728
0.51533604 0.025817176 0.012461933
0.51536268 0.02669473 0.012456586
0.51538938 0.027572282 0.012451238
0.51541603 0.028449835 0.01244589
0.51544273 0.029327387 0.012440543
0.51546937 0.030204939 0.012435195
0.51549608 0.031082492 0.012429847
0.51552272 0.031960044 0.0124245
0.51554942 0.032837596 0.012419152
0.51557606 0.033715148 0.012413804
0.51560277 0.034592703 0.012408458
0.51562941 0.035470255 0.01240311
0.51565611 0.036347806 0.012397762
0.51568276 0.037225358 0.012392415
0.51570946 0.03810291 0.012387067
0.5157361 0.038980465 0.012381719
0.51576281 0.039858017 0.012376372
0.51578945 0.040735569 0.012371024
0.51581615 0.041613121 0.012365676
0.51584285 0.042490676 0.012360329
0.5158695 0.043368228 0.012354982
0.5158962 0.04424578 0.012349634
0.51592284 0.045123331 0.012344287
0.51594955 0.046000883 0.012338939
0.51597619 0.046878435 0.012333591
0.51600289 0.04775599 0.012328244
0.51602954 0.048633542 0.012322896
0.51605624 0.049511094 0.012317549
0.51608288 0.050388649 0.012312201
0.51610959 0.051266201 0.012306853
0.51613623 0.052143753 0.012301506
0.51535064 0.053078987 0.011711079
0.51537734 0.053958137 0.011705721
0.51540411 0.054837279 0.011700364
0.51543081 0.055716425 0.011695007
0.51545751 0.056595568 0.011689649
0.51548427 0.057474717 0.011684292
0.51551098 0.05835386 0.011678935
0.51553768 0.059233006 0.011673577
0.51475257 0.060182571 0.011083094
0.51477933 0.061063312 0.011077727
0.51480615 0.061944049 0.011072361
0.51483291 0.062824786 0.011066994
0.51485968 0.063705526 0.011061626
0.51488644 0.064586259 0.011056259
0.5149132 0.065467 0.011050893
0.51493996 0.066347741 0.011045526
0.51496673 0.067228474 0.011040159
0.51418209 0.068193972 0.010449579
0.51420891 0.0690763 0.010444202
0.51423573 0.069958635 0.010438826
0.51426256 0.070840962 0.010433448
0.51428938 0.07172329 0.010428072
0.5143162 0.072605625 0.010422695
0.51434302 0.073487952 0.010417319
0.5135588 0.074466191 0.0098266611
0.51358569 0.075350113 0.0098212752
0.51280153 0.076333128 0.0092305532
0.51120663 0.077420011 0.0080545368
0.51042277 0.078410983 0.0074638017
0.50963902 0.079405144 0.006873047
0.506423 0.080718882 0.0045262207
0.50239664 0.082152411 0.0015939707
0.49918148 0.083493218 -0.00075302075
0.51401043 -0.0093613984 0.011411084
0.51403713 -0.0084822541 0.011405727
0.51406389 -0.0076031093 0.011400369
0.5140906 -0.0067239646 0.011395012
0.5141173 -0.0058448198 0.011389655
0.51414406 -0.0049656751 0.011384297
0.51417077 -0.0040865303 0.01137894
0.51419747 -0.0032073816 0.011373583
0.51422423 -0.0023282368 0.011368225
0.51425093 -0.0014490921 0.011362868
0.51427764 -0.00056994724 0.011357511
0.5143044 0.00030919755 0.011352153
0.5143311 0.0011883423 0.011346797
0.51435781 0.0020674891 0.01134144
0.51438451 0.0029466338 0.011336082
0.51441127 0.0038257786 0.011330725
0.51525187 0.0047348761 0.01191115
0.51527858 0.0056124311 0.011905802
0.51530522 0.0064899819 0.011900455
0.51533192 0.007367535 0.011895107
0.51535857 0.0082450863 0.011889759
0.51538527 0.0091226408 0.011884412
0.51541191 0.010000192 0.011879064
0.51543862 0.010877745 0.011873717
0.51546526 0.011755298 0.01186837
0.51467848 0.012617232 0.011277152
0.51470518 0.013496377 0.011271795
0.51473194 0.014375522 0.011266437
0.51475865 0.015254668 0.01126108
0.51478535 0.016133813 0.011255723
0.51481211 0.017012957 0.011250366
0.51483881 0.017892102 0.011245009
0.51486552 0.018771248 0.011239652
0.51489228 0.019650392 0.011234294
0.51491898 0.020529538 0.011228937
0.51494569 0.021408683 0.01122358
0.51497245 0.022287829 0.011218222
0.51499915 0.023166973 0.011212865
0.51502585 0.024046119 0.011207508
0.51505256 0.024925264 0.01120215
0.51507932 0.02580441 0.011196793
0.51510602 0.026683554 0.011191436
0.51513273 0.0275627 0.011186078
0.51515949 0.028441845 0.011180721
0.51518619 0.029320991 0.011175364
0.51602542 0.0301839 0.011756071
0.51605213 0.031061452 0.011750723
0.51607877 0.031939004 0.011745376
0.51610547 0.032816559 0.011740028
0.51613212 0.033694111 0.01173468
0.51615882 0.034571663 0.011729333
0.51618546 0.035449214 0.011723985
0.51621217 0.036326766 0.011718637
0.51623881 0.037204321 0.01171329
0.51626551 0.038081873 0.011707943
0.51629215 0.038959425 0.011702595
0.51631886 0.039836977 0.011697248
0.5163455 0.040714528 0.0116919
0.5163722 0.04159208 0.011686552
0.51639885 0.042469636 0.011681205
0.51561373 0.043387312 0.011089648
0.51564044 0.044266459 0.01108429
0.5156672 0.045145605 0.011078933
0.5156939 0.046024751 0.011073576
0.51572061 0.046903893 0.011068218
0.51574737 0.04778304 0.011062861
0.51577407 0.048662186 0.011057504
0.51580077 0.049541332 0.011052147
0.51582754 0.050420478 0.01104679
0.51585424 0.05129962 0.011041433
0.51588094 0.052178767 0.011036075
0.5159077 0.053057909 0.011030718
0.51593441 0.053937059 0.011025361
0.51596111 0.054816201 0.011020003
0.51598787 0.055695347 0.011014646
0.51601458 0.05657449 0.011009289
0.51523036 0.057519246 0.010417601
0.51525712 0.058399979 0.010412235
0.51528388 0.05928072 0.010406868
0.51531065 0.060161456 0.0104015
0.51533741 0.061042197 0.010396133
0.51536417 0.061922934 0.010390767
0.51539093 0.062803671 0.0103854
0.51460707 0.06376116 0.0097936383
0.51463389 0.064643495 0.0097882608
0.51466072 0.065525822 0.0097828843
0.51468754 0.06640815 0.0097775077
0.51471436 0.067290485 0.0097721312
0.51474118 0.06817282 0.0097667547
0.514768 0.069055147 0.0097613782
0.51398456 0.070025377 0.0091695357
0.51401138 0.070909306 0.0091641489
0.51403826 0.071793228 0.0091587622
0.51406515 0.07267715 0.0091533763
0.51409203 0.073561072 0.0091479896
0.51411885 0.074444994 0.0091426037
0.5133357 0.075426385 0.0085506579
0.51336259 0.076311901 0.0085452618
0.51176971 0.077398703 0.0073667821
0.51017702 0.078491874 0.0061882637
0.50939429 0.079487599 0.0055962307
0.50618237 0.080802768 0.0032445022
0.50378054 0.082023673 0.0014792401
0.5005694 0.083362728 -0.0008726719
0.51209968 -0.010432816 0.0089756362
0.51375383 -0.0094379503 0.010143897
0.51378059 -0.0085572116 0.01013853
0.51380736 -0.0076764734 0.010133164
0.51383418 -0.0067957351 0.010127797
0.51467437 -0.0058658975 0.010709294
0.51470107 -0.0049867523 0.010703937
0.51472783 -0.0041076075 0.010698579
0.51475453 -0.0032284593 0.010693222
0.51478124 -0.0023493145 0.010687865
0.514808 -0.0014701696 0.010682507
0.5148347 -0.00059102487 0.01067715
0.5148614 0.00028811992 0.010671793
0.51488817 0.0011672647 0.010666436
0.51491487 0.0020464114 0.010661079
0.51494157 0.0029255562 0.010655722
0.51496834 0.0038047009 0.010650364
0.51499504 0.0046838457 0.010645007
0.51502174 0.0055629923 0.01063965
0.51504844 0.0064421371 0.010634292
0.51507521 0.0073212818 0.010628935
0.51510191 0.0082004266 0.010623578
0.51512861 0.0090795737 0.01061822
0.51515538 0.009958718 0.010612863
0.51518208 0.010837863 0.010607506
0.51520878 0.011717009 0.010602148
0.51523554 0.012596155 0.010596791
0.51526225 0.013475299 0.010591434
0.51528895 0.014354444 0.010586077
0.51531571 0.01523359 0.010580719
0.51534241 0.016112735 0.010575362
0.51536912 0.01699188 0.010570006
0.51539588 0.017871024 0.010564648
0.51461047 0.018745663 0.0099721542
0.51463729 0.019626401 0.0099667879
0.51466405 0.020507136 0.0099614207
0.51469082 0.021387875 0.0099560535
0.51471758 0.022268614 0.0099506862
0.51474434 0.023149351 0.00994532
0.51558292 0.024025042 0.010527147
0.51560962 0.024904186 0.01052179
0.51563638 0.025783332 0.010516432
0.51566309 0.026662476 0.010511075
0.51568979 0.027541623 0.010505718
0.51571649 0.028420767 0.01050036
0.51574326 0.029299913 0.010495003
0.51576996 0.030179057 0.010489646
0.51579666 0.031058203 0.010484288
0.51582342 0.03193735 0.010478931
0.51585013 0.032816492 0.010473575
0.51587683 0.033695638 0.010468217
0.51590359 0.034574784 0.01046286
0.51593029 0.03545393 0.010457503
0.515957 0.036333073 0.010452145
0.51598376 0.037212219 0.010446788
0.51601046 0.038091365 0.010441431
0.51603717 0.038970511 0.010436073
0.51606393 0.039849654 0.010430716
0.51609063 0.0407288 0.010425359
0.51611733 0.041607946 0.010420001
0.5161441 0.042487092 0.010414644
0.5161708 0.043366235 0.010409287
0.5161975 0.044245381 0.010403929
0.51622427 0.045124527 0.010398572
0.51625097 0.046003673 0.010393215
0.51627767 0.046882816 0.010387858
0.51630443 0.047761962 0.0103825
0.51633114 0.048641108 0.010377144
0.51635784 0.049520254 0.010371787
0.51638454 0.0503994 0.010366429
0.5164113 0.051278543 0.010361072
0.51643801 0.052157689 0.010355715
0.51646471 0.053036831 0.010350357
0.51568133 0.053975176 0.009757475
0.51570809 0.054855917 0.0097521087
0.51573485 0.05573665 0.0097467415
0.51576161 0.05661739 0.0097413743
0.51578838 0.057498127 0.0097360071
0.51581514 0.058378864 0.0097306408
0.5158419 0.059259605 0.0097252736
0.51505888 0.060210686 0.0091323173
0.5150857 0.061093017 0.0091269407
0.51511252 0.061975349 0.0091215642
0.51513934 0.06285768 0.0091161868
0.51516616 0.063740008 0.0091108102
0.51438344 0.064700648 0.0085177934
0.51441026 0.06558457 0.0085124066
0.51443714 0.066468492 0.0085070198
0.51446402 0.067352414 0.008501634
0.5144909 0.068236344 0.0084962472
0.51451772 0.069120266 0.0084908614
0.51454461 0.070004188 0.0084854746
0.51457149 0.07088811 0.0084800888
0.51459837 0.071772031 0.008474702
0.513816 0.072748609 0.0078815557
0.51384294 0.073634125 0.0078761596
0.51386988 0.074519642 0.0078707635
0.51308781 0.075502574 0.0072776126
0.51311475 0.076389678 0.0072722072
0.5115239 0.077477999 0.0060912506
0.51074213 0.078470491 0.0054980391
0.50915158 0.079569966 0.0043169828
0.50675255 0.080781199 0.002548117
0.50354505 0.08210896 0.00019134251
0.51103437 -0.010568219 0.0071154507
0.51349926 -0.0095145749 0.0088742478
0.51352608 -0.0086322464 0.0088688713
0.51436543 -0.0076975892 0.00945157
0.5143922 -0.006816851 0.0094462028
0.51441896 -0.005936116 0.0094408356
0.51444578 -0.0050553777 0.0094354684
0.51447254 -0.0041746395 0.0094301021
0.51449931 -0.003293897 0.0094247349
0.51452607 -0.0024131625 0.0094193676
0.51455283 -0.001532424 0.0094140004
0.51457959 -0.00065168552 0.0094086342
0.51460636 0.0002290492 0.0094032669
0.51544517 0.0011461871 0.0099860756
0.51547194 0.0020253337 0.0099807177
0.51549864 0.0029044785 0.0099753607
0.51552534 0.0037836232 0.0099700037
0.5155521 0.004662768 0.0099646458
0.51557881 0.0055419146 0.0099592889
0.51560551 0.0064210594 0.0099539319
0.51563227 0.0073002041 0.009948574
0.51565897 0.0081793489 0.009943217
0.51568568 0.009058496 0.0099378601
0.51571238 0.0099376403 0.0099325022
0.51573914 0.010816786 0.0099271452
0.51576585 0.011695932 0.0099217882
0.51498115 0.012559382 0.0093281297
0.51500791 0.013440118 0.0093227625
0.51503468 0.014320857 0.0093173953
0.5150615 0.015201596 0.0093120281
0.51508826 0.016082333 0.0093066618
0.51511502 0.01696307 0.0093012946
0.51514179 0.017843809 0.0092959274
0.51516855 0.018724546 0.0092905601
0.51519531 0.019605285 0.0092851939
0.51522207 0.020486021 0.0092798267
0.51524884 0.02136676 0.0092744594
0.51527566 0.022247497 0.0092690922
0.51530242 0.023128236 0.009263726
0.51532918 0.024008973 0.0092583587
0.51535594 0.024889711 0.0092529915
0.51538271 0.025770448 0.0092476243
0.51540947 0.026651187 0.009242258
0.51543623 0.027531924 0.0092368908
0.51546305 0.028412662 0.0092315236
0.51548982 0.029293401 0.0092261564
0.51632702 0.03015798 0.0098092854
0.51635373 0.031037126 0.0098039284
0.51638043 0.031916272 0.0097985705
0.51640719 0.032795414 0.0097932136
0.51643389 0.03367456 0.0097878566
0.5164606 0.034553707 0.0097824987
0.51648736 0.035432853 0.0097771417
0.51651406 0.036311995 0.0097717848
0.51654077 0.037191141 0.0097664269
0.51656753 0.038070288 0.0097610699
0.51659423 0.038949434 0.0097557129
0.51581103 0.039862256 0.0091617526
0.51583779 0.040742993 0.0091563864
0.51586455 0.04162373 0.0091510192
0.51589137 0.042504467 0.0091456519
0.51591814 0.043385208 0.0091402847
0.5159449 0.044265945 0.0091349185
0.51597166 0.045146681 0.0091295512
0.51599842 0.046027422 0.009124184
0.51602519 0.046908159 0.0091188168
0.51605195 0.047788896 0.0091134505
0.51607877 0.048669633 0.0091080833
0.51610553 0.049550373 0.0091027161
0.5161323 0.05043111 0.0090973489
0.51615906 0.051311847 0.0090919826
0.51618582 0.052192584 0.0090866154
0.51621258 0.053073321 0.0090812482
0.51623935 0.053954061 0.009075881
0.51626611 0.054834798 0.0090705147
0.51629293 0.055715535 0.0090651475
0.51631969 0.056596275 0.0090597803
0.5155375 0.057542544 0.0084656198
0.51556432 0.058424871 0.0084602432
0.51559114 0.059307203 0.0084548667
0.51561797 0.060189534 0.0084494902
0.51483601 0.061143767 0.0078552812
0.5148629 0.062027689 0.0078498945
0.51488978 0.062911607 0.0078445077
0.5149166 0.063795529 0.0078391219
0.51494348 0.064679459 0.0078337351
0.51497036 0.065563381 0.0078283492
0.51499724 0.066447303 0.0078229625
0.51502407 0.067331225 0.0078175757
0.51424253 0.068299793 0.0072232448
0.51426947 0.069185309 0.0072178487
0.51429635 0.070070826 0.0072124526
0.51432329 0.070956342 0.0072070565
0.51435018 0.071841858 0.0072016604
0.51437712 0.072727375 0.0071962643
0.51359594 0.073707089 0.0066018999
0.51362294 0.0745942 0.006596494
0.51364988 0.075481303 0.0065910881
0.51286888 0.076467387 0.005996685
0.51128018 0.077557221 0.0048132553
0.51049936 0.078551278 0.0042187688
0.50891095 0.079652257 0.0030352683
0.50651497 0.080864973 0.0012626607
0.50331151 0.082194172 -0.0010990539
0.50997311 -0.010703768 0.0052503697
0.51243508 -0.0096468274 0.0070128096
0.5132736 -0.0087073529 0.0075967475
0.51330048 -0.0078234309 0.0075913612
0.51413882 -0.0068887398 0.008175293
0.51416564 -0.0060064076 0.0081699165
0.5141924 -0.0051240791 0.0081645399
0.51421922 -0.0042417469 0.0081591634
0.51505733 -0.0033150129 0.0087431436
0.51508415 -0.0024342781 0.0087377764
0.51511091 -0.0015535397 0.0087324101
0.51513767 -0.00067280128 0.0087270429
0.51516443 0.00020793345 0.0087216757
0.5151912 0.0010886719 0.0087163085
0.51521796 0.0019694122 0.0087109422
0.51524472 0.0028501488 0.008705575
0.51527148 0.0037308855 0.0087002078
0.51529831 0.0046116239 0.0086948406
0.51532507 0.0054923622 0.0086894743
0.51535183 0.0063731009 0.0086841071
0.51537859 0.0072538373 0.0086787399
0.51540536 0.0081345756 0.0086733727
0.51543212 0.0090153143 0.0086680064
0.51545888 0.009896053 0.0086626392
0.5154857 0.010776789 0.008657272
0.51551247 0.011657528 0.0086519048
0.51553923 0.012538266 0.0086465385
0.51556599 0.013419002 0.0086411713
0.51559275 0.014299741 0.0086358041
0.51561952 0.01518048 0.0086304368
0.51483607 0.016051855 0.0080354996
0.5148629 0.016934184 0.0080301231
0.51488972 0.017816516 0.0080247466
0.51491654 0.018698845 0.0080193691
0.51494336 0.019581176 0.0080139926
0.51497018 0.020463508 0.008008616
0.51499701 0.021345839 0.0080032395
0.51502383 0.022228168 0.007997863
0.51505065 0.0231105 0.0079924865
0.51507747 0.023992829 0.007987109
0.51510429 0.024875158 0.0079817325
0.51513112 0.02575749 0.007976356
0.51596755 0.02663007 0.0085606668
0.51599431 0.027510809 0.0085552996
0.51602107 0.028391548 0.0085499324
0.51604784 0.029272284 0.0085445652
0.5160746 0.030153023 0.0085391989
0.51610142 0.03103376 0.0085338317
0.51612818 0.031914499 0.0085284645
0.51615494 0.032795236 0.0085230973
0.51618171 0.033675972 0.008517731
0.51620847 0.034556713 0.0085123638
0.51623523 0.03543745 0.0085069966
0.51626199 0.036318187 0.0085016293
0.51628876 0.037198924 0.0084962631
0.51631558 0.038079664 0.0084908959
0.51634234 0.038960401 0.0084855286
0.5163691 0.039841138 0.0084801624
0.51639587 0.040721878 0.0084747951
0.51642263 0.041602615 0.0084694279
0.51644939 0.042483352 0.0084640607
0.51647615 0.043364089 0.0084586944
0.51650298 0.04424483 0.0084533272
0.51652974 0.045125566 0.00844796
0.5165565 0.046006303 0.0084425928
0.51658326 0.046887044 0.0084372265
0.51661003 0.047767781 0.0084318593
0.51663679 0.048648518 0.0084264921
0.51666355 0.049529258 0.0084211249
0.51669031 0.050409995 0.0084157586
0.51671714 0.051290732 0.0084103914
0.51593566 0.052227404 0.0078150555
0.51596248 0.053109735 0.007809679
0.5159893 0.053992067 0.007804302
0.51601613 0.054874394 0.0077989255
0.51604295 0.055756725 0.007793549
0.51606977 0.056639057 0.007788172
0.51609659 0.057521388 0.0077827955
0.51531547 0.058470801 0.0071873823
0.51534235 0.059354726 0.007181996
0.51536924 0.060238648 0.0071766092
0.51539612 0.061122574 0.0071712229
0.51542294 0.062006496 0.0071658366
0.51544982 0.062890418 0.0071604503
0.51466906 0.063850984 0.0065649343
0.51469594 0.0647365 0.0065595382
0.51472288 0.065622017 0.0065541421
0.51474977 0.066507533 0.006548746
0.51477671 0.06739305 0.0065433499
0.51480365 0.068278566 0.0065379539
0.51402324 0.069250278 0.0059424047
0.51405019 0.070137389 0.0059369989
0.51407713 0.071024492 0.005931593
0.51410413 0.071911603 0.0059261872
0.51413107 0.072798714 0.0059207813
0.51415807 0.073685817 0.0059153754
0.51418501 0.074572928 0.0059099696
0.51340503 0.075557381 0.0053143459
0.5126251 0.076545022 0.0047186995
0.51184529 0.077535838 0.004123034
0.51025867 0.078631975 0.002937064
0.50867236 0.079734482 0.0017510901
0.50627941 0.080948666 -2.522435e-05
0.50388676 0.082172409 -0.0018015999
0.5089159 -0.010839475 0.0033803224
0.51137489 -0.0097792316 0.0051464764
0.51302308 -0.0087825423 0.006322124
0.51386052 -0.0078446232 0.0069073034
0.51388741 -0.0069607012 0.006901917
0.51391429 -0.0060767792 0.0068965307
0.51394111 -0.0051928572 0.0068911444
0.51477832 -0.0042629009 0.0074763373
0.51480514 -0.0033805689 0.0074709607
0.51483196 -0.0024982407 0.0074655837
0.51485878 -0.0016159085 0.0074602072
0.5148856 -0.00073358015 0.0074548307
0.51491243 0.00014875198 0.0074494537
0.51493925 0.0010310804 0.0074440772
0.51496607 0.0019134125 0.0074387006
0.5158028 0.002829033 0.008023981
0.51582956 0.0037097696 0.0080186138
0.51585633 0.0045905081 0.0080132466
0.51588309 0.0054712463 0.0080078803
0.51590991 0.006351985 0.0080025131
0.51593667 0.0072327214 0.0079971459
0.51596344 0.0081134597 0.0079917787
0.5159902 0.0089941984 0.0079864124
0.51601696 0.0098749371 0.0079810452
0.51604372 0.010755673 0.007975678
0.51607049 0.011636412 0.0079703107
0.51528788 0.012501379 0.0073741805
0.5153147 0.013383709 0.0073688035
0.51534152 0.014266039 0.007363427
0.51536834 0.015148371 0.0073580504
0.51539516 0.016030703 0.0073526734
0.51461279 0.016905224 0.0067564845
0.51463968 0.017789146 0.0067510982
0.51466656 0.01867307 0.0067457119
0.51469344 0.019556994 0.0067403256
0.51472026 0.020440916 0.0067349388
0.51474714 0.021324839 0.0067295525
0.51477402 0.022208763 0.0067241662
0.51480091 0.023092685 0.0067187799
0.51482773 0.023976609 0.0067133936
0.51485461 0.024860531 0.0067080073
0.51488149 0.025744455 0.0067026205
0.51571697 0.026618667 0.0072881533
0.51574379 0.027500996 0.0072827768
0.51577061 0.028383328 0.0072774002
0.51579744 0.029265659 0.0072720232
0.51582426 0.030147988 0.0072666467
0.51585108 0.03103032 0.0072612702
0.5158779 0.031912651 0.0072558932
0.51590472 0.032794978 0.0072505167
0.51593155 0.03367731 0.0072451402
0.51595837 0.034559641 0.0072397632
0.51598513 0.035441972 0.0072343866
0.51601195 0.036324304 0.0072290101
0.51603878 0.037206631 0.0072236331
0.5160656 0.038088962 0.0072182566
0.51609242 0.038971294 0.0072128801
0.51611924 0.039853625 0.0072075031
0.51614606 0.040735956 0.0072021266
0.51617289 0.041618284 0.00719675
0.51619971 0.042500615 0.007191373
0.51622653 0.043382946 0.0071859965
0.51625335 0.044265278 0.00718062
0.51628017 0.045147605 0.007175243
0.516307 0.046029937 0.0071698665
0.51633382 0.046912268 0.0071644899
0.51636064 0.047794599 0.007159113
0.51638746 0.048676927 0.0071537364
0.51641428 0.049559262 0.0071483599
0.51644111 0.050441589 0.0071429829
0.51646787 0.05132392 0.0071376064
0.51649469 0.052206252 0.0071322299
0.51571435 0.053146072 0.0065356428
0.51574123 0.054029997 0.0065302565
0.51576811 0.054913919 0.0065248702
0.51579499 0.055797841 0.0065194834
0.51582181 0.056681763 0.0065140971
0.5158487 0.057565689 0.0065087108
0.51587558 0.058449611 0.0065033245
0.51590246 0.059333533 0.0064979382
0.51512247 0.060287692 0.0059012291
0.51514935 0.061173208 0.005895833
0.5151763 0.062058724 0.0058904369
0.51520324 0.062944241 0.0058850404
0.51523012 0.063829757 0.0058796448
0.51445049 0.064793468 0.0052829105
0.51447749 0.065680571 0.0052775047
0.51450443 0.066567682 0.0052720988
0.51453137 0.067454793 0.0052666934
0.51455837 0.068341903 0.0052612876
0.51458532 0.069229007 0.0052558817
0.51461226 0.070116118 0.0052504758
0.51463926 0.071003221 0.00524507
0.51386005 0.071981266 0.0046482501
0.51388705 0.072869971 0.0046428344
0.51391411 0.073758677 0.0046374192
0.51394111 0.074647374 0.0046320036
0.51316214 0.075633384 0.0040351353
0.51238328 0.076622576 0.0034382476
0.51160449 0.077614956 0.0028413055
0.51002002 0.078712605 0.0016528968
0.50843573 0.079816617 0.00046444795
0.50604588 0.081032284 -0.0013155761
0.50867236 -0.010918113 0.0020971228
0.51193804 -0.0098005384 0.0044587199
0.51277459 -0.0088578062 0.0050450671
0.51361108 -0.007918261 0.0056314352
0.51363796 -0.0070327451 0.0056260391
0.51447433 -0.0060979715 0.0062124715
0.51450121 -0.0052140495 0.0062070852
0.5145281 -0.004330127 0.0062016984
0.51455492 -0.0034461978 0.0061963121
0.5145818 -0.0025622756 0.0061909258
0.51460868 -0.0016783536 0.0061855395
0.51463556 -0.0007944316 0.0061801532
0.51466238 8.9490408e-05 0.0061747669
0.51468927 0.00097341242 0.0061693802
0.5155251 0.0018922584 0.0067558731
0.51555192 0.0027745888 0.0067504966
0.51557875 0.0036569189 0.0067451196
0.51560557 0.004539249 0.0067397431
0.51563239 0.0054215812 0.0067343665
0.51565921 0.0063039116 0.0067289895
0.51568604 0.0071862419 0.006723613
0.51571286 0.0080685699 0.0067182365
0.51573968 0.0089509021 0.0067128595
0.5157665 0.0098332325 0.006707483
0.51579332 0.010715563 0.0067021064
0.51582015 0.011597895 0.0066967295
0.51584697 0.012480225 0.0066913529
0.51506543 0.013348337 0.006093971
0.51509231 0.014232262 0.0060885847
0.51511914 0.015116186 0.0060831984
0.51514602 0.016000107 0.0060778116
0.5151729 0.016884031 0.0060724253
0.51519978 0.017767955 0.006067039
0.51441854 0.018647216 0.0054695527
0.51444542 0.019532733 0.0054641566
0.51447237 0.020418247 0.0054587605
0.51449925 0.021303764 0.0054533645
0.51452619 0.02218928 0.0054479684
0.51455307 0.023074796 0.0054425723
0.51538783 0.023955416 0.0060293344
0.51541471 0.02483934 0.0060239481
0.51544154 0.025723262 0.0060185613
0.51546842 0.026607186 0.006013175
0.5154953 0.027491108 0.0060077887
0.51552218 0.028375031 0.0060024024
0.515549 0.029258955 0.0059970161
0.51557589 0.030142877 0.0059916298
0.51560277 0.031026801 0.005986243
0.51562965 0.031910725 0.0059808567
0.51646376 0.032773826 0.0065676891
0.51649058 0.033656158 0.0065623126
0.51571023 0.034562495 0.0059646978
0.51654422 0.035420816 0.0065515591
0.51576394 0.036330339 0.0059539247
0.51579082 0.037214264 0.0059485384
0.5158177 0.038098186 0.0059431521
0.51584458 0.038982108 0.0059377658
0.51587141 0.039866034 0.0059323795
0.51589829 0.040749956 0.0059269927
0.51592517 0.041633878 0.0059216064
0.51595205 0.042517804 0.0059162201
0.51597887 0.043401726 0.0059108338
0.51600575 0.044285648 0.0059054475
0.51603264 0.04516957 0.0059000612
0.51605952 0.046053495 0.0058946745
0.51608634 0.046937417 0.0058892881
0.51611322 0.047821339 0.0058839018
0.5161401 0.048705265 0.0058785155
0.51616699 0.049589187 0.0058731292
0.51619387 0.050473113 0.0058677429
0.51622069 0.051357035 0.0058623562
0.51624757 0.052240957 0.0058569699
0.51627445 0.053124879 0.0058515836
0.51630133 0.054008804 0.0058461973
0.51632816 0.054892726 0.0058408109
0.51635504 0.055776648 0.0058354246
0.51557589 0.056724399 0.0052375207
0.51560283 0.057609916 0.0052321246
0.51562971 0.058495428 0.0052267285
0.51565665 0.059380945 0.0052213324
0.51568353 0.060266461 0.0052159363
0.51490474 0.061223764 0.0046180096
0.51493168 0.062110871 0.0046126037
0.51495868 0.062997982 0.0046071978
0.51498562 0.063885085 0.004601792
0.51501262 0.064772196 0.0045963861
0.51503956 0.065659307 0.0045909802
0.5150665 0.066546418 0.0045855744
0.51509351 0.067433521 0.004580169
0.51431513 0.068405159 0.003982156
0.51434213 0.069293857 0.0039767404
0.51436913 0.070182562 0.0039713248
0.51439613 0.07107126 0.0039659096
0.51442313 0.071959957 0.003960494
0.51364505 0.072941154 0.0033624214
0.51367211 0.073831454 0.003356996
0.51369917 0.074721746 0.0033515708
0.51292127 0.075709306 0.0027534596
0.51294839 0.076601192 0.0027480246
0.51136577 0.077693991 0.001557145
0.50978333 0.078793146 0.00036626155
0.50820106 0.079898693 -0.00082469714
0.5051688 -0.012128895 -0.0015549791
0.51088393 -0.0099331746 0.002584991
0.51252812 -0.0089331456 0.0037655483
0.51336366 -0.0079919687 0.0043531386
0.51419908 -0.0070539755 0.0049407482
0.51422596 -0.00616846 0.0049353521
0.5142529 -0.0052829441 0.004929956
0.51427978 -0.0043974286 0.00492456
0.51430672 -0.0035119092 0.0049191639
0.5151419 -0.0025834679 0.0055068666
0.51516873 -0.0016995459 0.0055014803
0.51519561 -0.00081562385 0.005496094
0.51522249 6.8298199e-05 0.0054907077
0.51524937 0.00095222023 0.0054853209
0.51527619 0.001836146 0.0054799346
0.51530308 0.002720068 0.0054745483
0.51532996 0.0036039918 0.005469162
0.51535684 0.004487914 0.0054637757
0.51538366 0.0053718379 0.0054583894
0.51541054 0.0062557617 0.0054530026
0.51543742 0.0071396837 0.0054476163
0.51546431 0.0080236057 0.00544223
0.51549119 0.0089075314 0.0054368437
0.51551801 0.0097914534 0.0054314574
0.51554489 0.010675375 0.0054260711
0.51557177 0.011559301 0.0054206843
0.51559865 0.012443223 0.005415298
0.51562548 0.013327146 0.0054099117
0.51565236 0.01421107 0.0054045254
0.51487195 0.015083924 0.0048058461
0.51489884 0.015969438 0.0048004501
0.51492578 0.016854953 0.004795054
0.51495272 0.017740471 0.0047896579
0.5149796 0.018625986 0.0047842618
0.51500654 0.019511502 0.0047788657
0.51503342 0.020397017 0.0047734696
0.51425344 0.021282613 0.004174747
0.51508725 0.02216805 0.004762677
0.51511419 0.023053566 0.0047572809
0.51514107 0.023939081 0.0047518848
0.51516801 0.024824597 0.0047464888
0.51519495 0.025710113 0.0047410927
0.51522183 0.026595628 0.0047356966
0.51524878 0.027481144 0.0047303005
0.51527566 0.028366661 0.0047249044
0.51610911 0.029237762 0.0053129569
0.51613599 0.030121686 0.0053075706
0.51616281 0.03100561 0.0053021838
0.51618969 0.031889532 0.0052967975
0.51621658 0.032773454 0.0052914112
0.51624346 0.033657379 0.0052860249
0.51627028 0.034541301 0.0052806386
0.51629716 0.035425223 0.0052752523
0.51632404 0.036309149 0.0052698655
0.51635092 0.037193071 0.0052644792
0.51637775 0.038076993 0.0052590929
0.51640463 0.038960919 0.0052537066
0.51643151 0.039844841 0.0052483203
0.51645839 0.040728763 0.005242934
0.51648521 0.041612685 0.0052375472
0.5165121 0.04249661 0.0052321609
0.51653898 0.043380532 0.0052267746
0.51656586 0.044264454 0.0052213883
0.51659274 0.04514838 0.005216002
0.51581401 0.046076979 0.0046169828
0.51584089 0.046962492 0.0046115867
0.51586783 0.047848009 0.0046061906
0.51589471 0.048733525 0.0046007945
0.51592165 0.049619041 0.0045953984
0.51594859 0.050504558 0.0045900024
0.51597548 0.051390074 0.0045846063
0.51600242 0.052275591 0.0045792102
0.5160293 0.053161103 0.0045738141
0.51605624 0.05404662 0.004568418
0.51608312 0.054932136 0.0045630219
0.51611006 0.055817652 0.0045576259
0.51533204 0.05676695 0.0039585154
0.51535898 0.05765406 0.0039531095
0.51538593 0.058541171 0.0039477036
0.51541293 0.059428278 0.0039422982
0.51543987 0.060315385 0.0039368924
0.51546681 0.061202496 0.0039314865
0.51549381 0.062089603 0.0039260807
0.51552075 0.06297671 0.0039206748
0.51474315 0.063940346 0.0033214772
0.51477015 0.064829051 0.0033160616
0.51479715 0.065717749 0.0033106462
0.51482421 0.066606447 0.0033052308
0.51485121 0.067495152 0.0032998151
0.51487821 0.06838385 0.0032943997
0.51410097 0.069358632 0.0026951339
0.51412803 0.070248924 0.0026897087
0.51415509 0.071139216 0.0026842835
0.51418215 0.072029509 0.0026788583
0.51420921 0.072919816 0.0026734332
0.51423627 0.073810108 0.002668008
0.51426333 0.0747004 0.0026625828
0.51348644 0.075687923 0.0020632395
0.51190567 0.076777458 0.00086991274
0.51112902 0.077772945 0.00027052092
0.50954872 0.078873627 -0.00092283747
0.51064146 -0.010010259 0.001300515
0.51228368 -0.0090085613 0.002483564
0.51311827 -0.0080657527 0.0030723766
0.51395267 -0.0071261278 0.0036612097
0.51397967 -0.0062390184 0.0036558041
0.51400661 -0.0053519132 0.0036503982
0.51403362 -0.0044648037 0.0036449924
0.51486778 -0.0035331394 0.004233873
0.51489472 -0.0026476237 0.0042284769
0.51492161 -0.0017621081 0.0042230808
0.51494855 -0.00087659236 0.0042176847
0.51497549 8.9233481e-06 0.0042122887
0.51500237 0.00089443906 0.0042068926
0.51502931 0.0017799548 0.004201496
0.51505619 0.0026654704 0.0041960999
0.51508313 0.0035509861 0.0041907039
0.51591688 0.0044667218 0.0047797179
0.51594377 0.0053506456 0.0047743316
0.51597065 0.0062345695 0.0047689453
0.51599753 0.0071184915 0.0047635585
0.51602435 0.0080024134 0.0047581722
0.51605123 0.0088863391 0.0047527859
0.51607811 0.0097702611 0.0047473996
0.516105 0.010654183 0.0047420133
0.51532537 0.011520629 0.0041421391
0.51535231 0.012406145 0.004136743
0.51537919 0.013291661 0.0041313469
0.51540613 0.014177176 0.0041259509
0.51543301 0.015062694 0.0041205548
0.51465374 0.015938694 0.0035206592
0.51468074 0.016825803 0.0035152533
0.51470768 0.017712912 0.0035098474
0.51473469 0.018600019 0.0035044418
0.51476163 0.019487128 0.003499036
0.51478857 0.020374237 0.0034936301
0.51481557 0.021261344 0.0034882242
0.51484251 0.022148453 0.0034828186
0.51486945 0.023035562 0.0034774127
0.51489645 0.023922669 0.0034720069
0.51492339 0.024809778 0.0034666013
0.51495039 0.025696887 0.0034611954
0.51497734 0.026583996 0.0034557895
0.51580983 0.027459914 0.0040450096
0.51583678 0.02834543 0.0040396135
0.51586366 0.029230947 0.0040342174
0.5158906 0.030116461 0.0040288214
0.51591748 0.031001978 0.0040234253
0.51594442 0.031887494 0.0040180292
0.51597136 0.03277301 0.0040126331
0.51599824 0.033658527 0.004007237
0.51602519 0.03454404 0.0040018409
0.51605207 0.035429556 0.0039964449
0.51607901 0.036315072 0.0039910488
0.51610589 0.037200589 0.0039856527
0.51613283 0.038086105 0.0039802566
0.51615977 0.038971622 0.0039748605
0.51618665 0.039857138 0.0039694645
0.5162136 0.040742654 0.0039640684
0.51624048 0.041628167 0.0039586723
0.51626742 0.042513683 0.0039532762
0.5162943 0.0433992 0.0039478801
0.51632124 0.044284716 0.003942484
0.51634818 0.045170233 0.003937088
0.51637506 0.046055749 0.0039316919
0.51640201 0.046941262 0.0039262958
0.51642889 0.047826778 0.0039208997
0.51645583 0.048712295 0.0039155036
0.51567841 0.049648818 0.0033152387
0.51570535 0.050535925 0.0033098331
0.51573235 0.051423032 0.0033044273
0.51575929 0.052310143 0.0032990214
0.51578623 0.05319725 0.0032936158
0.51581323 0.054084361 0.0032882099
0.51584017 0.054971468 0.003282804
0.51586711 0.055858575 0.0032773982
0.51589411 0.056745682 0.0032719926
0.51592106 0.057632793 0.0032665867
0.51594806 0.0585199 0.0032611808
0.515975 0.059407007 0.0032557752
0.51519823 0.060364235 0.002655383
0.51522523 0.061252937 0.0026499673
0.51525223 0.062141635 0.0026445519
0.51527923 0.06303034 0.0026391365
0.51530623 0.063919038 0.0026337209
0.51533329 0.064807743 0.0026283055
0.51455683 0.06577611 0.0020278466
0.51458389 0.066666409 0.0020224215
0.51461095 0.067556702 0.0020169963
0.51463801 0.068446994 0.0020115711
0.51466507 0.069337286 0.0020061459
0.51469213 0.070227578 0.0020007207
0.51471919 0.071117878 0.0019952955
0.51394314 0.072098985 0.0013947578
0.5139702 0.072990879 0.0013893228
0.51399732 0.073882766 0.0013838878
0.51402444 0.074774653 0.001378453
0.51324856 0.075763732 0.00077783177
0.51247281 0.076755993 0.00017722751
0.51089436 0.077851824 -0.001018567
0.51040101 -0.010087422 1.3610093e-05
0.51204127 -0.0090840543 0.0011991146
0.5128749 -0.0081396131 0.0017891506
0.51370835 -0.0071983566 0.0023792046
0.51454175 -0.006260287 0.0029692797
0.51456875 -0.0053731813 0.0029638738
0.51459569 -0.0044860723 0.0029584679
0.51462263 -0.0035989592 0.0029530623
0.51464963 -0.0027118535 0.0029476564
0.51467657 -0.0018247442 0.0029422506
0.51470357 -0.00093763851 0.0029368449
0.51473051 -5.0529132e-05 0.0029314391
0.51475745 0.00083658024 0.0029260332
0.51478446 0.0017236896 0.0029206274
0.51561731 0.0026442402 0.003510809
0.51564419 0.0035297559 0.003505413
0.51567113 0.0044152713 0.0035000169
0.51569802 0.0053007873 0.0034946208
0.51572496 0.0061863028 0.0034892247
0.5157519 0.0070718187 0.0034838286
0.51577878 0.0079573346 0.0034784325
0.51580572 0.008842852 0.0034730365
0.5158326 0.0097283674 0.0034676404
0.51585954 0.010613881 0.0034622443
0.51588643 0.011499399 0.0034568482
0.51510799 0.012368991 0.0028557579
0.51513499 0.0132561 0.0028503521
0.51516193 0.014143207 0.0028449462
0.51518887 0.015030317 0.0028395406
0.51521587 0.015917424 0.0028341347
0.51524282 0.016804533 0.0028287289
0.51526982 0.017691642 0.002823323
0.51529676 0.018578749 0.0028179174
0.5153237 0.019465858 0.0028125115
0.5153507 0.020352967 0.0028071057
0.51537764 0.021240076 0.0028017
0.51540458 0.022127185 0.0027962942
0.51543158 0.023014292 0.0027908883
0.51545852 0.023901401 0.0027854824
0.51548553 0.02478851 0.0027800768
0.51551247 0.025675617 0.002774671
0.51553941 0.026562726 0.0027692651
0.51556641 0.027449835 0.0027638595
0.51559335 0.028336944 0.0027584536
0.51562029 0.029224051 0.0027530477
0.51564729 0.03011116 0.0027476419
0.51567423 0.030998269 0.0027422362
0.51570123 0.031885378 0.0027368304
0.51572818 0.032772485 0.0027314245
0.51575512 0.033659596 0.0027260189
0.51578212 0.034546703 0.002720613
0.51580906 0.03543381 0.0027152072
0.51583606 0.036320921 0.0027098013
0.515863 0.037208028 0.0027043957
0.51588994 0.038095135 0.0026989898
0.51591694 0.038982246 0.002693584
0.51594388 0.039869353 0.0026881783
0.51597083 0.040756464 0.0026827725
0.51599783 0.041643571 0.0026773666
0.51602477 0.042530678 0.0026719607
0.51605177 0.043417789 0.0026665551
0.51607871 0.044304896 0.0026611493
0.51610565 0.045192003 0.0026557434
0.51613265 0.046079114 0.0026503378
0.51615959 0.046966221 0.0026449319
0.51618654 0.047853332 0.002639526
0.51621354 0.048740439 0.0026341202
0.51624048 0.04962755 0.0026287145
0.51626748 0.050514657 0.0026233087
0.51629442 0.051401764 0.0026179028
0.51632136 0.052288871 0.0026124972
0.51554519 0.053233318 0.0020109506
0.51557225 0.05412202 0.0020055352
0.51559925 0.055010721 0.0020001195
0.51562625 0.055899423 0.0019947041
0.51565325 0.056788124 0.0019892887
0.51568025 0.057676826 0.0019838731
0.51570731 0.058565527 0.0019784577
0.51573431 0.059454225 0.001973042
0.51576132 0.060342927 0.0019676266
0.51578832 0.061231632 0.0019622112
0.51501268 0.062193595 0.0013605594
0.51503974 0.063083887 0.0013551342
0.5150668 0.063974179 0.001349709
0.51509386 0.064864472 0.0013442838
0.51512092 0.065754771 0.0013388586
0.51514798 0.066645063 0.0013334334
0.51517504 0.067535356 0.0013280081
0.51439977 0.068510063 0.00072627736
0.51442689 0.06940195 0.00072084245
0.51445401 0.070293836 0.00071540754
0.51448113 0.071185723 0.00070997264
0.51450825 0.072077602 0.00070453773
0.51453537 0.072969496 0.00069910276
0.51376039 0.073955357 9.7267664e-05
0.51378751 0.074848838 9.1823036e-05
0.51301277 0.075839467 -0.00051000481
0.51223809 0.076833285 -0.0011118521
0.51016259 -0.010164657 -0.0012757614
0.51180083 -0.0091596255 -8.7837718e-05
0.513439 -0.008160959 0.0011001597
0.5142715 -0.0072196634 0.0016914485
0.5142985 -0.0063309642 0.001686033
0.5143255 -0.005442265 0.0016806175
0.5143525 -0.004553562 0.0016752019
0.5143795 -0.0036648589 0.0016697864
0.5152117 -0.0027331221 0.002261132
0.5152387 -0.0018460127 0.0022557261
0.51526564 -0.00095890707 0.0022503205
0.51529258 -7.1797716e-05 0.0022449146
0.51531959 0.00081531162 0.0022395088
0.51534653 0.001702421 0.0022341032
0.51537347 0.0025895284 0.0022286973
0.51540047 0.003476636 0.0022232914
0.51542741 0.0043637455 0.0022178856
0.51545441 0.0052508549 0.0022124799
0.51548135 0.006137962 0.0022070741
0.51550829 0.0070250714 0.0022016682
0.5155353 0.0079121795 0.0021962626
0.51556224 0.0087992884 0.0021908567
0.51558924 0.0096863955 0.0021854509
0.51561618 0.010573505 0.002180045
0.51564312 0.011460614 0.0021746394
0.51567012 0.012347722 0.0021692335
0.51569706 0.013234831 0.0021638277
0.515724 0.014121938 0.002158422
0.515751 0.015009048 0.0021530162
0.51497382 0.015886564 0.0015506455
0.51500082 0.016775265 0.0015452299
0.51502782 0.017663969 0.0015398144
0.51505482 0.018552668 0.001534399
0.51508182 0.01944137 0.0015289835
0.51510888 0.02033007 0.0015235679
0.51513588 0.021218771 0.0015181524
0.51516289 0.022107473 0.0015127369
0.51518989 0.022996174 0.0015073214
0.51521689 0.023884876 0.001501906
0.51524395 0.024773575 0.0014964904
0.51527095 0.025662277 0.0014910749
0.51529795 0.026550978 0.0014856594
0.51532495 0.02743968 0.001480244
0.51535195 0.02832838 0.0014748285
0.51618242 0.029202783 0.0020665233
0.51620936 0.030089892 0.0020611177
0.51623636 0.030977 0.0020557118
0.51626331 0.03186411 0.0020503059
0.51629025 0.032751217 0.0020449001
0.51631725 0.033638325 0.0020394945
0.51634419 0.034525435 0.0020340886
0.51637119 0.035412543 0.0020286827
0.51639813 0.03629965 0.0020232771
0.51642507 0.03718676 0.0020178712
0.51645207 0.038073868 0.0020124654
0.51647902 0.038960978 0.0020070595
0.51650596 0.039848085 0.0020016539
0.51653296 0.040735193 0.001996248
0.5165599 0.041622303 0.0019908422
0.5165869 0.042509411 0.0019854365
0.51661384 0.043396518 0.0019800307
0.51664078 0.044283628 0.0019746248
0.51666778 0.045170736 0.001969219
0.51589221 0.046102405 0.0013665184
0.51591921 0.046991102 0.0013611029
0.51594627 0.047879804 0.0013556874
0.51597327 0.048768505 0.0013502719
0.51600027 0.049657207 0.0013448563
0.51602727 0.050545909 0.0013394409
0.51605427 0.05143461 0.0013340254
0.51608127 0.052323312 0.0013286099
0.51610833 0.053212009 0.0013231944
0.51613533 0.054100715 0.0013177788
0.5153603 0.0550499 0.00071497005
0.51538736 0.055940192 0.00070954487
0.51541442 0.056830484 0.00070411962
0.51544148 0.05772078 0.00069869444
0.51546854 0.058611073 0.00069326919
0.5154956 0.059501369 0.000687844
0.51552266 0.060391661 0.00068241882
0.51554972 0.061281957 0.00067699357
0.51557678 0.062172249 0.00067156838
0.51560384 0.063062541 0.0006661432
0.5156309 0.063952833 0.00066071795
0.51485646 0.064921133 5.7794088e-05
0.51488358 0.06581302 5.2359195e-05
0.5149107 0.066704907 4.6924284e-05
0.51493782 0.067596793 4.1489373e-05
0.51496494 0.06848868 3.6054458e-05
0.514992 0.069380566 3.0619547e-05
0.51501912 0.070272453 2.5184634e-05
0.51424503 0.071253493 -0.00057785324
0.51427221 0.072146975 -0.00058329786
0.51429933 0.073040456 -0.00058874249
0.51432651 0.073933937 -0.00059418712
0.51355273 0.074922934 -0.0011972372
0.512779 0.075915121 -0.001800308
0.51073068 -0.010186154 -0.00196968
0.51236701 -0.0091810469 -0.00077929103
0.51319867 -0.008234934 -0.00018676462
0.51403016 -0.0072920104 0.00040574634
0.51405722 -0.0064017177 0.00040032115
0.51408428 -0.0055114245 0.00039489593
0.51411134 -0.0046211318 0.00038947075
0.51494265 -0.0036861657 0.00098203018
0.51496965 -0.0027974662 0.00097661465
0.51499665 -0.0019087633 0.00097119919
0.51502365 -0.001020064 0.00096578372
0.51505065 -0.000131361 0.0009603682
0.51507771 0.0007573383 0.00095495273
0.51510471 0.0016460413 0.00094953721
0.51513171 0.0025347406 0.00094412168
0.51515871 0.0034234417 0.00093870622
0.51518571 0.0043121427 0.00093329069
0.51601648 0.0052295863 0.0015259569
0.51604342 0.0061166938 0.0015205512
0.51607043 0.0070038028 0.0015151453
0.51609737 0.0078909108 0.0015097396
0.51612431 0.0087780198 0.0015043338
0.51615131 0.0096651269 0.0014989279
0.51617825 0.010552237 0.0014935222
0.51540184 0.011421754 0.00088996667
0.51542884 0.012310454 0.00088455121
0.51545584 0.013199154 0.00087913568
0.5154829 0.014087856 0.00087372016
0.5155099 0.014976558 0.00086830469
0.5155369 0.015865257 0.00086288917
0.51556391 0.016753959 0.0008574737
0.51478785 0.017636215 0.00025384055
0.51481491 0.018526509 0.00024841537
0.51484197 0.019416803 0.00024299015
0.51486903 0.020307098 0.00023756495
0.51489609 0.021197392 0.00023213973
0.51492316 0.022087684 0.00022671453
0.51495022 0.02297798 0.00022128932
0.51497728 0.023868272 0.00021586411
0.51580703 0.024752269 0.00080873416
0.51583403 0.02564097 0.00080331869
0.51586103 0.026529672 0.00079790317
0.51588804 0.027418373 0.00079248764
0.5159151 0.028307073 0.00078707217
0.5159421 0.029195774 0.00078165665
0.5159691 0.030084476 0.00077624118
0.5159961 0.030973177 0.00077082566
0.5160231 0.031861879 0.00076541014
0.51605016 0.03275058 0.00075999467
0.51607716 0.033639282 0.00075457914
0.51610416 0.034527984 0.00074916368
0.51613116 0.035416681 0.00074374815
0.51615816 0.036305383 0.00073833263
0.51618522 0.037194084 0.00073291716
0.51621222 0.038082786 0.00072750164
0.51623923 0.038971487 0.00072208617
0.51626623 0.039860189 0.00071667065
0.51629323 0.04074889 0.00071125512
0.51632023 0.041637592 0.00070583966
0.51634729 0.042526294 0.00070042413
0.51637429 0.043414991 0.00069500867
0.51640129 0.044303693 0.00068959314
0.51642829 0.045192394 0.00068417762
0.51645529 0.046081096 0.00067876215
0.51648235 0.046969797 0.00067334663
0.51650935 0.047858499 0.00066793116
0.51573497 0.048796497 6.3958352e-05
0.51576203 0.049686793 5.8533136e-05
0.51578909 0.050577085 5.3107935e-05
0.51581615 0.051467381 4.7682723e-05
0.51584321 0.052357674 4.2257521e-05
0.51587027 0.053247966 3.683232e-05
0.51589733 0.054138262 3.1407108e-05
0.51592439 0.055028554 2.5981906e-05
0.51595145 0.055918846 2.0556705e-05
0.51597852 0.056809142 1.5131493e-05
0.51600558 0.057699434 9.7062803e-06
0.51603264 0.05858973 4.2810793e-06
0.5160597 0.059480023 -1.1441222e-06
0.51528603 0.060440317 -0.0006052528
0.51531315 0.061332207 -0.00061068771
0.51534027 0.06222409 -0.00061612262
0.51536739 0.063115977 -0.00062155753
0.51539451 0.064007863 -0.00062699243
0.51542163 0.06489975 -0.00063242734
0.51544869 0.065791637 -0.00063786225
0.51547581 0.066683523 -0.00064329716
0.51470256 0.067658156 -0.0012475281
0.51472968 0.068551637 -0.0012529728
0.51475686 0.069445118 -0.0012584174
0.51478404 0.070338599 -0.0012638619
0.51481116 0.071232073 -0.0012693065
0.51403821 0.072216257 -0.0018735608
0.48976597 0.14533418 -0.022061838
0.5121296 -0.0092567299 -0.0020699026
0.51296026 -0.0083089881 -0.001476189
0.51379091 -0.00736443 -0.00088241952
0.51462132 -0.0064230626 -0.00028866698
0.51464838 -0.0055327695 -0.0002940922
0.51467544 -0.0046424768 -0.00029951739
0.5147025 -0.0037521762 -0.00030494263
0.51472956 -0.0028618833 -0.00031036785
0.51475662 -0.0019715903 -0.00031579303
0.51478368 -0.0010812973 -0.00032121825
0.51481074 -0.00019100439 -0.00032664344
0.5148378 0.00069928856 -0.00033206865
0.51486486 0.0015895833 -0.00033749387
0.51489192 0.0024798783 -0.00034291905
0.51572186 0.0034021351 0.00025094993
0.51574886 0.0042908359 0.00024553444
0.51577586 0.0051795393 0.00024011893
0.51580286 0.0060682385 0.00023470343
0.51582986 0.0069569396 0.00022928794
0.51585686 0.0078456411 0.00022387244
0.51588392 0.0087343417 0.00021845693
0.51591092 0.0096230432 0.00021304144
0.51593792 0.010511744 0.00020762593
0.51596493 0.011400447 0.00020221042
0.51518959 0.01227311 -0.00040259634
0.51521665 0.013163403 -0.00040802153
0.51524371 0.014053696 -0.00041344675
0.51527077 0.014943991 -0.00041887196
0.51529783 0.015834283 -0.00042429715
0.51532489 0.016724577 -0.00042972236
0.51535195 0.017614871 -0.00043514758
0.51537907 0.018505165 -0.00044057277
0.51540613 0.019395459 -0.00044599798
0.51543319 0.020285752 -0.0004514232
0.51546025 0.021176048 -0.00045684839
0.51548731 0.02206634 -0.0004622736
0.51551437 0.022956634 -0.00046769882
0.51554143 0.023846928 -0.000473124
0.51556849 0.024737222 -0.00047854922
0.51559556 0.025627514 -0.00048397444
0.51562262 0.026517808 -0.00048939965
0.51564968 0.027408103 -0.00049482484
0.51567674 0.028298397 -0.00050025003
0.5157038 0.029188691 -0.00050567527
0.51573086 0.030078985 -0.00051110046
0.51575792 0.030969277 -0.00051652564
0.51578498 0.031859573 -0.00052195089
0.51581204 0.032749865 -0.00052737608
0.5158391 0.033640157 -0.00053280126
0.51586616 0.034530453 -0.00053822651
0.51589322 0.035420746 -0.00054365169
0.51592028 0.036311042 -0.00054907688
0.51594734 0.037201334 -0.00055450213
0.5159744 0.038091626 -0.00055992731
0.51600146 0.038981922 -0.0005653525
0.51602852 0.039872214 -0.00057077775
0.51605558 0.04076251 -0.00057620293
0.51608264 0.041652802 -0.00058162812
0.5161097 0.042543098 -0.00058705336
0.51613677 0.043433391 -0.00059247855
0.51616383 0.044323683 -0.00059790374
0.51619089 0.045213979 -0.00060332898
0.51621795 0.046104271 -0.00060875417
0.51624501 0.046994563 -0.00061417936
0.51627207 0.047884859 -0.0006196046
0.51629913 0.048775151 -0.00062502979
0.51632619 0.049665447 -0.00063045498
0.51635325 0.05055574 -0.00063588022
0.51638031 0.051446036 -0.00064130541
0.51640737 0.052336328 -0.00064673059
0.5156343 0.053283844 -0.0012519935
0.51566142 0.054175731 -0.0012574284
0.51568854 0.055067617 -0.0012628633
0.51571566 0.055959504 -0.0012682982
0.51574272 0.056851387 -0.0012737331
0.51576984 0.057743277 -0.0012791681
0.51579696 0.058635164 -0.001284603
0.51582408 0.059527047 -0.0012900379
0.5158512 0.060418934 -0.0012954728
0.51587826 0.061310824 -0.0013009077
0.51590538 0.062202707 -0.0013063427
0.5159325 0.063094594 -0.0013117775
0.51435602 -0.0073858132 -0.001572641
0.51438314 -0.0064939265 -0.0015780759
0.5144102 -0.0056020436 -0.0015835108
0.51443732 -0.0047101574 -0.0015889457
0.51446444 -0.0038182668 -0.0015943806
0.51529372 -0.0028832282 -0.00099935592
0.51532078 -0.0019929351 -0.0010047812
0.51534784 -0.0011026423 -0.0010102064
0.5153749 -0.0002123493 -0.0010156316
0.51540196 0.00067794364 -0.0010210568
0.51542902 0.0015682385 -0.001026482
0.51545608 0.0024585333 -0.0010319072
0.51548314 0.0033488262 -0.0010373323
0.5155102 0.0042391191 -0.0010427576
0.51553726 0.0051294141 -0.0010481828
0.51556432 0.0060197068 -0.001053608
0.51559138 0.00691 -0.0010590332
0.51561844 0.0078002946 -0.0010644584
0.5156455 0.0086905891 -0.0010698837
0.51567256 0.0095808823 -0.0010753089
0.51569963 0.010471175 -0.0010807341
0.51572669 0.01136147 -0.0010861593
0.51575375 0.012251765 -0.0010915844
0.51578081 0.013142058 -0.0010970096
0.51580787 0.014032351 -0.0011024348
0.51583493 0.014922646 -0.0011078601
0.51586199 0.015812939 -0.0011132853
0.51588905 0.016703231 -0.0011187105
0.51591611 0.017593527 -0.0011241357
0.51594317 0.018483819 -0.0011295609
0.51597023 0.019374114 -0.0011349862
0.51599729 0.020264408 -0.0011404114
0.51602435 0.021154702 -0.0011458365
0.51605141 0.022044994 -0.0011512617
0.51607847 0.02293529 -0.0011566869
0.51610553 0.023825582 -0.0011621121
0.51613259 0.024715876 -0.0011675373
0.51615965 0.02560617 -0.0011729626
0.51618671 0.026496464 -0.0011783878
0.51621377 0.027386758 -0.001183813
0.51624084 0.028277051 -0.0011892382
0.5162679 0.029167345 -0.0011946633
0.51629496 0.030057639 -0.0012000885
0.51632202 0.030947933 -0.0012055138
0.51634908 0.031838227 -0.001210939
0.51637614 0.032728519 -0.0012163642
0.5164032 0.033618815 -0.0012217894
0.51643026 0.034509107 -0.0012272146
0.51645732 0.0353994 -0.0012326398
0.51648438 0.036289696 -0.0012380651
0.51651144 0.037179988 -0.0012434903
0.5165385 0.038070284 -0.0012489154
0.51656556 0.038960576 -0.0012543406
0.51659262 0.039850872 -0.0012597658
0.51661968 0.040741164 -0.001265191
0.51664674 0.041631456 -0.0012706163
0.5166738 0.042521752 -0.0012760415
0.51670086 0.043412045 -0.0012814667
