# .PCD v0.7 - Point Cloud Data file format
VERSION 0.7
FIELDS x y z
SIZE 4 4 4
TYPE F F F
COUNT 1 1 1
WIDTH 1380
HEIGHT 1
VIEWPOINT 0 0 0 1 0 0 0
POINTS 1380
DATA ascii
0.45469826 0.090602294 0.020609092
0.45472702 0.091548331 0.020603327
0.45475575 0.092494369 0.020597562
0.45478451 0.093440406 0.020591797
0.45481327 0.094386443 0.020586032
0.45484203 0.095332474 0.020580268
0.45401418 0.096404843 0.020045744
0.45489955 0.097224548 0.020568738
0.45407179 0.098300099 0.020034196
0.45410058 0.099247724 0.02002842
0.4541294 0.10019536 0.020022646
0.45415819 0.10114299 0.020016871
0.45418701 0.10209062 0.020011097
0.45421579 0.10303824 0.020005321
0.45424461 0.10398588 0.019999547
0.4542734 0.10493351 0.019993773
0.45344609 0.10602339 0.019459138
0.45347494 0.1069726 0.019453354
0.45350379 0.10792184 0.019447569
0.45353264 0.10887106 0.019441785
0.45356151 0.10982028 0.019436
0.45273447 0.11091972 0.018901313
0.45276338 0.11187053 0.018895518
0.45279229 0.11282135 0.018889725
0.45282117 0.11377217 0.018883931
0.45199433 0.11487958 0.018349163
0.4520233 0.11583198 0.018343359
0.45205224 0.11678439 0.018337555
0.45122564 0.11789817 0.01780278
0.45125464 0.11885215 0.017796967
0.45042819 0.11997071 0.017262157
0.45045725 0.12092631 0.017256334
0.44963095 0.12204963 0.016721502
0.44966003 0.12300682 0.016715668
0.44883382 0.12413494 0.016180774
0.44800776 0.12526622 0.015645886
0.44803697 0.12622659 0.015640033
0.44806615 0.12718697 0.015634183
0.44467506 0.12885652 0.013512019
0.41747186 0.033693895 -0.0020040076
0.43473834 0.036245443 0.008565018
0.43906149 0.037096746 0.011206001
0.44166687 0.037987217 0.012788245
0.44341344 0.038897268 0.013841175
0.44515979 0.039800953 0.01489411
0.44604748 0.040730592 0.015417666
0.44693509 0.041657045 0.015941247
0.44782263 0.042580314 0.016464876
0.44871002 0.043500394 0.01698849
0.44873908 0.044455986 0.016982667
0.44876811 0.045411579 0.016976845
0.44965532 0.046325292 0.017500497
0.45054245 0.04723582 0.018024171
0.45142952 0.048143156 0.018547894
0.45231643 0.049047314 0.019071607
0.45406121 0.049900033 0.020124858
0.45408997 0.05084607 0.020119093
0.45583451 0.051689234 0.02117243
0.45586318 0.052632082 0.021166686
0.45674962 0.053520314 0.021690493
0.45763594 0.054405358 0.022214321
0.45766452 0.055345021 0.022208596
0.45769307 0.056284688 0.02220287
0.45857921 0.057163365 0.022726737
0.45860773 0.058101438 0.022721021
0.45863625 0.059039511 0.022715304
0.45952225 0.05991181 0.023239248
0.45955071 0.060848292 0.023233542
0.45957917 0.06178477 0.023227835
0.45960763 0.062721252 0.023222128
0.45963609 0.063657731 0.023216421
0.45966455 0.064594217 0.023210716
0.45969301 0.065530695 0.023205008
0.45886436 0.066544101 0.022669574
0.45889285 0.067482173 0.022663858
0.45892137 0.068420246 0.022658141
0.45894989 0.069358319 0.022652425
0.45897841 0.070296392 0.022646708
0.45815006 0.071319342 0.022111254
0.45817861 0.072259009 0.022105526
0.45820719 0.073198676 0.0220998
0.45823574 0.074138343 0.022094075
0.45740765 0.075169265 0.021558572
0.45743626 0.076110519 0.021552837
0.45746487 0.077051781 0.0215471
0.45663697 0.078089073 0.021011557
0.45666561 0.079031922 0.021005811
0.45583779 0.080073997 0.020470208
0.45586652 0.08101844 0.020464454
0.45589522 0.081962876 0.020458698
0.45506763 0.083011322 0.019923087
0.45509639 0.083957352 0.019917322
0.45512515 0.084903397 0.019911557
0.45515391 0.085849434 0.019905793
0.45518267 0.086795464 0.019900028
0.45435539 0.087853462 0.019364359
0.45438418 0.088801086 0.019358585
0.454413 0.089748718 0.01935281
0.45444179 0.090696342 0.019347036
0.4544706 0.091643974 0.019341262
0.45449939 0.092591606 0.019335486
0.45452821 0.093539238 0.019329712
0.454557 0.09448687 0.019323938
0.45458582 0.095434494 0.019318163
0.45461461 0.096382119 0.019312389
0.45464343 0.097329751 0.019306613
0.45467222 0.098277375 0.019300839
0.45470104 0.099225007 0.019295065
0.45472983 0.10017264 0.019289291
0.45475864 0.10112027 0.019283514
0.45393214 0.10220375 0.018747685
0.45396098 0.10315297 0.018741902
0.45398983 0.10410219 0.018736117
0.45401868 0.10505141 0.018730333
0.45404753 0.10600063 0.018724548
0.45407638 0.10694985 0.018718764
0.45410526 0.10789908 0.018712981
0.45327914 0.1089953 0.018177079
0.45330802 0.1099461 0.018171284
0.45333692 0.11089692 0.01816549
0.45336583 0.11184774 0.018159697
0.45339474 0.11279856 0.018153902
0.45256886 0.11390433 0.017617911
0.4525978 0.11485674 0.017612107
0.45177212 0.11596729 0.017076118
0.45180112 0.11692129 0.017070305
0.45183012 0.11787529 0.017064491
0.45100462 0.11899221 0.016528463
0.45103368 0.1199478 0.01652264
0.45020834 0.12106951 0.015986584
0.45023742 0.12202668 0.01598075
0.44941217 0.12315317 0.015444634
0.44944131 0.12411195 0.01543879
0.44861627 0.1252432 0.01490267
0.44864547 0.12620357 0.014896818
0.44782057 0.12733962 0.014360674
0.44443354 0.1290106 0.012233573
0.41808289 0.032656681 -0.0027817339
0.42240289 0.03357188 -0.00013500389
0.42758024 0.034450017 0.0030424388
0.43189922 0.035331771 0.0056893723
0.43535998 0.036221921 0.0078057679
0.43882039 0.037099332 0.0099222735
0.44142285 0.037991509 0.011508234
0.44402501 0.038874131 0.013094252
0.44576931 0.03977789 0.014149655
0.44751343 0.040675282 0.015205096
0.44925743 0.041566301 0.016260609
0.45014381 0.042486422 0.016785456
0.45103011 0.043403357 0.017310323
0.45105907 0.044355761 0.017304519
0.45194528 0.045267917 0.017829448
0.45197418 0.046218734 0.017823655
0.45286018 0.047126111 0.01834858
0.45288903 0.048075333 0.018342797
0.4537749 0.048977938 0.018867752
0.45380369 0.049925566 0.018861976
0.45468941 0.05082339 0.01938696
0.45557502 0.051718026 0.019911963
0.4564606 0.052609477 0.020437017
0.45734602 0.053497747 0.020962059
0.45737463 0.054439005 0.020956324
0.45825991 0.055322494 0.021481395
0.45828846 0.056262162 0.021475669
0.45831704 0.057201829 0.021469943
0.45920211 0.058078948 0.021995053
0.45923063 0.059017021 0.021989336
0.45925915 0.059955094 0.021983622
0.45928767 0.060893167 0.021977905
0.45931616 0.06183124 0.021972189
0.45934469 0.062769316 0.021966472
0.45937321 0.063707389 0.021960756
0.4594017 0.064645462 0.021955039
0.45943022 0.065583535 0.021949323
0.45945874 0.066521607 0.021943606
0.45948726 0.06745968 0.02193789
0.45951575 0.068397753 0.021932174
0.45868832 0.069417484 0.021395504
0.4587169 0.070357151 0.021389779
0.45874545 0.071296819 0.021384053
0.45877403 0.072236486 0.021378327
0.45794684 0.073264182 0.02084161
0.45797545 0.074205436 0.020835873
0.45800406 0.075146697 0.020830138
0.45717704 0.076180764 0.020293381
0.45720571 0.077123612 0.020287635
0.45637882 0.078162462 0.019750819
0.45640752 0.079106905 0.019745063
0.45643622 0.080051355 0.019739307
0.45560956 0.08109656 0.019202484
0.45563832 0.082042597 0.019196719
0.45566708 0.082988635 0.019190954
0.45484063 0.084040217 0.018654091
0.45486942 0.084987856 0.018648315
0.45489824 0.085935481 0.018642541
0.45492703 0.086883105 0.018636767
0.45495585 0.087830737 0.018630993
0.45498464 0.088778369 0.018625218
0.45501345 0.089726001 0.018619442
0.45504224 0.090673625 0.018613668
0.45507103 0.09162125 0.018607894
0.45509985 0.092568889 0.01860212
0.45512864 0.093516514 0.018596346
0.45430276 0.094587207 0.018059365
0.45433164 0.095536433 0.01805358
0.45436049 0.096485659 0.018047797
0.45438933 0.097434871 0.018042013
0.45441818 0.098384097 0.018036228
0.45444703 0.099333316 0.018030444
0.45447588 0.10028255 0.018024659
0.45450473 0.10123177 0.018018875
0.45453358 0.10218099 0.018013092
0.45456243 0.10313021 0.018007306
0.4545913 0.10407943 0.018001523
0.45376599 0.10516924 0.017464427
0.4537949 0.10612005 0.017458633
0.4538238 0.10707087 0.017452838
0.45385268 0.10802168 0.017447045
0.45388159 0.1089725 0.01744125
0.4539105 0.10992331 0.017435456
0.45393941 0.11087413 0.017429663
0.45311442 0.11197668 0.016892457
0.45314339 0.11292909 0.016886653
0.45317233 0.11388151 0.016880849
0.45234761 0.11499042 0.016343636
0.4523766 0.11594442 0.016337823
0.4524056 0.11689842 0.01633201
0.45158109 0.1180137 0.01579476
0.45161012 0.1189693 0.015788935
0.45078576 0.12008937 0.015251655
0.45081484 0.12104656 0.015245822
0.44999054 0.12217141 0.014708481
0.45001969 0.12313019 0.014702639
0.44919559 0.12425981 0.0141653
0.44837162 0.12539262 0.013627942
0.44840086 0.12635458 0.01362208
0.447577 0.12749217 0.013084693
0.44590017 0.12881017 0.012015719
0.42303967 0.033547789 -0.000912736
0.42735413 0.034447253 0.0017402518
0.4316681 0.035330791 0.0043933364
0.4359816 0.0361984 0.007046524
0.43943799 0.037075963 0.0091679571
0.4420374 0.037968256 0.010757617
0.44463655 0.038850989 0.012347329
0.44723532 0.039724171 0.013937075
0.44812095 0.040652294 0.014463107
0.4507193 0.041509546 0.01605298
0.45160463 0.042428114 0.016579065
0.4516336 0.043380521 0.016573261
0.45251882 0.044294309 0.017099414
0.45254773 0.045245122 0.017093621
0.45343277 0.046154134 0.01761977
0.45346162 0.047103353 0.017613985
0.45434654 0.048007585 0.018140163
0.45437533 0.048955217 0.018134389
0.4552601 0.04985467 0.018660598
0.45614475 0.050750941 0.019186823
0.45617345 0.051695384 0.019181069
0.45705801 0.052586872 0.019707356
0.45708668 0.053529724 0.019701611
0.45797104 0.054416437 0.02022789
0.45799965 0.055357698 0.020222155
0.45888388 0.056239631 0.020748468
0.45891243 0.057179298 0.020742742
0.45894098 0.058118965 0.020737017
0.45896956 0.059058629 0.020731291
0.45899811 0.059998296 0.020725565
0.45988205 0.060870677 0.021251937
0.45991057 0.06180875 0.021246221
0.45993906 0.062746823 0.021240504
0.45996758 0.063684896 0.021234788
0.4599961 0.064622968 0.021229072
0.45916948 0.065636292 0.020691209
0.45919806 0.066575959 0.020685483
0.45922661 0.067515627 0.020679755
0.45925516 0.068455294 0.020674029
0.45928374 0.069394961 0.020668304
0.45931229 0.070334621 0.020662578
0.45848602 0.071359098 0.020124646
0.45851463 0.072300352 0.020118911
0.45854324 0.073241614 0.020113176
0.45771715 0.074272454 0.01957521
0.45774582 0.075215302 0.019569464
0.45691982 0.076250933 0.019031433
0.45694852 0.077195376 0.019025678
0.45697725 0.078139819 0.019019924
0.45615149 0.079181813 0.018481886
0.45618024 0.08012785 0.018476121
0.456209 0.08107388 0.018470356
0.45538345 0.082122244 0.017932279
0.45541227 0.083069876 0.017926503
0.45544106 0.0840175 0.017920729
0.45546988 0.084965132 0.017914955
0.45464456 0.086021453 0.017376829
0.45467341 0.086970679 0.017371045
0.45470226 0.087919898 0.01736526
0.45473111 0.088869125 0.017359477
0.45475996 0.089818344 0.017353691
0.4547888 0.090767562 0.017347908
0.45481768 0.091716789 0.017342124
0.45484653 0.092666008 0.017336339
0.45487538 0.093615234 0.017330555
0.45490423 0.094564453 0.01732477
0.45493308 0.095513679 0.017318986
0.45496193 0.096462898 0.017313201
0.45499077 0.097412117 0.017307417
0.45501962 0.098361343 0.017301634
0.45504847 0.099310555 0.017295849
0.45507735 0.10025979 0.017290065
0.45425284 0.10134318 0.016751774
0.45428175 0.10229401 0.016745981
0.45431066 0.10324481 0.016740186
0.45433956 0.10419562 0.016734391
0.45436844 0.10514645 0.016728599
0.45439735 0.10609725 0.016722804
0.45442626 0.10704807 0.016717009
0.45445517 0.10799889 0.016711216
0.45448405 0.10894971 0.016705422
0.45366001 0.11004903 0.016167002
0.45368895 0.11100144 0.0161612
0.45371792 0.11195385 0.016155396
0.45374686 0.11290625 0.016149592
0.45292309 0.11401355 0.015611161
0.45295209 0.11496755 0.015605348
0.45298108 0.11592154 0.015599535
0.45215753 0.1170352 0.01506106
0.45218655 0.11799079 0.015055236
0.45136315 0.11910923 0.014516733
0.45139223 0.12006642 0.0145109
0.45056891 0.12118965 0.013972335
0.45059806 0.12214842 0.013966492
0.44977492 0.12327642 0.01342793
0.4489519 0.12440759 0.012889348
0.44898114 0.12536956 0.012883486
0.44815823 0.12650551 0.012344875
0.44733545 0.12764466 0.011806245
0.44480866 0.12914135 0.010202033
0.42282063 0.033543162 -0.0022235031
0.42627433 0.034465473 -9.7408811e-05
0.43058336 0.035352387 0.0025618174
0.43489191 0.036223374 0.0052211462
0.43834436 0.037104275 0.007347493
0.44179642 0.037972432 0.0094739171
0.4443925 0.038856879 0.011067288
0.44698837 0.039731763 0.012660749
0.44958395 0.040597096 0.014254268
0.45132378 0.041486677 0.015314692
0.4522081 0.042405281 0.015842017
0.4530924 0.043320697 0.016369386
0.4531213 0.04427151 0.016363593
0.45400536 0.045182154 0.016890965
0.45403424 0.046131376 0.01688518
0.45491818 0.04703724 0.017412582
0.45494696 0.047984868 0.017406808
0.45583075 0.048885953 0.017934239
0.45585951 0.04983199 0.017928474
0.45674315 0.050728299 0.018455928
0.45677188 0.051672742 0.018450173
0.45765543 0.052564267 0.018977694
0.45768407 0.053507119 0.01897195
0.45856744 0.054393873 0.019499468
0.45859605 0.055335131 0.019493733
0.45862466 0.056276388 0.019487996
0.45950782 0.057156771 0.020015553
0.45953637 0.058096435 0.020009827
0.45956495 0.059036102 0.020004101
0.4595935 0.059975769 0.019998375
0.45962206 0.060915433 0.01999265
0.45965064 0.0618551 0.019986924
0.45967919 0.062794767 0.019981196
0.45970777 0.063734427 0.01997547
0.45973632 0.064674102 0.019969745
0.45976487 0.065613769 0.019964019
0.45979345 0.066553429 0.019958293
0.459822 0.067493096 0.019952567
0.45985055 0.068432763 0.019946842
0.4590252 0.069454014 0.019407695
0.45905381 0.070395268 0.01940196
0.45822859 0.071421295 0.018862786
0.45825726 0.072364144 0.01885704
0.4582859 0.073307 0.018851295
0.45746082 0.074339397 0.018312048
0.45748955 0.07528384 0.018306294
0.45751825 0.076228283 0.018300539
0.45669341 0.077267058 0.017761292
0.45672217 0.078213088 0.017755527
0.45589748 0.079256639 0.017216247
0.4559263 0.080204263 0.017210472
0.45595509 0.081151895 0.017204696
0.45598391 0.08209952 0.017198922
0.45515946 0.083151028 0.016659593
0.4551883 0.084100254 0.016653808
0.45521715 0.08504948 0.016648024
0.455246 0.085998699 0.016642241
0.45527485 0.086947925 0.016636455
0.4553037 0.087897144 0.016630672
0.45533258 0.088846363 0.016624887
0.45536143 0.089795582 0.016619103
0.45539027 0.090744808 0.016613318
0.45541912 0.091694027 0.016607534
0.45544797 0.092643254 0.016601751
0.45462412 0.093713872 0.016062304
0.45465299 0.094664685 0.01605651
0.4546819 0.095615499 0.016050715
0.45471081 0.096566312 0.016044922
0.45473972 0.097517133 0.016039127
0.4547686 0.098467939 0.016033335
0.45479751 0.099418759 0.01602754
0.45482641 0.10036958 0.016021745
0.45485532 0.10132039 0.016015952
0.4548842 0.10227121 0.016010158
0.45491311 0.10322202 0.016004363
0.45494202 0.10417283 0.01599857
0.45497093 0.10512365 0.015992776
0.4549998 0.10607446 0.015986981
0.45417663 0.10716898 0.015447364
0.45420557 0.10812139 0.01544156
0.45423451 0.1090738 0.015435756
0.45426348 0.1100262 0.015429952
0.45429242 0.1109786 0.015424149
0.45346957 0.11208268 0.014884499
0.45349857 0.11303667 0.014878686
0.45352757 0.11399067 0.014872872
0.45355657 0.11494467 0.014867059
0.45273396 0.1160567 0.01432736
0.45276302 0.11701229 0.014321537
0.45194054 0.1181291 0.013781809
0.45196965 0.11908628 0.013775976
0.45114729 0.12020788 0.013236194
0.4511764 0.12116665 0.013230351
0.45035425 0.12229302 0.012690566
0.44953218 0.12342257 0.01215076
0.44956142 0.12438453 0.012144898
0.4487395 0.12551886 0.01160507
0.44791767 0.12665637 0.011065216
0.447947 0.12762152 0.011059335
0.44457221 0.12929524 0.0089174211
0.42950264 0.035373829 0.00072536495
0.43380624 0.036248192 0.0033908354
0.43810937 0.037106629 0.0060564028
0.44155744 0.037976533 0.0081877448
0.44415054 0.038862687 0.0097848056
0.44759789 0.0397087 0.011916294
0.45019042 0.040574148 0.013513513
0.45192826 0.041463803 0.014576397
0.45366594 0.042347088 0.015639352
0.45454913 0.043260951 0.016167939
0.45457798 0.044210173 0.016162155
0.455461 0.04511926 0.01669077
0.45548981 0.046066888 0.016684996
0.4555186 0.04701452 0.016679222
0.45640144 0.047917236 0.01720787
0.4564302 0.048863273 0.017202105
0.45645896 0.049809307 0.01719634
0.45734158 0.050705653 0.017725034
0.45737031 0.051650099 0.017719278
0.45825285 0.052541662 0.018248027
0.45828152 0.053484514 0.018242283
0.45831016 0.054427367 0.018236537
0.45919245 0.055312563 0.018765299
0.45922107 0.056253821 0.018759562
0.45924968 0.057195082 0.018753827
0.45927829 0.05813634 0.018748092
0.4593069 0.059077598 0.018742355
0.4601889 0.059953239 0.019271174
0.46021748 0.060892906 0.019265449
0.46024603 0.061832573 0.019259723
0.46027458 0.062772237 0.019253997
0.46030316 0.063711904 0.019248269
0.46033171 0.064651571 0.019242544
0.45950717 0.065666407 0.018702205
0.45953578 0.066607669 0.018696468
0.45956439 0.067548923 0.018690733
0.459593 0.068490185 0.018684996
0.4587687 0.069512986 0.018144609
0.45879737 0.070455842 0.018138863
0.45882601 0.07139869 0.018133119
0.45800185 0.072427869 0.017592665
0.45803055 0.073372312 0.017586909
0.45720658 0.074406266 0.017046453
0.45723534 0.075352296 0.017040689
0.4572641 0.076298334 0.017034924
0.45644033 0.077338658 0.016494434
0.45646912 0.07828629 0.01648866
0.45649794 0.079233915 0.016482884
0.45567435 0.080280609 0.01594235
0.4557032 0.081229828 0.015936567
0.45573205 0.082179055 0.015930783
0.4557609 0.083128273 0.015924998
0.45578974 0.084077492 0.015919214
0.45496646 0.085133746 0.015378621
0.45499536 0.08608456 0.015372828
0.45502427 0.087035373 0.015367034
0.45505318 0.087986186 0.015361239
0.45508206 0.088936999 0.015355445
0.45511097 0.089887813 0.015349652
0.45513988 0.090838633 0.015343858
0.45516878 0.091789447 0.015338063
0.45519766 0.09274026 0.015332269
0.45522657 0.093691081 0.015326476
0.45525548 0.094641887 0.015320682
0.45528439 0.095592707 0.015314887
0.45531327 0.096543521 0.015309094
0.45534217 0.097494334 0.0153033
0.45537108 0.098445147 0.015297506
0.45539996 0.099395961 0.015291711
0.45542887 0.10034678 0.015285918
0.45545778 0.10129759 0.015280124
0.45548669 0.10224841 0.015274329
0.45551556 0.10319922 0.015268535
0.45469326 0.10428892 0.014727714
0.4547222 0.10524133 0.01472191
0.45475113 0.10619374 0.014716106
0.4547801 0.10714614 0.014710302
0.45480904 0.10809856 0.014704498
0.45398706 0.1091978 0.014163644
0.45401606 0.1101518 0.014157831
0.45404506 0.1111058 0.014152017
0.45407405 0.11205981 0.014146204
0.45325232 0.11316702 0.013605307
0.45328134 0.11412261 0.013599484
0.4533104 0.1150782 0.013593661
0.45248887 0.11619178 0.01305272
0.45251796 0.11714896 0.013046887
0.45169652 0.11826734 0.012505884
0.45172563 0.11922611 0.012500041
0.4509044 0.12034926 0.011959048
0.45093358 0.12130963 0.011953196
0.45011246 0.12243754 0.011412167
0.4501417 0.1233995 0.011406304
0.44932073 0.1245322 0.010865252
0.44849986 0.12566808 0.010324175
0.44852921 0.12663323 0.010318294
0.44685838 0.1279494 0.0092419358
0.44518778 0.12927194 0.0081655709
0.44266737 0.13077955 0.0065538911
0.44099721 0.13211642 0.0054774391
0.43762746 0.13382342 0.0033303886
0.42583427 0.034459483 -0.0027165392
0.42927963 0.035372544 -0.00058052602
0.43272457 0.036272861 0.0015555648
0.43702275 0.037134673 0.0042272736
0.44132042 0.03798056 0.0068990854
0.44476411 0.038839471 0.0090354225
0.44820741 0.039685637 0.011171844
0.45165032 0.040519062 0.013308342
0.4533861 0.041407205 0.014373703
0.45512173 0.04228897 0.015439134
0.45515057 0.043238193 0.01543335
0.45603263 0.044148911 0.015963189
0.45606145 0.045096543 0.015957415
0.45609024 0.046044171 0.015951639
0.45697212 0.046948519 0.016481513
0.45700088 0.047894552 0.016475748
0.45702964 0.04884059 0.016469983
0.45705837 0.049786627 0.016464218
0.45794001 0.05068301 0.016994139
0.45796871 0.051627453 0.016988384
0.45799744 0.0525719 0.016982628
0.4588789 0.053461909 0.017512627
0.45890757 0.054404762 0.017506881
0.45893621 0.05534761 0.017501134
0.45896488 0.056290463 0.01749539
0.45984608 0.057172514 0.018025398
0.45987469 0.058113772 0.018019663
0.4599033 0.05905503 0.018013926
0.45993191 0.059996288 0.018008191
0.45996052 0.06093755 0.018002454
0.45998913 0.061878808 0.017996719
0.46001774 0.062820062 0.017990984
0.46004635 0.063761324 0.017985247
0.46007496 0.064702585 0.017979512
0.46010357 0.06564384 0.017973777
0.45928013 0.066661827 0.017432189
0.45930877 0.067604676 0.017426444
0.45933744 0.068547532 0.017420698
0.45851415 0.06957189 0.016879035
0.45854285 0.07051634 0.01687328
0.45857155 0.071460783 0.016867524
0.4577485 0.072491504 0.016325861
0.45777726 0.073437542 0.016320096
0.45780602 0.074383579 0.016314331
0.45698315 0.075420678 0.015772628
0.45701197 0.07636831 0.015766853
0.45704076 0.077315941 0.015761077
0.45621809 0.07835941 0.015219331
0.45624694 0.079308629 0.015213546
0.45627579 0.080257855 0.015207762
0.45630464 0.081207074 0.015201977
0.45548221 0.0822585 0.014660187
0.45551112 0.083209313 0.014654393
0.45554003 0.084160134 0.014648599
0.45556891 0.085110947 0.014642805
0.45559782 0.086061768 0.014637011
0.45562673 0.087012582 0.014631217
0.45565563 0.087963387 0.014625423
0.45568451 0.088914208 0.014619629
0.45571342 0.089865021 0.014613835
0.45574233 0.090815835 0.014608041
0.45577124 0.091766648 0.014602247
0.45580012 0.092717469 0.014596453
0.45582902 0.093668282 0.014590659
0.45585793 0.094619095 0.014584865
0.45588684 0.095569909 0.014579071
0.45591572 0.096520722 0.014573277
0.45594463 0.097471535 0.014567483
0.45597354 0.098422348 0.014561689
0.45600241 0.099373169 0.014555895
0.45518091 0.10045646 0.014013872
0.45520988 0.10140887 0.014008068
0.45523882 0.10236127 0.014002265
0.45526776 0.10331368 0.013996461
0.45529673 0.10426609 0.013990657
0.45532566 0.10521849 0.013984854
0.45450455 0.10631293 0.013442801
0.45453355 0.10726693 0.013436988
0.45456254 0.10822093 0.013431175
0.45459154 0.10917493 0.013425361
0.45462054 0.11012892 0.013419548
0.45379969 0.11123292 0.012877431
0.45382875 0.11218851 0.012871608
0.45385781 0.11314411 0.012865785
0.45303717 0.11425446 0.012323636
0.45306626 0.11521164 0.012317803
0.45224571 0.11632679 0.011775586
0.45227486 0.11728556 0.011769744
0.45145452 0.11840548 0.011227536
0.4514837 0.11936585 0.011221684
0.45066351 0.12049055 0.010679441
0.45069274 0.12145252 0.010673579
0.4498727 0.12258198 0.010131313
0.44990197 0.12354554 0.010125441
0.44908208 0.12467978 0.0095831398
0.44826221 0.12581724 0.0090407934
0.4482916 0.12678397 0.0090349019
0.44747195 0.12792619 0.0084925527
0.44580334 0.12924865 0.0074137272
0.44328597 0.13075614 0.0057983473
0.44161785 0.13209294 0.0047194287
0.43910098 0.13361795 0.0031039477
0.43573561 0.13533597 0.00095190143
0.42905864 0.035371181 -0.0018888515
0.43164697 0.036297377 -0.00028460694
0.43594021 0.037162565 0.0023932434
0.44108546 0.037984509 0.0056079798
0.44452518 0.038845167 0.0077492464
0.44881696 0.039662573 0.010427388
0.45225582 0.040496152 0.012568819
0.45484197 0.041350681 0.014173501
0.45572317 0.042266212 0.014704539
0.45660427 0.043178562 0.015235596
0.45663309 0.04412619 0.015229822
0.45666188 0.045073822 0.015224047
0.45754281 0.045979798 0.015755149
0.45757154 0.046925835 0.015749384
0.4576003 0.047871873 0.015743619
0.45762905 0.04881791 0.015737854
0.45850974 0.049715925 0.016268998
0.45853844 0.050660368 0.016263245
0.45856714 0.051604811 0.016257489
0.45859584 0.052549254 0.016251734
0.45862457 0.053493701 0.016245978
0.45950499 0.054382157 0.016777214
0.45953366 0.055325005 0.016771467
0.4595623 0.056267858 0.016765723
0.45959097 0.05721071 0.016759977
0.45961961 0.058153562 0.01675423
0.45964828 0.059096411 0.016748486
0.45967695 0.060039263 0.01674274
0.45970559 0.060982116 0.016736995
0.45973426 0.061924968 0.016731249
0.4597629 0.06286782 0.016725505
0.45979157 0.063810669 0.016719759
0.45982024 0.064753525 0.016714012
0.45984888 0.065696374 0.016708268
0.45987755 0.066639222 0.016702522
0.45905516 0.067660362 0.01615965
0.45908386 0.068604805 0.016153896
0.45911258 0.069549248 0.016148141
0.45829043 0.070576757 0.015605262
0.45831919 0.071522787 0.015599497
0.45749718 0.072555073 0.015056584
0.457526 0.073502705 0.015050809
0.45755479 0.074450329 0.015045035
0.45673299 0.075488985 0.014502089
0.45676184 0.076438203 0.014496304
0.45679069 0.07738743 0.01449052
0.45681953 0.078336649 0.014484735
0.45599797 0.079383269 0.013941741
0.45602688 0.080334082 0.013935947
0.45605579 0.081284896 0.013930153
0.4560847 0.082235709 0.013924358
0.45611358 0.083186522 0.013918565
0.45614249 0.084137335 0.013912771
0.45617139 0.085088156 0.013906977
0.45620027 0.086038969 0.013901182
0.45622918 0.086989783 0.013895389
0.45625809 0.087940596 0.013889595
0.456287 0.088891409 0.013883801
0.45631588 0.089842223 0.013878006
0.45634478 0.090793036 0.013872213
0.45637369 0.091743857 0.013866419
0.4564026 0.09269467 0.013860625
0.45643148 0.093645483 0.013854831
0.45646039 0.094596297 0.013849037
0.45563966 0.095671587 0.01330583
0.4556686 0.096623994 0.013300026
0.45569754 0.097576402 0.013294222
0.4557265 0.09852881 0.013288419
0.45575544 0.099481218 0.013282615
0.45578438 0.10043363 0.013276811
0.45581335 0.10138603 0.013271008
0.45584229 0.10233844 0.013265204
0.45587125 0.10329085 0.0132594
0.45505103 0.10438205 0.012716133
0.45508003 0.10533606 0.01271032
0.45510903 0.10629006 0.012704507
0.45513803 0.10724405 0.012698693
0.45431805 0.10834324 0.012155378
0.4543471 0.10929883 0.012149555
0.45437616 0.11025441 0.012143732
0.45355639 0.11135995 0.011600372
0.45358548 0.11231714 0.01159454
0.45361456 0.11327433 0.011588707
0.45279494 0.11438625 0.011045282
0.45282409 0.11534503 0.01103944
0.45200464 0.11646172 0.010496018
0.45203385 0.11742209 0.010490165
0.45121455 0.11854356 0.0099467086
0.45124379 0.11950552 0.0099408468
0.45042464 0.12063177 0.009397367
0.45045394 0.12159533 0.009391495
0.44963494 0.12272635 0.0088479863
0.44966429 0.12369151 0.008842105
0.44884539 0.12482731 0.0082985284
0.44887477 0.12579405 0.0082926378
0.44805607 0.12693463 0.0077490704
0.44723746 0.1280784 0.0072054835
0.44557095 0.12940238 0.0061241761
0.44475251 0.13055411 0.0055805086
0.44308636 0.13188924 0.0044991332
0.44226825 0.13304894 0.0039554494
0.43890676 0.13476202 0.001798499
0.43300238 0.13704281 -0.0019717936
0.43057337 0.036321737 -0.002129744
0.44000101 0.038015664 0.0037764024
0.45286131 0.040473241 0.011829297
0.45544443 0.041327886 0.013437673
0.45632464 0.042243455 0.013969944
0.45720473 0.043155845 0.01450224
0.45723352 0.044103473 0.014496466
0.45726234 0.045051102 0.014490691
0.45814222 0.045957118 0.015023021
0.45817098 0.046903156 0.015017256
0.45819974 0.047849189 0.015011491
0.4582285 0.048795227 0.015005726
0.45825726 0.049741264 0.014999961
0.45913687 0.050637726 0.015532349
0.45916557 0.051582169 0.015526594
0.45919427 0.052526612 0.015520839
0.45922297 0.053471059 0.015515083
0.4592517 0.054415502 0.015509328
0.4592804 0.055359945 0.015503573
0.4593091 0.056304388 0.015497818
0.4593378 0.057248835 0.015492063
0.45936653 0.058193278 0.015486307
0.45939523 0.059137721 0.015480552
0.45942393 0.060082164 0.015474797
0.45945263 0.06102661 0.015469042
0.45948133 0.061971053 0.015463287
0.45951006 0.062915497 0.015457531
0.45953876 0.06385994 0.015451777
0.45956746 0.064804383 0.015446021
0.45959616 0.065748833 0.015440266
0.45962489 0.066693269 0.015434511
0.45880359 0.067715958 0.014890429
0.45883235 0.068661995 0.014884664
0.45886111 0.069608033 0.014878899
0.45804003 0.070637092 0.014334777
0.45806882 0.071584724 0.014329002
0.45809764 0.072532356 0.014323228
0.45727673 0.073567778 0.013779062
0.45730558 0.074517004 0.013773278
0.45733446 0.075466223 0.013767494
0.45651373 0.076508023 0.013223295
0.45654264 0.077458844 0.0132175
0.45657155 0.078409657 0.013211707
0.45660046 0.07936047 0.013205913
0.45662934 0.080311283 0.013200118
0.45665824 0.081262097 0.013194324
0.45668715 0.08221291 0.013188531
0.45671606 0.083163723 0.013182737
0.45674494 0.084114537 0.013176942
0.45677385 0.085065357 0.013171148
0.45595363 0.086124681 0.012626811
0.45598257 0.087077089 0.012621007
0.45601153 0.088029496 0.012615204
0.45604047 0.088981904 0.0126094
0.45606944 0.089934312 0.012603596
0.45609838 0.090886712 0.012597793
0.45612732 0.09183912 0.012591989
0.45615628 0.092791535 0.012586185
0.45618522 0.093743943 0.012580382
0.45621416 0.09469635 0.012574578
0.45624313 0.095648751 0.012568774
0.45627207 0.096601158 0.01256297
0.456301 0.097553566 0.012557167
0.45632997 0.098505981 0.012551363
0.45635891 0.099458382 0.012545559
0.45553952 0.10054319 0.012001098
0.45556852 0.10149719 0.011995285
0.45559752 0.10245118 0.011989472
0.45562652 0.10340519 0.011983658
0.45565552 0.10435918 0.011977844
0.4548364 0.10545354 0.011433325
0.45486546 0.10640913 0.011427502
0.45489451 0.10736472 0.011421679
0.4540756 0.10846546 0.010877115
0.45410469 0.10942264 0.010871283
0.45413378 0.11037982 0.01086545
0.45331502 0.11148693 0.010320821
0.45334417 0.11244571 0.010314978
0.45252559 0.11355758 0.0097703524
0.45255479 0.11451796 0.0097645
0.45258397 0.11547832 0.0097586475
0.4517656 0.11659657 0.0092139831
0.45179483 0.11755853 0.0092081213
0.45097661 0.11868156 0.0086634271
0.45100591 0.1196451 0.0086575551
0.45018783 0.12077292 0.0081128264
0.45021716 0.12173806 0.0081069451
0.44939917 0.12287065 0.007562161
0.44942856 0.1238374 0.0075562699
0.44861075 0.12497475 0.007011489
0.44779307 0.12611529 0.0064666881
0.44782254 0.12708522 0.0064607775
0.44700497 0.12823054 0.0059159477
0.44618753 0.12937905 0.0053710928
0.44621712 0.13035215 0.0053651631
0.44539976 0.13150546 0.0048202528
0.44458255 0.13266192 0.004275355
0.44291863 0.13400494 0.0031914702
0.43702111 0.13627909 -0.00058741693
0.43378717 0.037217889 -0.0012896319
0.43892053 0.038046665 0.001939854
0.4534668 0.040450335 0.011089775
0.45604688 0.041305088 0.01270185
0.45692608 0.042220697 0.013235355
0.45780516 0.043133125 0.013768879
0.45868415 0.044042364 0.014302422
0.45871291 0.044988401 0.014296657
0.45874166 0.045934435 0.014290893
0.45877042 0.046880472 0.014285128
0.45879918 0.04782651 0.014279363
0.45882791 0.048772547 0.014273598
0.45885667 0.049718581 0.014267833
0.45888543 0.050664619 0.014262068
0.45891419 0.051610656 0.014256303
0.45894295 0.052556694 0.014250538
0.4598214 0.053448416 0.014784188
0.4598501 0.054392859 0.014778433
0.45987883 0.055337302 0.014772678
0.45905796 0.05634084 0.014227479
0.45993623 0.057226188 0.014761168
0.45996493 0.058170635 0.014755413
0.45999366 0.059115078 0.014749657
0.45917299 0.060124986 0.014204419
0.45920175 0.061071023 0.014198654
0.45923051 0.062017061 0.014192889
0.45925924 0.062963098 0.014187125
0.459288 0.063909136 0.01418136
0.45931676 0.064855173 0.014175595
0.45934552 0.065801203 0.01416983
0.45937428 0.066747241 0.014164065
0.45855406 0.067771487 0.013618739
0.45858285 0.068719119 0.013612965
0.45861167 0.069666743 0.01360719
0.45779163 0.07069736 0.013061826
0.45782048 0.071646579 0.013056042
0.45784932 0.072595805 0.013050257
0.45702949 0.073632784 0.012504854
0.4570584 0.074583597 0.01249906
0.45708731 0.075534418 0.012493267
0.45711622 0.076485224 0.012487472
0.45714509 0.077436045 0.012481678
0.457174 0.078386858 0.012475885
0.45720291 0.079337671 0.01247009
0.45638341 0.080387406 0.011924578
0.45641235 0.081339814 0.011918774
0.45644131 0.082292214 0.01191297
0.45647025 0.083244622 0.011907166
0.45649919 0.084197029 0.011901363
0.45652816 0.085149445 0.011895559
0.4565571 0.086101852 0.011889755
0.45658606 0.087054253 0.011883952
0.456615 0.08800666 0.011878148
0.45664394 0.088959068 0.011872344
0.45667291 0.089911476 0.011866541
0.45670184 0.090863883 0.011860737
0.45673078 0.091816291 0.011854933
0.45675975 0.092768699 0.01184913
0.45678869 0.093721107 0.011843326
0.45681763 0.094673514 0.011837522
0.45684659 0.095625922 0.011831718
0.45602801 0.096704312 0.011286062
0.45605701 0.097658314 0.011280249
0.45608601 0.098612309 0.011274436
0.45611501 0.099566311 0.011268622
0.45614401 0.10052031 0.011262809
0.456173 0.10147431 0.011256996
0.456202 0.10242831 0.011251182
0.45538381 0.10351945 0.010705449
0.45541286 0.10447504 0.010699626
0.45544189 0.10543063 0.010693802
0.45462391 0.10652813 0.010148031
0.45465299 0.10748532 0.010142198
0.4538351 0.10858762 0.009596359
0.45386425 0.10954639 0.0095905168
0.45389339 0.11050516 0.0095846737
0.45307574 0.11161381 0.0090388339
0.45310491 0.1125742 0.0090329824
0.45228741 0.11368762 0.0084871128
0.45231664 0.11464959 0.0084812511
0.45149928 0.11576778 0.0079353526
0.45152858 0.11673135 0.0079294816
0.45071134 0.11785433 0.0073835542
0.45074069 0.11881948 0.0073776729
0.45077002 0.11978462 0.0073717916
0.44995296 0.12091399 0.0068257935
0.44998235 0.12188074 0.0068199025
0.44916546 0.12301487 0.0062739071
0.44919488 0.1239832 0.0062680063
0.44837815 0.12512212 0.0057219821
0.4475615 0.12626421 0.0051759384
0.44759104 0.12723573 0.0051700184
0.44677454 0.12838261 0.0046239453
0.44680414 0.12935573 0.0046180156
0.44598773 0.13050738 0.0040718815
0.44517148 0.13166222 0.0035257603
0.44520116 0.13263851 0.0035198112
0.43784416 0.038077511 9.8415847e-05
0.4540723 0.040427424 0.010350253
0.45664936 0.041282292 0.011966023
0.4583768 0.042162776 0.013041292
0.45840561 0.043110404 0.013035517
0.4584344 0.044058032 0.013029743
0.45846322 0.045005664 0.013023968
0.45934111 0.045911755 0.013558764
0.45936984 0.046857793 0.013552999
0.4593986 0.047803827 0.013547234
0.45942736 0.048749864 0.013541469
0.45945612 0.049695902 0.013535704
0.45948488 0.050641939 0.01352994
0.45951363 0.051587977 0.013524175
0.45954239 0.05253401 0.01351841
0.45957112 0.053480048 0.013512645
0.45959988 0.054426085 0.01350688
0.45962864 0.055372123 0.013501115
0.4596574 0.056318156 0.01349535
0.45968616 0.057264198 0.013489585
0.45971492 0.058210231 0.01348382
0.45974368 0.059156269 0.013478056
0.45977241 0.060102303 0.013472291
0.45980117 0.061048344 0.013466526
0.45982993 0.061994378 0.013460761
0.45985869 0.062940411 0.013454996
0.45903927 0.06395825 0.012908476
0.45906809 0.064905882 0.012902702
0.45909688 0.065853506 0.012896927
0.4591257 0.066801138 0.012891153
0.45915449 0.06774877 0.012885378
0.45833537 0.068776153 0.012338799
0.45836425 0.069725379 0.012333015
0.4583931 0.070674598 0.012327231
0.45757416 0.071708359 0.011780614
0.45760307 0.072659172 0.01177482
0.45763198 0.073609993 0.011769027
0.45766085 0.074560806 0.011763232
0.45768976 0.075511619 0.011757438
0.45771867 0.076462433 0.011751644
0.45690003 0.077507347 0.011204927
0.45692897 0.078459755 0.011199123
0.45695794 0.079412162 0.011193319
0.45698687 0.08036457 0.011187516
0.45701584 0.081316978 0.011181712
0.45704478 0.082269385 0.011175908
0.45707372 0.083221793 0.011170105
0.45710269 0.084174193 0.011164301
0.45713162 0.085126609 0.011158497
0.45716056 0.086079016 0.011152694
0.45718953 0.087031417 0.01114689
0.45721847 0.087983832 0.011141086
0.45640051 0.089049444 0.01059428
0.45642951 0.090003438 0.010588467
0.45645851 0.09095744 0.010582654
0.45648751 0.091911443 0.01057684
0.4565165 0.092865445 0.010571027
0.4565455 0.093819439 0.010565214
0.4565745 0.094773442 0.010559401
0.4566035 0.095727444 0.010553587
0.45663249 0.096681438 0.010547774
0.45666149 0.097635441 0.010541961
0.45584407 0.098718569 0.0099950423
0.4558731 0.099674158 0.0099892188
0.45590216 0.10062976 0.0099833962
0.45593122 0.10158535 0.0099775726
0.45511404 0.10267644 0.0094306068
0.45514312 0.10363363 0.009424774
0.45517221 0.10459082 0.0094189411
0.4552013 0.10554799 0.0094131082
0.45438433 0.10664707 0.0088660615
0.45441347 0.10760584 0.0088602183
0.45359668 0.10870969 0.0083131744
0.45362586 0.10967005 0.0083073219
0.45280921 0.11077866 0.0077602491
0.45283845 0.11174063 0.0077543869
0.45202196 0.11285403 0.0072072847
0.45205125 0.11381757 0.0072014132
0.45208052 0.11478113 0.0071955416
0.45126423 0.11590089 0.0066484003
0.45129356 0.11686604 0.006642519
0.45047736 0.11799058 0.0060953167
0.45050672 0.11895733 0.0060894256
0.44969073 0.12008665 0.0055422261
0.44972014 0.12105498 0.0055363257
0.44890428 0.12218908 0.0049890969
0.44893375 0.123159 0.0049831867
0.44896322 0.12412894 0.0049772761
0.44814757 0.1252694 0.0044300091
0.4481771 0.12624092 0.0044240886
0.44736156 0.12738617 0.0038767923
0.44654608 0.1285346 0.0033294444
0.44573072 0.12968622 0.002782115
0.4457604 0.13066252 0.0027761657
0.44579008 0.13163881 0.0027702164
0.44497493 0.13279679 0.0022228423
0.43912122 0.13604672 -0.0015792488
0.45382941 0.040436454 0.0090689845
0.45725182 0.041259497 0.0112302
0.45812899 0.042175185 0.011766171
0.45900604 0.043087684 0.012302161
0.45903486 0.044035312 0.012296387
0.45906365 0.044982944 0.012290613
0.45909247 0.045930572 0.012284838
0.45996928 0.04683511 0.012820872
0.45999804 0.047781147 0.012815107
0.4600268 0.048727185 0.012809342
0.46005556 0.049673218 0.012803577
0.46008432 0.050619256 0.012797812
0.46011305 0.051565293 0.012792047
0.46014181 0.052511331 0.012786282
0.46017057 0.053457368 0.012780517
0.45935169 0.054459237 0.012232866
0.45938048 0.055406865 0.012227092
0.4594093 0.056354493 0.012221318
0.45943809 0.057302125 0.012215543
0.4594669 0.058249753 0.012209768
0.45949569 0.059197381 0.012203993
0.45952451 0.060145013 0.012198219
0.4595533 0.061092641 0.012192444
0.45958212 0.062040273 0.01218667
0.45961091 0.062987901 0.012180896
0.45963973 0.063935526 0.01217512
0.45882142 0.064956509 0.011627348
0.45885026 0.065905735 0.011621564
0.45887911 0.066854954 0.011615779
0.45890799 0.067804173 0.011609995
0.45893684 0.068753399 0.01160421
0.45811883 0.069783933 0.011056379
0.45814773 0.070734747 0.011050586
0.45817661 0.071685567 0.011044792
0.45820552 0.072636381 0.011038998
0.45823443 0.073587194 0.011033203
0.45741665 0.074627288 0.010485282
0.45744559 0.075579695 0.010479479
0.45747456 0.076532103 0.010473675
0.4575035 0.077484511 0.010467871
0.45753247 0.078436919 0.010462068
0.4575614 0.079389326 0.010456264
0.45759034 0.080341734 0.01045046
0.45761931 0.081294142 0.010444657
0.45680201 0.08234857 0.0098966798
0.45683101 0.083302565 0.0098908665
0.45686001 0.084256567 0.0098850532
0.456889 0.085210569 0.0098792398
0.456918 0.086164571 0.0098734265
0.456947 0.087118566 0.0098676132
0.456976 0.088072568 0.0098617999
0.45700499 0.08902657 0.0098559856
0.45703399 0.089980565 0.0098501723
0.45706299 0.090934567 0.009844359
0.45624623 0.092006512 0.0092962822
0.45627528 0.092962109 0.0092904586
0.45630434 0.093917698 0.0092846351
0.45633337 0.094873294 0.0092788124
0.45636243 0.095828883 0.0092729889
0.45639145 0.09678448 0.0092671663
0.45642051 0.097740062 0.0092613427
0.45560414 0.098824754 0.0087131821
0.45563325 0.099781938 0.0087073492
0.45566234 0.10073913 0.0087015163
0.45569143 0.10169631 0.0086956834
0.45572051 0.1026535 0.0086898506
0.45490441 0.10374774 0.0081415996
0.45493355 0.10470653 0.0081357574
0.45496267 0.1056653 0.0081299143
0.4541468 0.10676591 0.0075816568
0.45417601 0.10772628 0.0075758044
0.45336026 0.10883168 0.0070275171
0.4533895 0.10979364 0.0070216553
0.45257393 0.11090381 0.0064733448
0.45260319 0.11186737 0.0064674732
0.45178777 0.11298231 0.0059191277
0.4518171 0.11394746 0.0059132464
0.45100173 0.11506719 0.0053648399
0.45103112 0.11603393 0.0053589488
0.45021597 0.11715844 0.0048105456
0.45024541 0.11812676 0.0048046447
0.45027485 0.1190951 0.0047987439
0.44945988 0.12022597 0.0042503015
0.44948936 0.1211959 0.0042443913
0.44867456 0.12233156 0.0036959255
0.44870406 0.12330307 0.0036900053
0.4487336 0.1242746 0.0036840851
0.44791898 0.12541661 0.0031355747
0.44794858 0.12638973 0.0031296448
0.44713405 0.12753652 0.0025810734
0.44631967 0.12868652 0.0020325147
0.44550538 0.12983969 0.0014839363
0.44553509 0.13081758 0.0014779774
0.44472095 0.13197552 0.00092937576
0.44390687 0.13313666 0.00038071696
0.45700693 0.0412702 0.0099513568
0.45873043 0.042152427 0.011031576
0.45875928 0.043101646 0.011025792
0.45878813 0.044050869 0.011020008
0.45966411 0.044960223 0.011557251
0.4596929 0.045907851 0.011551476
0.45972171 0.046855483 0.011545702
0.4597505 0.047803111 0.011539927
0.45977932 0.04875074 0.011534153
0.45980811 0.049698368 0.011528378
0.45983693 0.050646 0.011522603
0.45986572 0.051593628 0.011516829
0.45989454 0.052541256 0.011511054
0.45992333 0.053488888 0.01150528
0.45995212 0.054436516 0.011499505
0.45998093 0.055384144 0.01149373
0.46000972 0.056331776 0.011487956
0.46003854 0.057279404 0.011482181
0.45922092 0.058289196 0.010933243
0.45924976 0.059238423 0.010927459
0.45927861 0.060187642 0.010921675
0.45930746 0.061136864 0.01091589
0.45933631 0.062086087 0.010910106
0.45936516 0.063035309 0.010904321
0.45939404 0.063984528 0.010898537
0.45942289 0.064933755 0.010892753
0.45860568 0.065957882 0.010343733
0.45863459 0.066908695 0.010337939
0.45866349 0.067859508 0.010332146
0.45869237 0.068810321 0.010326351
0.45872128 0.069761142 0.010320557
0.45875019 0.070711955 0.010314764
0.4587791 0.071662769 0.010308969
0.45796221 0.072699644 0.009759834
0.45799118 0.073652051 0.00975403
0.45802012 0.074604452 0.009748227
0.45804906 0.075556859 0.009742423
0.45807803 0.076509275 0.009736619
0.4572615 0.077555694 0.0091874581
0.4572905 0.078509696 0.0091816448
0.4573195 0.079463698 0.0091758315
0.4573485 0.080417693 0.0091700181
0.45737749 0.081371695 0.0091642048
0.45740649 0.082325697 0.0091583906
0.45743549 0.083279692 0.0091525773
0.45746449 0.084233694 0.0091467639
0.45749348 0.085187696 0.0091409506
0.45667744 0.086250044 0.0085916985
0.45670649 0.087205641 0.0085858749
0.45673555 0.08816123 0.0085800523
0.45676458 0.089116819 0.0085742287
0.45679364 0.090072416 0.0085684052
0.45682266 0.091028005 0.0085625825
0.45685172 0.091983601 0.008556759
0.45603609 0.093058698 0.008007423
0.45606518 0.094015881 0.0080015901
0.45609426 0.094973065 0.0079957573
0.45612335 0.095930248 0.0079899253
0.45615247 0.096887432 0.0079840925
0.45618156 0.097844623 0.0079782596
0.45621064 0.098801807 0.0079724267
0.45539534 0.099889643 0.0074229809
0.45542449 0.10084843 0.0074171382
0.45545363 0.10180721 0.0074112955
0.45548275 0.10276598 0.0074054534
0.45466775 0.10386178 0.0068559968
0.45469692 0.10482215 0.0068501444
0.45388207 0.10592272 0.0063006533
0.4539113 0.10688468 0.0062947911
0.45394054 0.10784665 0.0062889294
0.45312586 0.1089536 0.0057393992
0.45315516 0.10991715 0.0057335277
0.45234063 0.11102887 0.0051839743
0.45236996 0.11199402 0.005178093
0.45155552 0.11311053 0.0046284725
0.45158491 0.11407727 0.0046225814
0.45077068 0.11519855 0.0040729637
0.45080012 0.11616688 0.0040670633
0.44998601 0.11729294 0.0035174224
0.45001549 0.11826286 0.003511512
0.44920155 0.1193937 0.0029618363
0.44923106 0.12036522 0.0029559161
0.44926059 0.12133674 0.0029499959
0.44844684 0.12247395 0.0024002814
0.44847643 0.12344706 0.0023943514
0.448506 0.12442017 0.0023884217
0.44769239 0.12556376 0.0018386419
0.44772202 0.12653846 0.0018327023
0.44690859 0.12768681 0.00128292
0.44609529 0.12883835 0.0007331181
0.44528204 0.12999308 0.0001833026
0.44531181 0.13097256 0.0001773339
0.44365585 0.13231209 -0.00091643026
0.4428429 0.13347636 -0.0014663039
0.4576104 0.041247368 0.0092143007
0.45933187 0.042129669 0.010296987
0.45936072 0.043078892 0.010291203
0.4593896 0.044028111 0.010285418
0.45941845 0.044977333 0.010279634
0.45944729 0.045926556 0.01027385
0.45947614 0.046875779 0.010268065
0.45950499 0.047824997 0.010262282
0.46037975 0.048728023 0.010800791
0.46040857 0.049675651 0.010795017
0.46043736 0.050623279 0.010789242
0.46046618 0.051570907 0.010783467
0.46049497 0.052518539 0.010777692
0.46052378 0.053466167 0.010771918
0.45970696 0.054469552 0.010221791
0.45973581 0.055418774 0.010216007
0.45976466 0.056367997 0.010210223
0.45979351 0.05731722 0.010204438
0.45982236 0.058266442 0.010198654
0.45985121 0.059215665 0.010192869
0.45988005 0.060164884 0.010187086
0.45906365 0.061181013 0.0096368752
0.45909253 0.062131826 0.0096310815
0.45912144 0.063082643 0.0096252868
0.45915034 0.064033456 0.009619493
0.45917925 0.064984269 0.0096136993
0.45920813 0.065935083 0.0096079055
0.45923704 0.066885896 0.0096021108
0.45926595 0.067836709 0.0095963171
0.45929486 0.06878753 0.0095905233
0.45847884 0.069819584 0.0090401899
0.45850781 0.070771992 0.0090343859
0.45853674 0.0717244 0.0090285819
0.45856568 0.072676808 0.0090227788
0.45859465 0.073629215 0.0090169748
0.45777899 0.074670821 0.0084666088
0.45780799 0.075624824 0.0084607955
0.45783699 0.076578826 0.0084549822
0.45786598 0.077532828 0.0084491689
0.45789498 0.078486823 0.0084433556
0.45792398 0.079440825 0.0084375422
0.45795298 0.080394827 0.0084317289
0.45798197 0.081348822 0.0084259156
0.45801097 0.082302824 0.0084201023
0.45719579 0.083360359 0.007869645
0.45722485 0.084315948 0.0078638224
0.4572539 0.085271545 0.0078579988
0.45728293 0.086227134 0.0078521753
0.45731199 0.08718273 0.0078463526
0.4564971 0.088249817 0.007295832
0.45652619 0.089207001 0.0072899992
0.45655531 0.090164192 0.0072841663
0.45658439 0.091121376 0.0072783334
0.45661348 0.092078559 0.0072725005
0.45664257 0.09303575 0.0072666677
0.45582798 0.094113998 0.0067160469
0.45585713 0.095072769 0.0067102043
0.45588627 0.096031547 0.0067043616
0.45591542 0.096990325 0.0066985195
0.45594457 0.097949103 0.0066926768
0.45513031 0.099036895 0.0061420356
0.45515952 0.099997267 0.0061361832
0.45518869 0.10095764 0.0061303312
0.45521787 0.10191801 0.0061244788
0.45440388 0.10301377 0.0055737835
0.45443311 0.10397574 0.0055679213
0.45446235 0.10493769 0.0055620596
0.45364854 0.10603982 0.0050113308
0.45367783 0.10700338 0.0050054593
0.45286417 0.10811029 0.0044546961
0.4528935 0.10907544 0.0044488148
0.45207992 0.11018713 0.0038979957
0.45210931 0.11115386 0.0038921048
0.45213869 0.11212061 0.0038862138
0.45132536 0.11323867 0.0033353823
0.4513548 0.114207 0.0033294815
0.45054162 0.11532983 0.0027786267
0.45057109 0.11629976 0.0027727163
0.44975805 0.11742737 0.0022218267
0.44978759 0.11839889 0.0022159065
0.4489747 0.11953128 0.0016649937
0.44900426 0.12050438 0.0016590639
0.44903386 0.12147751 0.0016531339
0.44822112 0.12261628 0.0011021444
0.44825074 0.12359098 0.0010962047
0.44828036 0.12456568 0.0010902651
0.44830999 0.12554039 0.0010843256
0.44749752 0.12668711 0.00053332531
0.44668517 0.12783702 -1.7700148e-05
0.4458729 0.12899011 -0.00056873925
0.4450607 0.1301464 -0.0011198357
0.44424862 0.13130586 -0.0016709135
0.44343665 0.13246852 -0.0022220167
0.45736858 0.041257951 0.0079317838
0.45908809 0.042141922 0.0090169273
0.459117 0.043092739 0.0090111326
0.45999104 0.044005353 0.0095508238
0.45917481 0.044994365 0.0089995451
0.46004874 0.045903798 0.0095392549
0.46007758 0.046853021 0.0095334705
0.46010643 0.04780224 0.0095276861
0.46013528 0.048751462 0.0095219025
0.46016416 0.049700685 0.0095161181
0.46019301 0.050649907 0.0095103336
0.46022186 0.05159913 0.0095045492
0.46025071 0.052548353 0.0094987648
0.46027955 0.053497575 0.0094929803
0.4603084 0.054446794 0.0094871959
0.46033725 0.055396017 0.0094814124
0.45952159 0.056404144 0.0089300172
0.4595505 0.057354957 0.0089242226
0.45957941 0.05830577 0.0089184288
0.45960832 0.059256587 0.008912635
0.45963719 0.0602074 0.0089068413
0.4596661 0.061158217 0.0089010466
0.45969501 0.062109031 0.0088952528
0.45972392 0.063059844 0.0088894591
0.4597528 0.064010657 0.0088836653
0.45978171 0.064961478 0.0088778706
0.45896652 0.065987125 0.0083263433
0.45899546 0.066939533 0.0083205393
0.45902443 0.067891933 0.0083147353
0.45905337 0.068844341 0.0083089322
0.45908234 0.069796748 0.0083031282
0.45911127 0.070749156 0.0082973242
0.45914021 0.071701564 0.0082915211
0.45832548 0.072739951 0.0077399411
0.45835447 0.073693953 0.0077341278
0.45838347 0.074647948 0.0077283145
0.45841247 0.07560195 0.0077225012
0.45844147 0.076555952 0.0077166874
0.45847046 0.077509955 0.0077108741
0.45849946 0.078463949 0.0077050608
0.45768511 0.079515077 0.0071534095
0.45771417 0.080470674 0.0071475864
0.4577432 0.081426263 0.0071417633
0.45777225 0.082381852 0.0071359403
0.45780128 0.083337449 0.0071301172
0.45783034 0.084293038 0.0071242941
0.45701632 0.085355319 0.0065725748
0.45704541 0.086312503 0.006566742
0.45707452 0.087269686 0.0065609091
0.45710361 0.08822687 0.0065550762
0.4571327 0.089184053 0.0065492433
0.45631891 0.090255894 0.0059974282
0.45634806 0.091214672 0.0059915856
0.45637721 0.092173442 0.0059857429
0.45640635 0.093132228 0.0059799002
0.45559287 0.094212025 0.0054280744
0.45562208 0.09517239 0.0054222224
0.45565125 0.096132763 0.00541637
0.45568046 0.097093128 0.0054105176
0.45570964 0.098053508 0.0054046656
