# .PCD v0.7 - Point Cloud Data file format
VERSION 0.7
FIELDS x y z
SIZE 4 4 4
TYPE F F F
COUNT 1 1 1
WIDTH 1389
HEIGHT 1
VIEWPOINT 0 0 0 1 0 0 0
POINTS 1389
DATA ascii
0.54192156 0.097175628 0.048506781
0.54194623 0.097986281 0.048501842
0.54114228 0.098949321 0.047934666
0.54033846 0.099915542 0.047367506
0.54036319 0.10072939 0.047362544
0.53955954 0.10170039 0.046795353
0.53875601 0.10267456 0.046228141
0.53878087 0.1034916 0.046223164
0.5379774 0.10447056 0.045655925
0.53717405 0.10545271 0.045088634
0.53719902 0.10627294 0.045083635
0.53639585 0.10725985 0.044516344
0.5505749 0.063789859 0.054270387
0.55059898 0.064583004 0.054265555
0.55062312 0.06537614 0.05426072
0.5506472 0.066169284 0.054255888
0.55067134 0.066962428 0.054251052
0.55069542 0.067755572 0.054246221
0.54989028 0.068643712 0.0536783
0.54991442 0.069438443 0.053673457
0.54993856 0.070233181 0.053668614
0.54996276 0.071027912 0.053663772
0.5499869 0.071822651 0.053658929
0.55001104 0.072617382 0.053654086
0.55003518 0.073412113 0.053649243
0.55005938 0.074206851 0.0536444
0.55008352 0.07500159 0.053639557
0.55010766 0.075796321 0.053634714
0.55013186 0.076591052 0.053629871
0.550156 0.077385783 0.053625029
0.55018014 0.078180522 0.053620186
0.55020428 0.07897526 0.053615343
0.55022848 0.079769991 0.0536105
0.54942405 0.080683619 0.053042427
0.54944825 0.081479944 0.053037573
0.54947245 0.08227627 0.053032722
0.54949671 0.083072595 0.053027868
0.54869246 0.083994187 0.052459713
0.54871672 0.084792107 0.052454852
0.54874098 0.085590027 0.05244999
0.54793704 0.08651799 0.051881827
0.54713321 0.087449133 0.051313646
0.54715753 0.088250235 0.051308766
0.5471819 0.089051344 0.051303882
0.5463782 0.089988858 0.050735664
0.54640263 0.090791546 0.050730772
0.5455991 0.091733836 0.050162524
0.54562354 0.092538133 0.050157622
0.54482013 0.093485206 0.04958931
0.54401684 0.094435461 0.049021013
0.5440414 0.09524294 0.049016092
0.54323828 0.096197963 0.048447765
0.54243523 0.097156189 0.04787942
0.54163224 0.098117605 0.047311023
0.54165697 0.098929845 0.047306072
0.54085416 0.099896029 0.046737678
0.54005146 0.10086539 0.046169262
0.53924888 0.10183795 0.045600832
0.53927368 0.10265497 0.045595851
0.53847122 0.10363231 0.04502739
0.53766882 0.10461283 0.044458874
0.5376938 0.10543305 0.044453878
0.53689158 0.10641834 0.043885365
0.53691655 0.10724015 0.043880358
0.55102921 0.062184561 0.053666249
0.55105335 0.062977701 0.053661413
0.55107743 0.063770846 0.053656582
0.55110157 0.064563982 0.05365175
0.55112565 0.065357126 0.053646915
0.55114979 0.06615027 0.053642083
0.55117387 0.066943407 0.053637248
0.55119801 0.067736551 0.053632416
0.55122209 0.068529695 0.053627584
0.55124623 0.069322839 0.053622749
0.55127031 0.070115976 0.053617917
0.55129445 0.07090912 0.053613082
0.55131853 0.071702264 0.05360825
0.55134261 0.072495401 0.053603418
0.55136675 0.073288545 0.053598583
0.55139083 0.074081689 0.053593751
0.55141497 0.074874833 0.053588916
0.55143905 0.07566797 0.053584084
0.55146319 0.076461114 0.053579252
0.55065954 0.077366732 0.053009994
0.55151141 0.078047395 0.053569585
0.55070788 0.078956202 0.053000309
0.55073202 0.079750933 0.052995466
0.55075616 0.080545679 0.052990623
0.55078036 0.08134041 0.05298578
0.54997706 0.082257181 0.052416451
0.55000126 0.083053507 0.052411601
0.55002546 0.083849832 0.052406747
0.54922235 0.084772982 0.051837351
0.54924655 0.085570902 0.051832486
0.54844362 0.086498819 0.051263094
0.5476408 0.087429926 0.05069368
0.54766512 0.088231027 0.050688799
0.5476895 0.089032136 0.050683916
0.54688686 0.089969613 0.050114464
0.54691124 0.090772301 0.050109573
0.54610872 0.091714554 0.049540091
0.54530627 0.092660002 0.048970558
0.54450393 0.093608625 0.048401039
0.54452848 0.094416104 0.048396118
0.54372633 0.095369503 0.047826566
0.54292423 0.09632609 0.047256999
0.5429489 0.097136751 0.047252059
0.54214692 0.098098129 0.046682425
0.54134506 0.099062674 0.046112809
0.54054338 0.10003041 0.045543171
0.54056811 0.10084584 0.045538206
0.53976655 0.10181836 0.044968538
0.53896505 0.10279405 0.044398855
0.5381636 0.10377295 0.043829117
0.53818858 0.10459317 0.043824118
0.53738731 0.10557683 0.043254383
0.53658617 0.10656368 0.04268463
0.5366112 0.10738707 0.042679612
0.53581017 0.1083787 0.042109832
0.55067998 0.061452992 0.05249181
0.55070412 0.062247723 0.052486967
0.55155587 0.062958688 0.053047609
0.55158001 0.063751832 0.053042777
0.55160409 0.064544968 0.053037945
0.55162823 0.065338112 0.05303311
0.55165231 0.066131249 0.053028278
0.55167645 0.066924393 0.053023443
0.55170053 0.067717537 0.053018611
0.55255193 0.068415754 0.053579345
0.55174875 0.069303818 0.053008944
0.55177289 0.070096962 0.053004112
0.55179697 0.070890099 0.052999277
0.55264819 0.071581952 0.053560048
0.55267221 0.072373502 0.053555228
0.55186927 0.073269531 0.052984778
0.55189341 0.074062675 0.052979946
0.55191749 0.074855812 0.052975111
0.55194163 0.075648956 0.052970279
0.55196571 0.0764421 0.052965447
0.55198985 0.077235237 0.052960612
0.55201393 0.078028381 0.05295578
0.55203807 0.078821525 0.052950945
0.55206215 0.079614662 0.052946113
0.55208629 0.080407806 0.052941281
0.5512839 0.081321359 0.052370738
0.55130804 0.08211609 0.052365895
0.55050582 0.083034411 0.05179533
0.55053002 0.083830737 0.051790476
0.54972792 0.084753849 0.051219843
0.54975218 0.085551769 0.051214982
0.5489502 0.086479649 0.050644357
0.54897451 0.087279163 0.050639484
0.54817271 0.08821182 0.050068829
0.54819709 0.089012928 0.050063945
0.54739547 0.089950368 0.049493261
0.5465939 0.090890989 0.048922557
0.54661834 0.091695271 0.048917659
0.5458169 0.092640683 0.048346892
0.54501557 0.093589261 0.047776137
0.54504013 0.09439674 0.047771215
0.54423898 0.095350109 0.047200434
0.5434379 0.096306652 0.046629634
0.54263687 0.097266391 0.046058781
0.54266161 0.098078653 0.046053831
0.54186076 0.099043161 0.045482982
0.54106003 0.10001086 0.044912111
0.54025942 0.10098173 0.044341221
0.53945887 0.10195581 0.043770317
0.53865838 0.10293306 0.043199353
0.53868335 0.10375328 0.043194357
0.53788304 0.10473531 0.042623397
0.53708285 0.10572053 0.042052422
0.53710788 0.10654394 0.042047407
0.53630781 0.10753392 0.041476402
0.53633291 0.10835893 0.041471373
0.53553295 0.10935371 0.040900305
0.55115938 0.060639203 0.051881619
0.55118358 0.061433937 0.051876776
0.55120772 0.062228668 0.051871933
0.55123186 0.063023403 0.05186709
0.55208254 0.06373281 0.052428972
0.55210668 0.064525954 0.05242414
0.55213076 0.065319099 0.052419305
0.5521549 0.066112235 0.052414473
0.55300534 0.066813678 0.052976418
0.55302942 0.067605227 0.052971594
0.5530535 0.068396777 0.052966774
0.55307752 0.069188327 0.052961949
0.5531016 0.069979876 0.052957125
0.55312568 0.070771426 0.052952301
0.5531497 0.071562976 0.052947477
0.55317378 0.072354518 0.052942656
0.5531978 0.073146068 0.052937832
0.55322188 0.073937617 0.052933007
0.55324596 0.074729167 0.052928183
0.55326998 0.075520717 0.052923359
0.55329406 0.076312266 0.052918538
0.55331814 0.077103816 0.052913714
0.55334216 0.077895366 0.05290889
0.5525406 0.078802504 0.05233714
0.55256474 0.079595648 0.052332308
0.55258882 0.080388792 0.052327476
0.5526129 0.081181936 0.052322641
0.55181164 0.082097031 0.051750861
0.55183578 0.08289177 0.051746018
0.55103463 0.083811648 0.051174209
0.55023348 0.084734723 0.050602343
0.55025774 0.085532643 0.050597481
0.54945683 0.086460479 0.050025623
0.54865599 0.087391511 0.049453743
0.54868037 0.088192619 0.049448863
0.54787964 0.08912842 0.048876956
0.54790407 0.089931123 0.048872065
0.54710352 0.090871699 0.048300128
0.54630303 0.091815479 0.047728136
0.54632753 0.092621356 0.047723226
0.54552722 0.093569905 0.047151241
0.54472703 0.094521642 0.046579234
0.54392695 0.09547656 0.046007212
0.54395157 0.096287213 0.046002273
0.54315156 0.097246923 0.045430187
0.54235172 0.098209806 0.044858113
0.54155195 0.099175863 0.04428602
0.54075229 0.10014512 0.043713909
0.5399527 0.10111755 0.043141779
0.53997761 0.10193618 0.04313679
0.53917813 0.1029134 0.042564597
0.53837878 0.1038938 0.041992418
0.53840375 0.10471561 0.041987412
0.53678042 0.10586415 0.040847998
0.53680551 0.10668916 0.040842973
0.53600645 0.10768071 0.040270694
0.5360316 0.1085073 0.040265657
0.5360567 0.10933389 0.04026062
0.44490013 0.13820881 -0.022764903
0.44493061 0.13921216 -0.022771016
0.44413772 0.14040439 -0.023344485
0.44416827 0.14140937 -0.023350609
0.44419882 0.14241433 -0.023356734
0.44422936 0.1434193 -0.023362858
0.44425991 0.14442424 -0.023368983
0.55083722 0.060699068 0.050698664
0.55086148 0.061495397 0.05069381
0.55171126 0.062209617 0.051256899
0.55173546 0.063004352 0.051252056
0.55258512 0.063713796 0.051815171
0.55260921 0.064506941 0.051810335
0.55263335 0.065300077 0.051805504
0.55265743 0.066093221 0.051800672
0.55350691 0.066794701 0.05236385
0.55353093 0.067586251 0.052359026
0.55438024 0.068282954 0.052922215
0.55440426 0.06907291 0.052917402
0.55442828 0.069862865 0.052912589
0.5544523 0.07065282 0.052907776
0.55447632 0.071442775 0.052902963
0.55450028 0.072232738 0.052898146
0.5545243 0.073022693 0.052893333
0.55454832 0.073812649 0.05288852
0.55457234 0.074602604 0.052883707
0.55459636 0.075392559 0.052878894
0.55462039 0.076182514 0.052874077
0.55381966 0.077084839 0.052301146
0.55384374 0.077876389 0.052296322
0.55386782 0.078667939 0.052291498
0.55306727 0.079576634 0.051718507
0.55309135 0.080369778 0.051713672
0.55311549 0.081162922 0.05170884
0.55231518 0.08207798 0.051135827
0.55233932 0.082872711 0.051130984
0.55153918 0.083792552 0.050557937
0.55073905 0.08471559 0.049984843
0.55076331 0.08551351 0.049979981
0.54996341 0.086441316 0.04940689
0.54916358 0.087372303 0.048833776
0.54918796 0.088173412 0.048828896
0.54838824 0.089109175 0.048255756
0.54841268 0.089911878 0.048250865
0.54761314 0.090852417 0.047677696
0.54681367 0.091796152 0.047104474
0.54601431 0.092743069 0.046531264
0.54603887 0.093550548 0.046526343
0.54523969 0.09450224 0.045953106
0.54444057 0.095457122 0.045379851
0.54364157 0.096415192 0.04480654
0.54284263 0.097376443 0.044233244
0.54286736 0.098190293 0.044228286
0.5420686 0.099156313 0.043654963
0.54126996 0.10012554 0.043081619
0.54047143 0.10109793 0.042508256
0.53967291 0.10207352 0.04193484
0.53887451 0.10305229 0.041361436
0.53889948 0.1038741 0.041356429
0.53810126 0.10485764 0.040782996
0.53730315 0.10584438 0.040209547
0.5365051 0.10683431 0.039636042
0.5365302 0.1076609 0.039631005
0.53655535 0.10848748 0.039625969
0.53575748 0.10948376 0.03905246
0.44556639 0.13918811 -0.023547515
0.44559687 0.1401915 -0.023553628
0.44562736 0.14119487 -0.023559744
0.44483557 0.14239024 -0.024134463
0.44568837 0.14320162 -0.023571972
0.44571885 0.14420497 -0.023578087
0.44739369 0.14481479 -0.022446891
0.55051708 0.060758863 0.04951321
0.55136603 0.061476305 0.050077543
0.55139023 0.062272631 0.050072689
0.552239 0.062985301 0.050637018
0.55226314 0.063780032 0.050632175
0.55311179 0.064487919 0.05119653
0.55313587 0.065281063 0.051191699
0.55316001 0.066074207 0.051186867
0.55400842 0.066775724 0.051751278
0.5540325 0.067567274 0.051746454
0.5548808 0.068264015 0.05231088
0.55490482 0.06905397 0.052306063
0.55492884 0.069843926 0.05230125
0.5549528 0.070633881 0.052296437
0.55580086 0.071322657 0.052860912
0.55582482 0.072111018 0.052856106
0.55584878 0.072899386 0.052851304
0.55504888 0.073793709 0.052277181
0.5550729 0.074583665 0.052272368
0.55509686 0.07537362 0.052267555
0.55512089 0.076163575 0.052262742
0.55514491 0.076953538 0.052257925
0.55434525 0.077857405 0.05168375
0.55436933 0.078648955 0.051678926
0.55439341 0.079440504 0.051674102
0.55359393 0.080350764 0.051099867
0.55361801 0.081143901 0.051095035
0.55281872 0.082058929 0.050520789
0.55201954 0.082977138 0.049946524
0.55204374 0.083773464 0.04994167
0.55124468 0.084696457 0.049367342
0.55126894 0.085494377 0.049362481
0.55046999 0.086422145 0.048788153
0.54967117 0.087353103 0.048213813
0.54969555 0.088154204 0.04820893
0.54889685 0.08908993 0.047634557
0.54809833 0.090028845 0.047060166
0.5472998 0.090970956 0.046485722
0.5473243 0.091776833 0.046480808
0.54652596 0.092723712 0.045906369
0.54572773 0.093673773 0.04533191
0.54492962 0.094627023 0.04475743
0.54413152 0.095583469 0.044182897
0.54415619 0.096395724 0.044177946
0.54335833 0.09735693 0.043603417
0.54256052 0.098321334 0.043028872
0.54176283 0.099288911 0.042454302
0.5409652 0.10025968 0.041879721
0.54016769 0.10123364 0.04130508
0.5401926 0.10205386 0.041300081
0.53939527 0.10303258 0.040725447
0.538598 0.1040145 0.040150795
0.53780085 0.1049996 0.039576121
0.5370037 0.1059879 0.039001394
0.53702885 0.10681449 0.038996357
0.53623194 0.10780755 0.038421631
0.53625709 0.10863573 0.038416587
0.53628224 0.10946391 0.038411539
0.44787541 0.13978988 -0.023190452
0.44790581 0.14079006 -0.023196546
0.44793624 0.14179026 -0.023202641
0.44796664 0.14279044 -0.023208736
0.44799703 0.14379062 -0.02321483
0.55102265 0.060739733 0.048895709
0.55104691 0.061537653 0.048890848
0.55189478 0.062253539 0.049456421
0.55191898 0.063049868 0.049451571
0.55276674 0.063760981 0.050017137
0.55279088 0.064555712 0.050012294
0.55363846 0.065262049 0.050577894
0.55366254 0.066055186 0.050573062
0.55451 0.06675674 0.051138707
0.55535734 0.06745512 0.051704355
0.5553813 0.068245076 0.051699542
0.55540532 0.069035031 0.051694725
0.55625248 0.069727033 0.052260414
0.55627644 0.070515394 0.052255612
0.5563004 0.071303755 0.052250806
0.55632436 0.072092123 0.052246004
0.55634832 0.072880484 0.052241199
0.55637228 0.073668852 0.052236393
0.55639625 0.074457213 0.052231591
0.55559742 0.07535468 0.051656216
0.55562145 0.076144636 0.051651403
0.55564547 0.076934598 0.05164659
0.55566949 0.077724554 0.051641773
0.5548709 0.078629978 0.051066354
0.55489492 0.079421528 0.05106153
0.55409646 0.080331743 0.050486062
0.5541206 0.081124887 0.05048123
0.55332232 0.08203987 0.049905751
0.55252415 0.082958043 0.049330253
0.55254835 0.083754368 0.049325403
0.55175024 0.084677331 0.048749842
0.55095232 0.085603461 0.048174296
0.55097657 0.086402975 0.048169423
0.55017877 0.087333895 0.047593847
0.54938108 0.088267989 0.047018249
0.54940552 0.089070685 0.047013357
0.54860795 0.090009563 0.046437733
0.54781044 0.090951629 0.045862056
0.54701304 0.091896877 0.045286391
0.5470376 0.092704356 0.045281474
0.54624039 0.093654372 0.044705782
0.54544324 0.094607592 0.044130068
0.5446462 0.095563993 0.043554302
0.54384923 0.096523568 0.042978551
0.54387397 0.097337425 0.042973593
0.54307723 0.098301783 0.042397812
0.5422805 0.099269323 0.041822013
0.54148394 0.10024005 0.041246194
0.54068738 0.10121397 0.040670324
0.539891 0.10219108 0.040094465
0.53909469 0.10317136 0.039518587
0.53911972 0.10399476 0.039513569
0.53832358 0.10497982 0.038937666
0.53752744 0.10596808 0.038361706
0.53673148 0.10695951 0.037785761
0.53675663 0.1077877 0.037780713
0.53596085 0.10878391 0.037204742
0.53598607 0.10961368 0.037199683
0.53601128 0.11044345 0.037194628
0.55070555 0.060799409 0.047706589
0.55155247 0.061518524 0.048273344
0.55157673 0.062316444 0.048268482
0.5524236 0.063030772 0.0488353
0.5524478 0.063827105 0.04883045
0.55329442 0.064536661 0.04939726
0.55414099 0.065243036 0.049964093
0.55416512 0.066036172 0.049959257
0.55501151 0.066737764 0.050526135
0.55585784 0.067436181 0.051093016
0.55588186 0.068226136 0.051088203
0.55672801 0.06891977 0.05165511
0.55675197 0.069708131 0.051650308
0.55677593 0.070496492 0.051645502
0.55679989 0.07128486 0.051640701
0.55682391 0.072073221 0.051635895
0.55684787 0.072861582 0.051631089
0.55687183 0.07364995 0.051626287
0.55689579 0.074438311 0.051621482
0.55691975 0.075226679 0.05161668
0.55612195 0.076125696 0.051040065
0.55614597 0.076915659 0.051035251
0.55616999 0.077705614 0.051030438
0.55537242 0.078611001 0.050453782
0.55457491 0.079519585 0.049877096
0.55459905 0.080312729 0.049872261
0.55462313 0.081105873 0.049867429
0.55382586 0.082020819 0.049290717
0.5530287 0.082938954 0.048713986
0.55223155 0.083860278 0.048137199
0.55225581 0.084658198 0.048132338
0.5514589 0.08558429 0.047555558
0.55066204 0.086513571 0.046978761
0.55068642 0.087314688 0.046973877
0.54988968 0.088248745 0.046397049
0.54909313 0.08918599 0.045820203
0.54829657 0.090126425 0.045243304
0.54832107 0.09093231 0.045238394
0.54752469 0.09187752 0.044661496
0.54672843 0.092825912 0.044084582
0.54593229 0.093777493 0.043507647
0.54513615 0.09473227 0.042930659
0.54516083 0.095544517 0.042925708
0.54436493 0.096504055 0.042348724
0.54356909 0.097466789 0.041771721
0.54277337 0.098432705 0.0411947
0.54197776 0.099401802 0.04061766
0.54118216 0.1003741 0.040040564
0.54120708 0.10119431 0.040035568
0.54041171 0.10217137 0.039458476
0.53961641 0.10315162 0.038881369
0.53882122 0.10413505 0.03830424
0.53802609 0.10512167 0.037727054
0.53723109 0.10611148 0.037149888
0.53725624 0.10693966 0.03714484
0.53646141 0.10793424 0.036567643
0.53648663 0.10876402 0.036562588
0.53651184 0.10959378 0.036557533
0.53571719 0.11059473 0.035980295
0.5503661 0.060057901 0.04651989
0.55039042 0.060859006 0.04651501
0.55123645 0.061579753 0.047082987
0.5520823 0.062297311 0.047650982
0.55210656 0.063095234 0.04764612
0.55295235 0.063808009 0.048214179
0.55379802 0.064517602 0.048782226
0.55464357 0.065224014 0.049350288
0.55466765 0.066017158 0.049345452
0.55551308 0.066718787 0.049913563
0.5563584 0.067417242 0.050481677
0.55638242 0.068207197 0.050476864
0.55722755 0.068900868 0.051045008
0.55725151 0.069689229 0.051040202
0.55727547 0.070477597 0.051035397
0.55812049 0.071164891 0.051603597
0.55814439 0.071951658 0.051598802
0.55816829 0.072738431 0.051594008
0.55737132 0.073631048 0.051016182
0.55739528 0.074419409 0.051011376
0.55741924 0.075207777 0.051006574
0.55662251 0.076106757 0.050428726
0.55664653 0.07689672 0.050423913
0.55584991 0.077800475 0.049846034
0.55587399 0.078592025 0.04984121
0.55507749 0.079500571 0.049263291
0.55510157 0.080293715 0.049258456
0.55430526 0.08120703 0.048680525
0.55350906 0.082123533 0.048102569
0.55353326 0.082919858 0.048097719
0.55273712 0.083841145 0.047519702
0.55194116 0.084765613 0.046941698
0.55196548 0.085565127 0.046936825
0.55116963 0.086494371 0.046358794
0.55037391 0.087426804 0.045780744
0.54957825 0.088362418 0.045202672
0.54960275 0.089166708 0.045197774
0.5488072 0.090107106 0.044619638
0.54801178 0.091050684 0.044041522
0.54721648 0.091997445 0.043463383
0.54724109 0.092806518 0.043458451
0.54644591 0.093758054 0.042880286
0.54565084 0.094712794 0.042302065
0.54485583 0.095670708 0.041723859
0.54406101 0.096631795 0.041145634
0.54326624 0.097596079 0.040567387
0.54329109 0.098413117 0.04056241
0.54249644 0.099382177 0.039984133
0.54170185 0.10035443 0.039405808
0.54090744 0.10132986 0.038827494
0.54011309 0.10230847 0.038249161
0.53931886 0.10329027 0.037670814
0.53852469 0.10427527 0.037092406
0.53854984 0.10510185 0.03708737
0.53775585 0.10609163 0.03650897
0.53696191 0.10708458 0.035930548
0.53698719 0.10791434 0.035925493
0.53619343 0.10891207 0.035347044
0.5362187 0.10974344 0.035341978
0.55089808 0.060839802 0.045895044
0.55092239 0.061640903 0.04589016
0.55176735 0.062360097 0.046459381
0.55261213 0.063076101 0.04702862
0.5534569 0.063788921 0.047597911
0.55430156 0.064498551 0.048167188
0.5543257 0.065293282 0.048162345
0.55517024 0.065998144 0.048731651
0.5560146 0.06669981 0.049300995
0.5568589 0.067398302 0.049870338
0.55688292 0.068188258 0.049865525
0.5577271 0.068881966 0.050434899
0.55775106 0.069670327 0.050430093
0.55777502 0.070458695 0.050425291
0.55861896 0.071146026 0.05099472
0.55864292 0.071932793 0.050989926
0.5578469 0.072823785 0.050410878
0.55787086 0.073612146 0.050406072
0.55789483 0.074400514 0.05040127
0.55709904 0.075297862 0.0498222
0.55712306 0.076087818 0.049817387
0.55714703 0.07687778 0.049812574
0.55635148 0.077781498 0.049233466
0.5563755 0.078573048 0.049228642
0.55558002 0.079481557 0.048649486
0.55478472 0.080393247 0.04807033
0.55480886 0.081187978 0.048065487
0.55401361 0.082104445 0.047486302
0.55321848 0.083024099 0.04690706
0.55324274 0.083822019 0.046902198
0.55244774 0.084746443 0.046322964
0.55165291 0.085674055 0.045743711
0.55167723 0.086475164 0.045738827
0.55088252 0.087407559 0.045159545
0.55008787 0.088343136 0.044580244
0.54929334 0.089281902 0.044000886
0.54849887 0.090223849 0.043421544
0.54852343 0.091031328 0.043416627
0.54772913 0.091978051 0.042837251
0.54693496 0.092927955 0.042257864
0.54614079 0.093881063 0.041678421
0.54616547 0.094693318 0.04167347
0.54537153 0.095651194 0.041094031
0.54457766 0.096612245 0.040514573
0.5437839 0.097576492 0.039935093
0.54299027 0.098543927 0.039355598
0.54219663 0.099514544 0.038776051
0.54140317 0.10048834 0.038196512
0.54060984 0.10146533 0.037616957
0.53981656 0.10244551 0.037037384
0.53984159 0.10327049 0.037032358
0.53904843 0.10425545 0.036452718
0.53825539 0.10524359 0.035873096
0.53746247 0.10623491 0.035293456
0.53748769 0.10706469 0.035288397
0.53669488 0.10806078 0.034708727
0.53672016 0.10889214 0.034703661
0.53592753 0.10989302 0.034123961
0.53595287 0.11072598 0.034118883
0.5351603 0.11173163 0.03353912
0.55056161 0.060096588 0.044704653
0.55140567 0.060820594 0.045275073
0.55142999 0.061621699 0.045270193
0.55227393 0.062340926 0.045840643
0.55229819 0.063140437 0.045835771
0.55314201 0.063854888 0.04640625
0.55398571 0.06456615 0.046976786
0.5548293 0.065274231 0.047547307
0.55567276 0.065979123 0.048117843
0.55651617 0.066680834 0.048688419
0.55735946 0.067379363 0.049259
0.55738348 0.068169318 0.049254183
0.5574075 0.068959273 0.04924937
0.55825061 0.069651425 0.049819987
0.55827457 0.070439793 0.049815182
0.55829853 0.071228154 0.04981038
0.55832249 0.072016515 0.049805574
0.55834645 0.072804883 0.049800768
0.55837041 0.073593244 0.049795967
0.55839437 0.074381612 0.049791161
0.55759954 0.075278923 0.049210861
0.55762357 0.076068878 0.049206048
0.55682898 0.076970972 0.048625715
0.556853 0.077762522 0.048620891
0.55605847 0.078669399 0.048040513
0.55608261 0.079462536 0.048035681
0.55528826 0.080374189 0.047455292
0.55449402 0.081289023 0.046874881
0.55369979 0.082207054 0.046294417
0.55372405 0.083004966 0.046289556
0.55293006 0.083927765 0.0457091
0.55213612 0.084853746 0.045128621
0.5521605 0.085654847 0.045123741
0.55136675 0.086585611 0.044543236
0.55057305 0.087519556 0.04396271
0.55059749 0.088323854 0.043957811
0.54980391 0.089262582 0.043377221
0.54901052 0.090204492 0.042796645
0.54821718 0.091149583 0.042216051
0.54824179 0.091958649 0.042211119
0.54744858 0.092908524 0.041630499
0.54665548 0.093861587 0.041049823
0.5458625 0.094817832 0.040469162
0.54506958 0.095777266 0.039888479
0.54427677 0.096739873 0.039307781
0.54348409 0.097705677 0.03872706
0.54269141 0.098674662 0.038146287
0.54271638 0.099494882 0.038141292
0.54192388 0.10046864 0.037560523
0.54113156 0.10144559 0.036979735
0.54033929 0.10242572 0.036398925
0.53954709 0.10340904 0.035818066
0.538755 0.10439555 0.035237219
0.53796303 0.10538524 0.034656353
0.53798825 0.10621502 0.034651298
0.5371964 0.10720948 0.034070406
0.53640467 0.10820713 0.033489492
0.53643 0.10904009 0.033484414
0.53563839 0.11004253 0.032903437
0.53566372 0.11087708 0.032898352
0.53487229 0.11188428 0.032317381
0.53489769 0.11272043 0.032312285
0.55107021 0.060077343 0.044083454
0.55109459 0.060880043 0.044078562
0.55193758 0.061602492 0.044650227
0.55196196 0.062403597 0.044645347
0.55280483 0.063121274 0.045217037
0.55364758 0.063835762 0.04578875
0.55449027 0.064547062 0.046360519
0.55533284 0.06525518 0.046932269
0.55617535 0.065960109 0.047504041
0.55619943 0.066753253 0.04749921
0.55704176 0.067453407 0.048071027
0.55788404 0.068150379 0.048642848
0.557908 0.068940334 0.048638031
0.55875009 0.069632523 0.049209882
0.55877405 0.070420891 0.049205076
0.55879802 0.071209252 0.049200274
0.55882198 0.071997613 0.049195468
0.55884594 0.072785981 0.049190667
0.5588699 0.073574349 0.049185861
0.55807608 0.074470028 0.048604336
0.5581001 0.075259984 0.048599523
0.55812413 0.076049939 0.048594709
0.55733049 0.076951995 0.048013143
0.55653691 0.077857241 0.047431543
0.55656105 0.078650378 0.047426712
0.55576766 0.079560399 0.046845097
0.55497438 0.080473602 0.046263468
0.55499858 0.081269927 0.046258613
0.55420542 0.082187921 0.045676917
0.55341232 0.083109088 0.045095235
0.55343664 0.083908595 0.045090366
0.55264372 0.084834538 0.044508658
0.55185091 0.085763671 0.043926928
0.55187535 0.086566366 0.043922037
0.55108267 0.087500274 0.043340277
0.55029005 0.088437378 0.042758465
0.5494976 0.089377657 0.042176668
0.54952216 0.090185128 0.042171746
0.54872984 0.091130182 0.041589923
0.54793763 0.092078425 0.041008078
0.54714543 0.093029864 0.04042618
0.5471701 0.093842112 0.040421229
0.54637814 0.094798326 0.039839335
0.54558629 0.095757715 0.039257422
0.5447945 0.096720286 0.038675487
0.54400277 0.097686045 0.038093537
0.54321116 0.098655 0.037511531
0.54241967 0.09962713 0.03692954
0.54162824 0.10060245 0.036347531
0.54083693 0.10158094 0.035765499
0.54004568 0.10256264 0.035183419
0.53925461 0.10354751 0.034601349
0.53846359 0.10453557 0.034019262
0.53848881 0.10536534 0.034014203
0.53769791 0.10635818 0.033432085
0.53690714 0.1073542 0.032849949
0.53693247 0.10818716 0.032844875
0.53614181 0.10918797 0.032262672
0.53535128 0.11019195 0.031680491
0.53537667 0.1110281 0.031675395
0.53540212 0.11186424 0.031670298
0.53461176 0.11287459 0.031088075
0.54907662 0.058674216 0.041738752
0.55073667 0.059330828 0.042889386
0.55157882 0.060058098 0.043462254
0.5516032 0.060860798 0.043457363
0.55244517 0.061583284 0.04403026
0.55246955 0.062384389 0.044025376
0.55331141 0.063102104 0.044598304
0.55415314 0.063816629 0.04517125
0.5541774 0.064614549 0.045166388
0.55501908 0.065324292 0.045739397
0.55586058 0.06603086 0.046312392
0.55670196 0.066734239 0.046885405
0.55754334 0.06743443 0.047458455
0.55756736 0.06822598 0.047453631
0.55840856 0.068921395 0.048026696
0.55843258 0.06971135 0.048021879
0.5584566 0.070501305 0.048017066
0.55848056 0.07129126 0.048012253
0.55850458 0.072081223 0.04800744
0.5585286 0.072871178 0.048002627
0.55855262 0.073661134 0.04799781
0.55857664 0.074451089 0.047992997
0.55860066 0.075241044 0.047988184
0.55780798 0.076141469 0.047405396
0.55701536 0.077045083 0.046822574
0.5570395 0.07783822 0.046817739
0.55624706 0.078746609 0.046234906
0.55627126 0.07954134 0.046230063
0.55547893 0.080454513 0.045647196
0.55468673 0.081370868 0.045064282
0.55389464 0.082290404 0.044481374
0.55391896 0.083089918 0.044476505
0.55312699 0.084014229 0.043893572
0.55315137 0.084815331 0.043888688
0.55235958 0.085744426 0.043305729
0.55156785 0.086676702 0.042722747
0.55077618 0.087612174 0.042139713
0.55080068 0.088418052 0.042134803
0.55000925 0.0893583 0.041551773
0.54921788 0.090301722 0.040968724
0.54842663 0.091248326 0.040385656
0.54845124 0.092058994 0.040380716
0.54766011 0.093010388 0.039797585
0.5468691 0.093964957 0.039214466
0.54607815 0.094922721 0.038631331
0.54528731 0.095883667 0.038048178
0.5444966 0.096847787 0.037464999
0.54370594 0.097815119 0.036881771
0.5429154 0.098785624 0.036298558
0.54212493 0.099759303 0.035715327
0.54133463 0.10073618 0.035132073
0.54054433 0.10171624 0.034548767
0.53975415 0.10269948 0.033965476
0.53977937 0.10352766 0.033960428
0.53898931 0.10451568 0.033377107
0.53819942 0.10550688 0.032793768
0.5374096 0.10650127 0.032210406
0.53743494 0.10733423 0.032205332
0.53664523 0.10833341 0.031621911
0.53585565 0.10933577 0.0310385
0.5358811 0.11017191 0.031033406
0.53509164 0.11117904 0.03044997
0.53430235 0.11218935 0.029866513
0.53351307 0.11320285 0.029283039
0.5327239 0.11421955 0.028699508
0.55127072 0.060115837 0.042262055
0.5521118 0.060841553 0.042836163
0.55295283 0.061564077 0.043410294
0.55297714 0.062365185 0.04340541
0.55381799 0.063082933 0.04397957
0.55465871 0.063797496 0.044553749
0.55468297 0.064595424 0.044548888
0.55552363 0.065305203 0.045123126
0.55636412 0.066011809 0.045697354
0.55720454 0.066715218 0.046271604
0.55722862 0.067508362 0.046266768
0.55806893 0.068207003 0.046841059
0.55809301 0.068998545 0.046836235
0.55893308 0.069692411 0.04741054
0.5589571 0.070482366 0.047405727
0.55898112 0.071272321 0.047400914
0.55900514 0.072062284 0.047396101
0.55902916 0.072852239 0.047391288
0.55905318 0.073642194 0.047386475
0.55907714 0.07443215 0.047381658
0.55828547 0.075330943 0.046797648
0.55830956 0.076122493 0.046792824
0.55751795 0.077026069 0.046208769
0.55672646 0.07793282 0.045624711
0.55675066 0.078727558 0.045619868
0.55595934 0.079639092 0.045035779
0.55516803 0.080553822 0.044451639
0.55519229 0.081351742 0.044446778
0.55440122 0.082271233 0.043862645
0.55361027 0.083193921 0.043278486
0.55363458 0.083995022 0.043273605
0.55284375 0.084922485 0.04268942
0.55205303 0.08585313 0.04210522
0.55207747 0.08665742 0.042100318
0.55128682 0.087592855 0.041516047
0.55049634 0.088531457 0.040931795
0.54970592 0.089473255 0.040347528
0.54973054 0.090282321 0.040342595
0.5489403 0.091228895 0.039758295
0.54815006 0.092178658 0.039173938
0.54736 0.093131602 0.0385896
0.54657006 0.094087727 0.038005244
0.54578018 0.095047049 0.037420861
0.54499042 0.096009538 0.036836464
0.54420072 0.09697523 0.036252014
0.54422563 0.097795449 0.036247015
0.54343611 0.098765917 0.035662569
0.54264671 0.099739559 0.035078101
0.54185736 0.1007164 0.034493618
0.54106808 0.10169642 0.033909079
0.54027891 0.10267963 0.033324555
0.53948987 0.10366601 0.032740012
0.53870094 0.10465559 0.03215545
0.53791207 0.10564834 0.03157087
0.5379374 0.1064813 0.031565793
0.53714865 0.10747886 0.030981144
0.53636003 0.10847957 0.030396516
0.53557152 0.10948348 0.029811865
0.53559703 0.11032121 0.029806761
0.53480864 0.11132991 0.029222079
0.53402036 0.11234177 0.028637381
0.53323215 0.11335684 0.02805263
0.53244406 0.11437508 0.027467893
0.55259603 0.060019609 0.042219855
0.55262041 0.060822308 0.042214964
0.55346042 0.061544873 0.042790327
0.55348474 0.062345978 0.042785447
0.55350912 0.063147083 0.042780563
0.55434889 0.063863277 0.043355964
0.5551886 0.064576291 0.043931384
0.55602819 0.065286107 0.044506859
0.55605239 0.06608244 0.044502009
0.55689186 0.066787481 0.045077477
0.55773121 0.067489348 0.045652963
0.55775529 0.068282492 0.045648132
0.55859452 0.068979569 0.046223667
0.55861861 0.069771118 0.046218842
0.55945766 0.070463426 0.046794388
0.55948168 0.071253382 0.046789575
0.5595057 0.072043344 0.046784762
0.55952966 0.0728333 0.046779949
0.55873889 0.073728867 0.046194725
0.55876297 0.074520417 0.046189904
0.55878699 0.075311966 0.04618508
0.55799639 0.076213911 0.0455998
0.55720592 0.07711903 0.045014519
0.55723006 0.077913769 0.045009676
0.5564397 0.078823671 0.044424366
0.5556494 0.079736762 0.043839
0.55567366 0.080534689 0.043834139
0.55488354 0.081452556 0.04324878
0.55409348 0.082373604 0.042663403
0.55411786 0.083174713 0.042658519
0.55332798 0.084100537 0.042073112
0.55253822 0.085029557 0.041487686
0.55256265 0.085833848 0.041482788
0.55177295 0.086767644 0.040897295
0.55098343 0.087704629 0.040311821
0.55100799 0.0885121 0.0403069
0.55021858 0.089453854 0.039721396
0.5494293 0.090398803 0.039135873
0.54864007 0.091346934 0.038550295
0.54866475 0.092159182 0.038545344
0.5478757 0.093112089 0.037959773
0.54708672 0.094068177 0.037374184
0.54629791 0.095027462 0.036788572
0.5455091 0.095989913 0.036202941
0.54472041 0.096955568 0.035617258
0.54393184 0.097924404 0.035031587
0.54314339 0.098896421 0.0344459
0.542355 0.099871621 0.033860192
0.54156667 0.10085002 0.033274431
0.54077852 0.10183159 0.032688685
0.53999043 0.10281635 0.032102916
0.53920245 0.10380429 0.031517133
0.53922772 0.10463566 0.031512067
0.53843987 0.10562837 0.030926252
0.53765208 0.10662429 0.030340383
0.53686446 0.10762338 0.029754529
0.5360769 0.10862565 0.029168656
0.53528941 0.10963112 0.028582763
0.53531492 0.11047044 0.02857765
0.53452766 0.11148068 0.027991727
0.5337404 0.11249412 0.027405752
0.53295326 0.11351074 0.026819792
0.53216624 0.11453053 0.026233813
0.55228996 0.060077269 0.04101719
0.55312902 0.060803063 0.041593768
0.55315346 0.061605759 0.041588876
0.55399233 0.06232677 0.042165481
0.55401671 0.063127875 0.042160597
0.55485547 0.063844107 0.042737231
0.55569416 0.064557157 0.043313883
0.55571842 0.065355077 0.043309022
0.556557 0.066063344 0.043885738
0.5573954 0.06676843 0.044462439
0.5574196 0.067563169 0.044457596
0.55825788 0.068263479 0.04503433
0.55828196 0.069056615 0.045029495
0.55912012 0.069752142 0.04560627
0.5591442 0.070543692 0.04560145
0.55916828 0.071335241 0.045596626
0.5591923 0.072126791 0.045591801
0.55921638 0.072918341 0.045586977
0.55924046 0.07370989 0.045582153
0.5584507 0.074608609 0.044995662
0.55847484 0.075401753 0.04499083
0.55768532 0.076305248 0.044404324
0.55770946 0.077099979 0.044399481
0.55692005 0.078008249 0.043812949
0.55613071 0.078919716 0.043226361
0.55615497 0.079717636 0.0432215
0.5553658 0.080633871 0.042634919
0.55457675 0.081553295 0.04204832
0.55460107 0.082354397 0.042043436
0.55381221 0.083278596 0.041456807
0.5530234 0.084205978 0.040870156
0.55304784 0.085010268 0.040865254
0.55225909 0.08594244 0.040278543
0.55147052 0.086877786 0.039691847
0.55149508 0.087685265 0.039686926
0.55070662 0.088625394 0.039100196
0.54991829 0.089568704 0.038513452
0.54913002 0.090515204 0.037926652
0.5491547 0.091327459 0.037921701
0.54836661 0.092278734 0.037334908
0.54757863 0.09323319 0.036748093
0.54679072 0.094190836 0.036161259
0.54600292 0.09515167 0.035574406
0.54521519 0.096115686 0.034987498
0.54442757 0.097082883 0.034400605
0.54364008 0.098053269 0.033813693
0.54285264 0.099026851 0.033226766
0.54206532 0.10000362 0.032639779
0.54127806 0.10098355 0.032052808
0.54049098 0.10196668 0.031465821
0.5405162 0.10279646 0.031460766
0.53972924 0.10378435 0.030873748
0.53894234 0.10477544 0.030286709
0.5381555 0.10576972 0.029699616
0.53736883 0.10676719 0.029112542
0.53658223 0.10776784 0.028525446
0.53579575 0.10877167 0.027938331
0.53582126 0.109611 0.027933216
0.53503489 0.1106196 0.027346071
0.53424859 0.11163141 0.026758874
0.53346246 0.11264639 0.02617169
0.5326764 0.11366455 0.025584487
0.53189045 0.11468591 0.024997264
0.53110451 0.11571044 0.024409991
0.53031874 0.11673817 0.023822729
0.52872157 0.1179495 0.022653351
0.55279958 0.060057987 0.040394761
0.55363762 0.060783818 0.040972568
0.55366206 0.061586514 0.040967677
0.55449992 0.062307563 0.041545514
0.5545243 0.063108668 0.041540634
0.55536205 0.063824944 0.042118497
0.55538636 0.064624451 0.042113625
0.55622399 0.065335952 0.042691521
0.55624825 0.066133872 0.04268666
0.55708575 0.066840582 0.043264616
0.55792314 0.06754411 0.043842558
0.55794728 0.068338849 0.043837715
0.55878454 0.069037601 0.04441569
0.55880862 0.069830745 0.044410858
0.55883276 0.070623882 0.044406023
0.55885684 0.071417026 0.044401191
0.55888098 0.07221017 0.044396359
0.55890507 0.073003307 0.044391524
0.55892915 0.073796459 0.044386692
0.55895329 0.074589595 0.044381857
0.55816472 0.075491458 0.043794129
0.55818886 0.076286189 0.043789286
0.55740041 0.077192836 0.043201532
0.55661201 0.078102671 0.042613726
0.55663627 0.078900591 0.042608861
0.55584812 0.079815194 0.042021058
0.55505997 0.080732986 0.041433234
0.55508435 0.081534088 0.041428354
0.55429637 0.082456656 0.040840499
0.55350852 0.083382413 0.04025263
0.55353302 0.084186696 0.040247727
0.55274522 0.085117236 0.039659791
0.55195761 0.08605095 0.039071869
0.55198216 0.086858429 0.039066948
0.55119473 0.087796926 0.038478997
0.55040735 0.088738605 0.03789103
0.54962003 0.089683473 0.037303004
0.54964471 0.090495735 0.037298057
0.54885757 0.091445372 0.036710039
0.54807055 0.092398204 0.036122002
0.54728359 0.093354218 0.035533946
0.54649675 0.094313413 0.034945868
0.54570997 0.095275812 0.034357741
0.54492331 0.096241377 0.033769626
0.54413676 0.097210132 0.033181492
0.54335034 0.098182067 0.03259334
0.54337543 0.09900707 0.032588311
0.54258907 0.099983796 0.032000091
0.54180282 0.1009637 0.03141189
0.54101676 0.10194679 0.030823668
0.54023069 0.10293306 0.030235428
0.5394448 0.10392252 0.029647168
0.53865892 0.10491517 0.029058855
0.53787321 0.10591099 0.028470553
0.53708756 0.10691002 0.027882237
0.53630203 0.10791222 0.027293896
0.53632754 0.10875154 0.027288781
0.53554219 0.10975853 0.026700417
0.53475684 0.11076869 0.026111994
0.53397167 0.11178204 0.02552359
0.53318655 0.11279857 0.024935162
0.53240156 0.1138183 0.024346719
0.53161663 0.11484122 0.023758221
0.53083181 0.1158673 0.023169737
0.53004712 0.11689658 0.022581235
0.52845198 0.11810943 0.021409383
0.52766746 0.11914668 0.020820795
0.55407304 0.058356479 0.040366042
0.55409747 0.059159175 0.040361151
0.55412185 0.059961874 0.04035626
0.55414623 0.060764574 0.040351368
0.5549832 0.06148725 0.040930428
0.55500758 0.062288359 0.040925544
0.5550319 0.06308946 0.040920664
0.55505627 0.063890569 0.040915783
0.55589294 0.064605288 0.041494891
0.55672956 0.065316819 0.042074021
0.55675381 0.066114739 0.042069156
0.55677807 0.066912659 0.042064294
0.55761456 0.067617819 0.042643495
0.55845088 0.06831979 0.043222681
0.55847502 0.069114529 0.043217838
0.55931121 0.069811724 0.043797053
0.55933529 0.070604868 0.043792218
0.55935943 0.071398012 0.043787386
0.55938351 0.072191156 0.043782555
0.55940765 0.072984293 0.043777719
0.55943173 0.073777437 0.043772887
0.55864412 0.074677669 0.043183938
0.55866826 0.075472407 0.043179095
0.55788082 0.076377414 0.042590119
0.55709338 0.077285618 0.042001083
0.55711764 0.078083538 0.041996222
0.55633038 0.078996509 0.041407198
0.55554324 0.07991267 0.040818147
0.55556762 0.080713779 0.040813267
0.5547806 0.081634715 0.040224191
0.5539937 0.082558833 0.039635096
0.55320686 0.083486147 0.039045949
0.55323136 0.084292032 0.039041039
0.5524447 0.085224122 0.038451895
0.55246925 0.086031593 0.038446974
0.55168277 0.086968459 0.037857801
0.55089635 0.087908506 0.037268609
0.55010998 0.08885175 0.036679361
0.55013466 0.089664005 0.036674414
0.54934847 0.090612017 0.036085173
0.54856241 0.09156321 0.035495915
0.54777646 0.092517592 0.034906633
0.54780132 0.09333463 0.034901652
0.54701549 0.094293788 0.034312345
0.54622966 0.095256142 0.033722982
0.54544407 0.096221671 0.033133637
0.54465848 0.097190388 0.03254427
0.54387307 0.098162293 0.031954881
0.54308766 0.099137388 0.031365443
0.54230243 0.10011566 0.030776018
0.54151726 0.10109711 0.030186575
0.5407322 0.10208176 0.029597111
0.53994727 0.1030696 0.029007625
0.53916234 0.10406061 0.028418088
0.53918773 0.10489516 0.028413003
0.53840303 0.10589094 0.027823472
0.5376184 0.10688993 0.027233921
0.53683388 0.1078921 0.026644353
0.53604943 0.10889744 0.02605476
0.53526509 0.10990598 0.025465116
0.53448081 0.11091769 0.024875488
0.53369671 0.11193261 0.02428584
0.53291267 0.11295069 0.023696173
0.53212869 0.11397197 0.02310645
0.53134483 0.11499644 0.022516744
0.53056109 0.11602408 0.021927018
0.52977741 0.11705491 0.021337274
0.52818435 0.11826929 0.02016291
0.5282104 0.11912613 0.020157689
0.52661759 0.12035006 0.018983305
0.52664375 0.12121009 0.018978065
0.55372107 0.056802258 0.039169498
0.55455726 0.057534534 0.03974973
0.5545817 0.058337234 0.039744839
0.55460608 0.05913993 0.039739948
0.55463046 0.059942629 0.039735056
0.5546549 0.060745329 0.039730165
0.55549079 0.061468046 0.040310457
0.55551517 0.062269151 0.040305577
0.55553949 0.063070253 0.040300693
0.55556387 0.063871361 0.040295813
0.55639952 0.064586118 0.040876154
0.55642384 0.065385625 0.040871281
0.55725938 0.066095613 0.041451652
0.55728364 0.066893525 0.04144679
0.55811912 0.067598723 0.042027224
0.55814332 0.068395056 0.04202237
0.55897856 0.069095477 0.0426028
0.55900276 0.069890209 0.042597957
0.5590269 0.07068494 0.042593114
0.55905104 0.071479678 0.042588271
0.55907524 0.072274409 0.042583428
0.55909938 0.073069148 0.042578585
0.55912352 0.073863879 0.042573743
0.55833697 0.074765667 0.041983552
0.55836117 0.075561993 0.041978698
0.55757469 0.076468565 0.041388441
0.55759895 0.077266484 0.041383579
0.5568127 0.078177832 0.040793329
0.55602652 0.079092361 0.040203061
0.55605084 0.079893462 0.040198181
0.55526483 0.080812767 0.039607879
0.55447888 0.081735261 0.039017562
0.553693 0.082660951 0.038427189
0.55371749 0.083466828 0.038422279
0.55293179 0.084397286 0.037831914
0.5521462 0.085330926 0.03724153
0.55217081 0.086139992 0.037236601
0.55138534 0.087078407 0.036646184
0.55059993 0.088020027 0.036055714
0.55062467 0.088832274 0.036050767
0.54983944 0.089778654 0.035460301
0.54905432 0.090728223 0.03486982
0.54907912 0.09154366 0.03486485
0.54829413 0.092498004 0.03427434
0.54750931 0.093455538 0.033683807
0.54672444 0.094416261 0.033093221
0.5459398 0.095380165 0.032502651
0.54515523 0.09634725 0.031912062
0.54437071 0.097317517 0.031321451
0.54358631 0.098290987 0.03073079
0.54280204 0.099267632 0.030140141
0.54201782 0.10024745 0.029549474
0.54123372 0.10123046 0.028958786
0.54044974 0.10221666 0.028368084
0.54047507 0.10304962 0.028363008
0.53969115 0.1040406 0.027772238
0.53890741 0.10503477 0.027181484
0.53812373 0.1060321 0.026590709
0.53734016 0.10703264 0.025999915
0.53655672 0.10803635 0.025409102
0.53577328 0.10904327 0.024818236
0.53499001 0.11005336 0.024227384
0.53420687 0.11106662 0.023636512
0.53342378 0.11208308 0.023045622
0.53344953 0.11293037 0.023040459
0.53185785 0.11412557 0.021863747
0.53107506 0.11515158 0.021272799
0.53029239 0.11618078 0.020681832
0.52950978 0.11721317 0.020090846
0.52872723 0.11824874 0.019499805
0.52794486 0.1192875 0.018908778
0.52716255 0.12032943 0.018317733
0.52638036 0.12137456 0.017726667
0.52559817 0.12242288 0.017135547
0.55499268 0.055107199 0.039143208
0.55501711 0.055909894 0.039138317
0.55504149 0.05671259 0.039133426
0.55506587 0.05751529 0.039128534
0.55509031 0.058317989 0.039123643
0.55511469 0.059120685 0.039118752
0.55513906 0.059923384 0.039113861
0.55597407 0.060647734 0.039695375
0.55518788 0.06152878 0.039104078
0.55602276 0.062249944 0.039685611
0.55604708 0.063051045 0.039680731
0.55607146 0.063852154 0.03967585
0.55609578 0.064653262 0.039670967
0.55693042 0.065366462 0.040252551
0.55695474 0.066165976 0.040247679
0.55778927 0.066874392 0.04082929
0.55781347 0.06767232 0.040824428
0.55864787 0.06837596 0.041406106
0.55867207 0.069172285 0.041401252
0.55869633 0.069968611 0.041396398
0.55953044 0.070665888 0.04197808
0.55955464 0.071460627 0.041973237
0.55957878 0.072255358 0.041968394
0.55960292 0.073050089 0.041963551
0.55881733 0.073950253 0.041372135
0.55884153 0.074746579 0.041367285
0.558056 0.075651519 0.040775806
0.55808026 0.076449439 0.040770944
0.55729496 0.077359147 0.040179469
0.55650973 0.078272045 0.039587978
0.55653411 0.079073153 0.039583098
0.55574906 0.079990827 0.038991574
0.55496407 0.080911689 0.038400035
0.5549885 0.081715979 0.038395133
0.55420363 0.082641624 0.037803531
0.55341887 0.083570451 0.03721194
0.5526343 0.084502459 0.03662033
0.55265886 0.085311525 0.036615402
0.5518744 0.086248316 0.036023766
0.55108994 0.087188289 0.03543207
0.55111462 0.088000551 0.035427123
0.5503304 0.088945299 0.034835435
0.54954624 0.089893237 0.034243733
0.54957104 0.090708673 0.034238763
0.548787 0.091661386 0.033647027
0.54800308 0.092617288 0.033055272
0.54721922 0.093576379 0.032463465
0.54643553 0.094538644 0.031871673
0.54565191 0.095504105 0.031279858
0.54486841 0.096472748 0.030688029
0.54408491 0.097444572 0.030096142
0.54330158 0.098419584 0.029504269
0.54251838 0.099397786 0.028912382
0.54254359 0.10022756 0.028907325
0.5417605 0.10121053 0.028315406
0.54097754 0.10219669 0.027723467
0.54019457 0.10318605 0.027131476
0.53941178 0.10417857 0.026539497
0.53862911 0.1051743 0.0259475
0.53784651 0.10617318 0.025355486
0.53706396 0.10717528 0.024763448
0.53628153 0.10818056 0.024171358
0.53549922 0.10918901 0.023579286
0.53471702 0.11020066 0.022987191
0.53474271 0.11104635 0.022982037
0.53396064 0.11206277 0.022389913
0.53317863 0.11308239 0.021797739
0.53158909 0.11427908 0.020618586
0.53080732 0.11530665 0.020026397
0.53002572 0.1163374 0.019434186
0.52924412 0.11737135 0.01884192
0.52927017 0.1182282 0.018836699
0.52768135 0.11944878 0.017657403
0.52770752 0.12030882 0.017652163
0.52692628 0.12135391 0.017059864
0.52614516 0.12240218 0.016467514
0.55550128 0.055087954 0.038522009
0.55552572 0.05589065 0.038517118
0.5555501 0.056693345 0.038512226
0.55557448 0.057496045 0.038507335
0.55640858 0.058225214 0.039090052
0.55562329 0.05910144 0.038497552
0.55645728 0.059827421 0.039080292
0.55648166 0.06062853 0.039075408
0.55650598 0.061429631 0.039070528
0.55653036 0.062230736 0.039065644
0.55655473 0.063031845 0.039060764
0.55657905 0.063832946 0.03905588
0.55660343 0.064634055 0.039051
0.55743706 0.065347292 0.039633814
0.55746132 0.066146806 0.039628942
0.55829483 0.066855267 0.040211789
0.55831909 0.067653187 0.040206924
0.55834335 0.068451107 0.040202063
0.55917668 0.069153197 0.040784981
0.55920088 0.069949523 0.040780131
0.55922508 0.070745848 0.040775277
0.55924928 0.071542174 0.040770423
0.55927348 0.072338499 0.040765572
0.55929768 0.073134825 0.040760718
0.55932188 0.073931158 0.040755868
0.55853736 0.074834466 0.040163163
0.55856162 0.075632386 0.040158302
0.55777729 0.07654047 0.039565608
0.55780154 0.077339984 0.039560735
0.55701733 0.078252837 0.038968012
0.55623323 0.079168886 0.038375266
0.55625767 0.079971582 0.038370375
0.55547369 0.080892406 0.037777603
0.55468976 0.08181642 0.037184775
0.55390602 0.082743615 0.036591962
0.55393052 0.083551094 0.036587041
0.5531469 0.084483057 0.035994202
0.5523634 0.085418217 0.035401341
0.55157989 0.086356565 0.034808427
0.55160463 0.08716882 0.034803476
0.5508213 0.088111944 0.034210566
0.5500381 0.089058243 0.033617638
0.55006289 0.089873686 0.033612672
0.54927987 0.090824768 0.033019714
0.5484969 0.091779038 0.032426737
0.54771399 0.092736498 0.031833705
0.54773897 0.093556717 0.031828705
0.54695624 0.094518945 0.03123568
0.54617363 0.095484361 0.030642636
0.54539114 0.096452966 0.030049572
0.54460865 0.097424753 0.029456453
0.54382634 0.098399729 0.02886335
0.54304415 0.099377893 0.028270228
0.54226202 0.10035924 0.027677085
0.54148 0.10134377 0.027083924
0.54069799 0.10233148 0.026490711
0.53991616 0.10332239 0.025897508
0.53913444 0.10431647 0.02530429
0.53835279 0.10531373 0.024711048
0.5383783 0.10615306 0.024705935
0.53759682 0.10715511 0.024112668
0.53681535 0.10816036 0.023519346
0.53603405 0.10916878 0.022926038
0.53525287 0.11018038 0.022332713
0.53447175 0.11119517 0.021739366
0.53369069 0.11221315 0.021145966
0.53290981 0.1132343 0.020552583
0.53212899 0.11425865 0.019959178
0.53054166 0.11546165 0.018777521
0.52976102 0.11649396 0.018184036
0.52978706 0.11735081 0.018178815
0.52820015 0.11856813 0.016997073
0.52822632 0.11942817 0.016991831
0.52744603 0.12047162 0.016398313
0.52666587 0.12151828 0.015804736
0.52669209 0.12238149 0.015799476
0.52591211 0.12343291 0.015205908
0.55679446 0.054200482 0.038494494
0.55681878 0.055001583 0.038489614
0.55684316 0.055802688 0.038484734
0.55686748 0.056603793 0.03847985
0.55689186 0.057404902 0.03847497
0.55691624 0.058206007 0.038470086
0.55694056 0.059007108 0.038465206
0.55696493 0.059808213 0.038460322
0.55698925 0.060609322 0.038455442
0.55701363 0.061410427 0.038450561
0.55703795 0.062211532 0.038445678
0.55706233 0.063012637 0.038440797
0.55708665 0.063813746 0.038435914
0.55791932 0.064528614 0.039019953
0.55794364 0.065328121 0.039015081
0.55796796 0.066127636 0.039010208
0.5588004 0.066836134 0.039594289
0.55882466 0.067634061 0.039589424
0.55884892 0.068431981 0.039584562
0.55887318 0.069229901 0.039579701
0.55970544 0.069930427 0.04016386
0.55972964 0.07072676 0.040159009
0.55975384 0.071523085 0.040154155
0.55977803 0.072319411 0.040149301
0.55899441 0.073219493 0.039555389
0.55901867 0.07401742 0.039550528
0.55904293 0.07481534 0.039545663
0.55825955 0.075721793 0.038951743
0.55828387 0.0765213 0.038946874
0.5575006 0.077432528 0.038352925
0.55671746 0.078346945 0.037758958
0.55674183 0.079149641 0.037754066
0.55595887 0.080068827 0.037160072
0.5551759 0.080991216 0.036566019
0.55439311 0.081916779 0.035971988
0.55441761 0.082724258 0.035967067
0.553635 0.083654597 0.035373002
