# .PCD v0.7 - Point Cloud Data file format
VERSION 0.7
FIELDS x y z
SIZE 4 4 4
TYPE F F F
COUNT 1 1 1
WIDTH 1202
HEIGHT 1
VIEWPOINT 0 0 0 1 0 0 0
POINTS 1202
DATA ascii
0.4159556 0.21409264 0.067563765
0.41594288 0.2158445 0.067534454
0.41593015 0.21759637 0.067505144
0.41591743 0.21934822 0.067475833
0.4159047 0.22110009 0.067446522
0.41984028 0.21200551 0.067987919
0.41719121 0.21408112 0.066339403
0.41717848 0.21583299 0.066310093
0.41716576 0.21758485 0.066280782
0.41715303 0.21933672 0.066251472
0.41714031 0.22108859 0.066222161
0.41712758 0.22284044 0.06619285
0.4197515 0.22422665 0.067783445
0.4197388 0.22597252 0.067754239
0.41850317 0.20355844 0.06529092
0.41849044 0.2053103 0.06526161
0.41847771 0.20706217 0.065232299
0.42109704 0.20850229 0.06682618
0.42108434 0.21024817 0.066796966
0.42107168 0.21199404 0.066767752
0.42105898 0.21373992 0.066738546
0.42104629 0.2154858 0.066709332
0.42103362 0.21723168 0.066680126
0.42102093 0.21897756 0.066650912
0.42100823 0.22072344 0.066621698
0.42099556 0.2224693 0.066592492
0.42098287 0.22421518 0.066563278
0.42097017 0.22596106 0.066534072
0.42095751 0.22770694 0.066504858
0.42094481 0.2294528 0.066475645
0.42093214 0.2311987 0.066446438
0.42091945 0.23294456 0.066417225
0.42090675 0.23469044 0.066388018
0.4197515 0.20179507 0.064095877
0.41973877 0.20354694 0.064066567
0.41972604 0.2052988 0.064037256
0.42234111 0.20674494 0.065635212
0.42232841 0.20849082 0.065605998
0.42406768 0.21002491 0.066661812
0.42405504 0.21176679 0.066632673
0.42229035 0.21372846 0.065518364
0.42227769 0.21547434 0.065489158
0.42226499 0.2172202 0.065459944
0.4222523 0.21896608 0.065430738
0.42223963 0.22071196 0.065401524
0.42222694 0.22245784 0.065372311
0.42396644 0.22396 0.066428661
0.42395377 0.22570188 0.066399522
0.42394114 0.22744377 0.066370375
0.42392847 0.22918566 0.066341229
0.4239158 0.23092756 0.06631209
0.42390317 0.23266943 0.066282943
0.4238905 0.23441133 0.066253804
0.42387784 0.2361532 0.066224657
0.4238652 0.23789509 0.06619551
0.42099983 0.2000317 0.062900834
0.4209871 0.20178357 0.062871523
0.42097437 0.20353542 0.062842213
0.42358515 0.2049876 0.064444251
0.42357248 0.20673347 0.064415045
0.42355978 0.20847934 0.064385831
0.42529625 0.21001346 0.06544444
0.42528358 0.21175535 0.065415293
0.42527092 0.21349724 0.065386154
0.42525828 0.21523912 0.065357007
0.42524561 0.21698101 0.06532786
0.42523295 0.21872289 0.065298721
0.42522031 0.22046478 0.065269575
0.42520764 0.22220667 0.065240428
0.42519501 0.22394855 0.065211289
0.42518234 0.22569045 0.065182142
0.42516968 0.22743234 0.065153003
0.42515704 0.22917421 0.065123856
0.42514437 0.23091611 0.065094709
0.42513171 0.23265798 0.06506557
0.42511907 0.23439988 0.065036424
0.42510641 0.23614176 0.065007277
0.42509374 0.23788364 0.064978138
0.4250811 0.23962553 0.064948991
0.42223543 0.20002019 0.061676476
0.4222227 0.20177205 0.061647166
0.42482921 0.20323025 0.063253298
0.42481652 0.20497613 0.063224085
0.42480385 0.20672201 0.063194878
0.42653745 0.20826013 0.064256199
0.42652482 0.21000202 0.064227052
0.42651215 0.21174391 0.064197905
0.42649949 0.21348579 0.064168766
0.42648685 0.21522768 0.064139619
0.42647418 0.21696956 0.064110473
0.42646152 0.21871145 0.064081334
0.42644888 0.22045334 0.064052187
0.42643622 0.22219524 0.06402304
0.42642355 0.22393712 0.063993901
0.42641091 0.22567901 0.063964754
0.42639825 0.2274209 0.063935615
0.42638558 0.22916277 0.063906468
0.42637295 0.23090467 0.063877322
0.42636028 0.23264654 0.063848183
0.42634761 0.23438844 0.063819036
0.42633498 0.23613031 0.063789889
0.42632231 0.2378722 0.06376075
0.42630967 0.2396141 0.063731603
0.42455015 0.24163955 0.062610663
0.42347103 0.20000869 0.060452122
0.42345831 0.20176055 0.060422812
0.42344558 0.20351242 0.060393501
0.42604792 0.20496467 0.062003911
0.42603523 0.20671053 0.061974701
0.42776603 0.20824869 0.063038819
0.42775336 0.20999058 0.063009672
0.42774072 0.21173246 0.062980533
0.42772806 0.21347435 0.062951386
0.42771539 0.21521623 0.062922239
0.42770275 0.21695812 0.0628931
0.42769009 0.21870002 0.062863953
0.42767742 0.22044191 0.062834814
0.42766479 0.22218379 0.062805668
0.42765212 0.22392568 0.062776521
0.42763945 0.22566757 0.062747382
0.42762682 0.22740945 0.062718235
0.42761415 0.22915132 0.062689088
0.42760149 0.23089322 0.062659949
0.42758885 0.2326351 0.062630802
0.42757618 0.234377 0.062601656
0.42756352 0.23611888 0.062572517
0.42755088 0.23786075 0.06254337
0.42753822 0.23960266 0.062514231
0.42578155 0.24162808 0.061390486
0.42471936 0.19824532 0.059257083
0.42470664 0.19999717 0.059227772
0.42469388 0.20174904 0.059198461
0.42729199 0.20320731 0.060812954
0.42727929 0.20495319 0.060783744
0.4272666 0.20669907 0.060754534
0.4289946 0.20823725 0.061821431
0.42898193 0.20997913 0.061792288
0.42896926 0.21172102 0.061763145
0.42895663 0.21346292 0.061733998
0.42894396 0.21520481 0.061704855
0.42893133 0.21694669 0.061675712
0.42891866 0.21868858 0.061646566
0.42890599 0.22043046 0.061617423
0.42889336 0.22217235 0.06158828
0.42888069 0.22391424 0.061559137
0.42886803 0.22565612 0.06152999
0.42885539 0.22739801 0.061500847
0.42884272 0.22913989 0.061471704
0.42883006 0.23088178 0.061442561
0.42881742 0.23262367 0.061413415
0.42880476 0.23436555 0.061384272
0.42879209 0.23610744 0.061355129
0.42877945 0.23784931 0.061325986
0.42876679 0.23959121 0.061296839
0.42701292 0.24161662 0.060170319
0.42438841 0.24379376 0.058495
0.42595494 0.19823381 0.058032732
0.42594221 0.19998567 0.058003422
0.42592949 0.20173752 0.057974111
0.42852336 0.20319584 0.059592787
0.42851067 0.20494172 0.059563577
0.42849797 0.2066876 0.059534367
0.43022314 0.2082258 0.060604054
0.4302105 0.2099677 0.060574912
0.43019783 0.21170959 0.060545765
0.43018517 0.21345147 0.060516622
0.43017253 0.21519336 0.060487479
0.43015987 0.21693525 0.060458336
0.4301472 0.21867713 0.060429189
0.43013456 0.22041902 0.060400046
0.4301219 0.22216091 0.060370903
0.43010923 0.22390279 0.060341761
0.4300966 0.22564468 0.060312614
0.43008393 0.22738656 0.060283471
0.43007126 0.22912845 0.060254328
0.43005863 0.23087034 0.060225185
0.43004596 0.23261222 0.060196038
0.4300333 0.23435411 0.060166895
0.43002066 0.23609599 0.060137752
0.43000799 0.23783787 0.060108609
0.42999536 0.23957977 0.060079463
0.42824429 0.24160515 0.058950152
0.42562401 0.24378225 0.05727065
0.42561129 0.24553411 0.057241339
0.42719054 0.19822229 0.056808371
0.42717782 0.19997416 0.056779061
0.42716509 0.20172602 0.05674975
0.42975473 0.20318438 0.058372609
0.42974204 0.20493026 0.058343399
0.42972937 0.20667613 0.058314189
0.43145171 0.20821437 0.059386667
0.43143907 0.20995626 0.059357524
0.43142641 0.21169814 0.059328381
0.43141374 0.21344003 0.059299234
0.4314011 0.21518192 0.059270091
0.43138844 0.2169238 0.059240948
0.43137577 0.21866569 0.059211805
0.43136314 0.22040758 0.059182659
0.4296152 0.22238903 0.058051292
0.4296025 0.22413491 0.058022082
0.43132517 0.22563323 0.059095226
0.4313125 0.22737512 0.059066083
0.43129984 0.22911701 0.05903694
0.4312872 0.23085889 0.059007797
0.43127453 0.23260078 0.058978651
0.43126187 0.23434266 0.058949508
0.43124923 0.23608455 0.058920365
0.43123657 0.23782644 0.058891222
0.4312239 0.23956832 0.058862075
0.42947567 0.24159369 0.057729974
0.42685962 0.24377073 0.056046288
0.42684689 0.2455226 0.056016978
0.42509848 0.2475699 0.054884508
0.4266941 0.19839446 0.054479942
0.42668134 0.20015033 0.054450564
0.4284007 0.20171452 0.055525396
0.42838797 0.20346639 0.055496085
0.43097341 0.20491879 0.057123233
0.43096074 0.20666467 0.057094023
0.43094805 0.20841055 0.057064813
0.43093535 0.21015643 0.057035603
0.43092269 0.21190229 0.057006393
0.43090999 0.21364817 0.056977179
0.43089733 0.21539405 0.056947969
0.43088463 0.21713993 0.056918759
0.43087193 0.21888581 0.056889549
0.43085927 0.22063169 0.056860339
0.43084657 0.22237755 0.056831125
0.43083388 0.22412343 0.056801915
0.43255371 0.22562179 0.05787785
0.42820978 0.22799246 0.055085734
0.42819706 0.22974433 0.055056423
0.42818433 0.23149619 0.055027112
0.42817158 0.23324804 0.054997802
0.43075779 0.2345987 0.056626651
0.4307451 0.23634458 0.056597441
0.4307324 0.23809046 0.056568231
0.43071973 0.23983632 0.056539021
0.42810795 0.24200737 0.054851249
0.42809522 0.24375923 0.054821938
0.42634967 0.24580252 0.053686745
0.42633691 0.24755837 0.053657368
0.4245913 0.24961361 0.052522019
0.42794529 0.19662708 0.053282179
0.4279325 0.19838293 0.053252801
0.42791975 0.20013879 0.053223424
0.4296363 0.20170301 0.054301046
0.42962357 0.20345488 0.054271735
0.42961085 0.20520674 0.054242425
0.43219212 0.20665319 0.055873845
0.43217942 0.20839907 0.055844635
0.43216676 0.21014495 0.055815425
0.43215406 0.21189083 0.055786215
0.43214139 0.21363671 0.055757005
0.4321287 0.21538259 0.055727791
0.432116 0.21712846 0.055698581
0.43210334 0.21887434 0.055669371
0.43209064 0.22062021 0.055640161
0.43207794 0.22236609 0.055610951
0.43206528 0.22411197 0.055581737
0.43205258 0.22585784 0.055552527
0.43203989 0.22760372 0.055523317
0.43202722 0.2293496 0.055494107
0.4294199 0.23148468 0.053802762
0.42940718 0.23323654 0.053773452
0.42939445 0.23498842 0.053744141
0.42938173 0.23674028 0.053714827
0.429369 0.23849213 0.053685516
0.42935628 0.240244 0.053656206
0.42934355 0.24199586 0.053626895
0.42760083 0.24403512 0.052488983
0.42758808 0.24579097 0.052459605
0.4258453 0.24784221 0.051321533
0.42583251 0.24960205 0.051292088
0.42408964 0.25166526 0.050153773
0.42919645 0.19485968 0.052084412
0.42918369 0.19661555 0.052055035
0.42917094 0.1983714 0.052025657
0.42915818 0.20012726 0.05199628
0.42914543 0.20188309 0.051966902
0.43085915 0.20344336 0.053047381
0.43084642 0.20519523 0.053018071
0.4308337 0.20694709 0.05298876
0.43341079 0.2083876 0.054624468
0.43339813 0.21013348 0.054595258
0.43338543 0.21187936 0.054566048
0.43337277 0.21362524 0.054536838
0.43077007 0.21570641 0.052842207
0.43075734 0.21745826 0.052812897
0.43074462 0.21921013 0.052783586
0.43073189 0.220962 0.052754276
0.43071914 0.22271386 0.052724965
0.43070641 0.22446573 0.052695654
0.43069369 0.22621758 0.052666344
0.43068096 0.22796945 0.052637033
0.43066823 0.22972131 0.052607719
0.43065551 0.23147316 0.052578408
0.43064278 0.23322503 0.052549098
0.43322054 0.23457576 0.054186307
0.43061733 0.23672877 0.052490477
0.43060461 0.23848063 0.052461166
0.43059188 0.2402325 0.052431855
0.42885199 0.24226774 0.05129122
0.42883924 0.24402359 0.051261842
0.42709932 0.2460708 0.050121047
0.42708653 0.24783064 0.050091602
0.42707375 0.2495905 0.050062157
0.42533368 0.2516537 0.048921052
0.42532086 0.25341752 0.048891541
0.42871135 0.19502376 0.049745001
0.4304221 0.19660401 0.050827894
0.43040934 0.19835986 0.050798517
0.43039659 0.20011573 0.050769139
0.43038383 0.20187156 0.050739761
0.43037108 0.20362742 0.050710384
0.43208203 0.20518373 0.051793721
0.4320693 0.20693558 0.05176441
0.43205658 0.20868744 0.051735099
0.43204385 0.21043931 0.051705789
0.43203112 0.21219118 0.051676478
0.4320184 0.21394303 0.051647168
0.43200567 0.2156949 0.051617857
0.43199292 0.21744676 0.051588546
0.43198019 0.21919863 0.051559236
0.43196747 0.2209505 0.051529922
0.43195474 0.22270235 0.051500611
0.43194202 0.22445421 0.0514713
0.43192929 0.22620608 0.05144199
0.43191656 0.22795793 0.051412679
0.43190384 0.2297098 0.051383369
0.43189111 0.23146166 0.051354058
0.43187839 0.23321353 0.051324748
0.43186566 0.2349654 0.051295437
0.43185291 0.23671725 0.051266126
0.43184018 0.23846912 0.051236816
0.43182746 0.24022098 0.051207505
0.4300904 0.24225621 0.050064076
0.42835334 0.24429941 0.048920557
0.42834055 0.24605924 0.048891116
0.42832777 0.2478191 0.048861671
0.42831498 0.24957894 0.048832227
0.42657772 0.25164211 0.047688331
0.4265649 0.25340593 0.04765882
0.42824465 0.19342397 0.047429476
0.42995259 0.19501221 0.04851507
0.42993978 0.19677205 0.048485626
0.42992699 0.1985319 0.048456181
0.43163499 0.20010419 0.049541999
0.43162224 0.20186003 0.049512621
0.43160948 0.20361589 0.049483243
0.43159673 0.20537174 0.049453866
0.43158397 0.2071276 0.049424488
0.43329218 0.20867594 0.050510738
0.43327945 0.21042781 0.050481427
0.43326673 0.21217968 0.050452117
0.433254 0.21393153 0.050422806
0.43324128 0.21568339 0.050393496
0.43322855 0.21743526 0.050364181
0.4332158 0.21918711 0.050334871
0.43320307 0.22093898 0.05030556
0.43319035 0.22269085 0.05027625
0.43145639 0.22468613 0.049130712
0.43144363 0.22644199 0.049101334
0.43143088 0.22819784 0.049071956
0.43141812 0.22995369 0.049042579
0.43140537 0.23170954 0.049013201
0.43311399 0.23320201 0.050100386
0.43310127 0.2349539 0.050071076
0.43308854 0.23670575 0.050041765
0.43307579 0.23845762 0.050012454
0.43306306 0.24020948 0.049983144
0.43132883 0.24224468 0.048836935
0.43131605 0.24400052 0.048807558
0.42958179 0.24604768 0.047661182
0.42956898 0.24780753 0.047631737
0.42783457 0.24986668 0.046485122
0.42782176 0.25163051 0.046455611
0.42780894 0.25339434 0.046426099
0.42950153 0.19164854 0.046226267
0.42948872 0.19341238 0.046196755
0.4311938 0.19500065 0.04728514
0.43118101 0.19676049 0.047255695
0.43116823 0.19852033 0.04722625
0.43115544 0.20028017 0.047196805
0.43114266 0.20204002 0.047167361
0.43112987 0.20379987 0.047137916
0.43283513 0.2053602 0.048226714
0.43282238 0.20711607 0.048197336
0.43280962 0.20887192 0.048167959
0.43279687 0.21062776 0.048138581
0.43278411 0.21238363 0.048109204
0.43277135 0.21413948 0.048079826
0.4327586 0.21589532 0.048050448
0.43274584 0.21765119 0.048021071
0.43273309 0.21940704 0.047991693
0.43272033 0.22116289 0.047962315
0.43270758 0.22291875 0.047932938
0.43269482 0.2246746 0.04790356
0.43268207 0.22643045 0.047874182
0.43266931 0.22818631 0.047844805
0.43265656 0.22994216 0.047815427
0.43264377 0.23169801 0.04778605
0.43263102 0.23345387 0.047756672
0.43261826 0.23520973 0.047727294
0.4326055 0.23696558 0.047697917
0.43259275 0.23872145 0.047668539
0.43257999 0.24047728 0.047639161
0.43256724 0.24223314 0.047609784
0.43083578 0.24427629 0.046460696
0.430823 0.24603613 0.046431251
0.43081021 0.24779597 0.046401806
0.42907861 0.24985509 0.045252401
0.42906579 0.25161892 0.04522289
0.42905298 0.25338277 0.045193378
0.42646188 0.25561345 0.043483689
0.43074557 0.19163696 0.044993546
0.43073276 0.1934008 0.044964034
0.43071994 0.19516462 0.044934526
0.43070713 0.19692847 0.044905014
0.43240947 0.19850877 0.04599632
0.43239668 0.20026863 0.045966875
0.43238389 0.20202847 0.04593743
0.43237111 0.20378831 0.045907985
0.43235832 0.20554815 0.045878541
0.43234554 0.20730799 0.045849096
0.43233275 0.20906784 0.045819651
0.43403527 0.21061623 0.046911441
0.43402252 0.21237209 0.046882063
0.43400976 0.21412794 0.046852686
0.43228158 0.21610722 0.045701876
0.4322688 0.21786706 0.045672432
0.43225601 0.2196269 0.045642987
0.43224323 0.22138675 0.045613542
0.43223044 0.22314659 0.045584098
0.43221766 0.22490644 0.045554653
0.43220487 0.22666627 0.045525208
0.43219209 0.22842613 0.045495763
0.4321793 0.23018597 0.045466319
0.43216652 0.23194581 0.045436874
0.43215373 0.23370565 0.045407433
0.43214095 0.23546551 0.045377988
0.43212816 0.23722534 0.045348544
0.43211538 0.23898518 0.045319099
0.43210259 0.24074504 0.045289654
0.43208981 0.24250488 0.04526021
0.43207702 0.24426474 0.045230765
0.43034828 0.24631584 0.0440787
0.43033546 0.24807967 0.044049188
0.43032265 0.24984351 0.04401968
0.43030983 0.25160736 0.043990169
0.43029702 0.25337118 0.043960657
0.43198961 0.19162537 0.043760825
0.4319768 0.19338921 0.043731313
0.43196398 0.19515304 0.043701805
0.43195117 0.19691688 0.043672293
0.43193835 0.19868071 0.043642782
0.43192554 0.20044455 0.04361327
0.43191272 0.20220838 0.043583758
0.43189991 0.20397222 0.043554246
0.43188709 0.20573606 0.043524738
0.43358675 0.20729643 0.044619165
0.43357396 0.20905629 0.044589721
0.43356118 0.21081613 0.044560276
0.43354839 0.21257597 0.044530831
0.43353561 0.21433581 0.04450139
0.43352282 0.21609566 0.044471946
0.43351004 0.2178555 0.044442501
0.43349725 0.21961534 0.044413056
0.43348446 0.2213752 0.044383612
0.43347168 0.22313502 0.044354167
0.43174613 0.22513823 0.043200113
0.43173331 0.22690207 0.043170601
0.4317205 0.2286659 0.043141093
0.43170768 0.23042974 0.043111581
0.43169487 0.23219357 0.04308207
0.43168205 0.23395741 0.043052558
0.43166924 0.23572125 0.043023046
0.4333694 0.23721378 0.044118613
0.43335661 0.23897363 0.044089168
0.43334383 0.24073347 0.044059724
0.43161798 0.24277657 0.042905003
0.43160516 0.24454041 0.042875491
0.43159235 0.24630426 0.042845979
0.43157953 0.24806808 0.042816468
0.43156672 0.24983191 0.04278696
0.4315539 0.25159577 0.042757448
0.43154109 0.25335959 0.042727936
0.42895842 0.2555902 0.041009877
0.43068245 0.19009522 0.040868603
0.43066958 0.19186503 0.04083899
0.43322083 0.19337761 0.042498592
0.43320802 0.19514145 0.042469084
0.4331952 0.1969053 0.042439573
0.43318239 0.19866912 0.042410061
0.43316957 0.20043296 0.042380549
0.43315676 0.20219679 0.042351037
0.43314394 0.20396063 0.042321526
0.43313113 0.20572446 0.042292017
0.43311831 0.2074883 0.042262506
0.4331055 0.20925213 0.042232994
0.43480241 0.21080457 0.043330345
0.43478963 0.21256441 0.043300901
0.43477684 0.21432425 0.043271456
0.43305424 0.21630748 0.042114947
0.43304142 0.21807131 0.042085439
0.43302861 0.21983515 0.042055927
0.43301579 0.22159897 0.042026415
0.43300298 0.22336282 0.041996904
0.43299016 0.22512665 0.041967392
0.43297735 0.22689047 0.04193788
0.43296453 0.22865433 0.041908372
0.43295172 0.23041815 0.04187886
0.4329389 0.232182 0.041849349
0.43292609 0.23394582 0.041819837
0.43291327 0.23570965 0.041790325
0.43290046 0.23747349 0.041760813
0.43288764 0.23923732 0.041731305
0.43287483 0.24100116 0.041701794
0.43286201 0.24276499 0.041672282
0.4328492 0.24452883 0.04164277
0.43283638 0.24629267 0.041613258
0.43282357 0.2480565 0.041583747
0.43024525 0.25026911 0.039861817
0.43023238 0.25203896 0.039832205
0.43021953 0.25380877 0.039802596
0.43020666 0.25557858 0.039772984
0.42002404 0.18583472 0.031820185
0.42257071 0.18739922 0.033483107
0.42426422 0.1890315 0.034581903
0.43022415 0.19024707 0.038502842
0.43191785 0.1918534 0.039602086
0.431905 0.19362323 0.039572474
0.43189213 0.19539306 0.039542861
0.43187928 0.19716287 0.039513249
0.43442643 0.19865754 0.04117734
0.43441361 0.20042138 0.041147828
0.4344008 0.2021852 0.041118316
0.43438798 0.20394905 0.041088805
0.43437517 0.20571288 0.041059293
0.43436235 0.20747671 0.041029785
0.43434954 0.20924056 0.041000273
0.43433672 0.21100438 0.040970761
0.43432391 0.21276821 0.04094125
0.43431109 0.21453205 0.040911738
0.43429828 0.21629588 0.040882226
0.43428546 0.21805972 0.040852718
0.43427265 0.21982355 0.040823206
0.43169925 0.22194035 0.039098691
0.4316864 0.22371018 0.039069083
0.43167353 0.22548001 0.03903947
0.43166068 0.22724982 0.039009858
0.43164781 0.22901964 0.038980246
0.43163496 0.23078945 0.038950637
0.43162209 0.23255929 0.038921025
0.43160924 0.2343291 0.038891412
0.43159637 0.23609893 0.0388618
0.43158352 0.23786874 0.038832191
0.43157065 0.23963858 0.038802579
0.4315578 0.24140839 0.038772967
0.43154496 0.24317822 0.038743358
0.43153208 0.24494803 0.038713746
0.43151924 0.24671786 0.038684133
0.43150637 0.24848768 0.038654521
0.43149352 0.25025749 0.038624913
0.43148065 0.25202733 0.0385953
0.4314678 0.25379714 0.038565688
0.42974728 0.25587809 0.037404753
0.42546529 0.25843972 0.034546692
0.42130509 0.18402515 0.030593829
0.42384747 0.18559568 0.032260846
0.42383444 0.18738745 0.032230865
0.42552516 0.18901975 0.033332452
0.42977148 0.19039889 0.036131568
0.43146232 0.19200924 0.037233479
0.43315324 0.19361161 0.038335565
0.4331404 0.19538142 0.038305957
0.43312755 0.19715124 0.038276345
0.43311468 0.19892107 0.038246732
0.43310183 0.2006909 0.038217124
0.43308896 0.20246071 0.038187511
0.43307611 0.20423053 0.038157899
0.43306324 0.20600034 0.038128287
0.43305039 0.20777017 0.038098678
0.43303752 0.20953999 0.038069066
0.43302467 0.21130981 0.038039453
0.4330118 0.21307963 0.038009845
0.43299896 0.21484944 0.037980232
0.43298608 0.21661927 0.03795062
0.43297324 0.21838909 0.037921008
0.43296036 0.22015892 0.037891399
0.43294752 0.22192873 0.037861787
0.43293467 0.22369856 0.037832174
0.4329218 0.22546837 0.037802562
0.43290895 0.22723819 0.037772954
0.43289608 0.22900802 0.037743341
0.43288323 0.23077783 0.037713729
0.43287036 0.23254766 0.03768412
0.43285751 0.23431748 0.037654508
0.43284464 0.23608731 0.037624896
0.43283179 0.23785712 0.037595283
0.43281892 0.23962694 0.037565675
0.43280607 0.24139677 0.037536062
0.4327932 0.2431666 0.03750645
0.43278036 0.24493641 0.037476838
0.43276748 0.24670622 0.037447229
0.43275464 0.24847606 0.037417617
0.43274179 0.25024587 0.037388004
0.43272892 0.25201571 0.037358396
0.43101126 0.25409263 0.036194749
0.43099836 0.25586644 0.03616507
0.42672339 0.25842801 0.03330002
0.42258611 0.1822156 0.029367484
0.42257306 0.18401335 0.029337404
0.4251112 0.18558392 0.031008596
0.42509818 0.18737568 0.030978616
0.42678609 0.18900801 0.032083005
0.42847401 0.19063236 0.033187471
0.43101248 0.192165 0.034859337
0.43270051 0.19377139 0.035964105
0.43268764 0.19554521 0.03593443
0.43267474 0.19731902 0.03590475
0.43436295 0.19890945 0.037009828
0.43435007 0.20067926 0.036980215
0.43433723 0.20244908 0.036950607
0.43432438 0.20421889 0.036920995
0.43431151 0.20598872 0.036891382
0.43429866 0.20775855 0.03686177
0.43428579 0.20952837 0.036832161
0.43427294 0.21129818 0.036802549
0.43426007 0.21306801 0.036772937
0.43424723 0.21483782 0.036743324
0.43423435 0.21660765 0.036713716
0.43422151 0.21837747 0.036684103
0.43420863 0.2201473 0.036654491
0.43419579 0.22191711 0.036624882
0.43248144 0.22392619 0.035459578
0.43246853 0.22569999 0.035429902
0.43245566 0.22747381 0.035400223
0.43244275 0.22924763 0.035370544
0.43242988 0.23102143 0.035340868
0.43241698 0.23279524 0.035311189
0.4324041 0.23456904 0.035281509
0.43409291 0.23607568 0.036387991
0.43408006 0.2378455 0.036358379
0.43406719 0.23961532 0.036328766
0.43405434 0.24138513 0.036299158
0.43404147 0.24315497 0.036269546
0.43402863 0.24492478 0.036239933
0.43401575 0.24669459 0.036210321
0.43230098 0.24875954 0.035044085
0.43228811 0.25053334 0.03501441
0.43227524 0.25230715 0.03498473
0.43226233 0.25408098 0.034955051
0.43054748 0.25616586 0.033788525
0.4279815 0.2584163 0.032053363
0.42626652 0.26051915 0.030886533
0.42385408 0.18220378 0.028111059
0.42638797 0.18378037 0.029786333
0.42637494 0.18557215 0.029756356
0.42636195 0.18736391 0.029726377
0.42804703 0.18899627 0.030833544
0.42973211 0.19062063 0.031940799
0.42971915 0.19240443 0.031910956
0.43225345 0.19393113 0.033587109
0.43393871 0.19553356 0.034694731
0.43392584 0.19730736 0.034665056
0.43391293 0.19908118 0.034635376
0.43390006 0.20085499 0.034605697
0.43388715 0.20262879 0.034576021
0.43387428 0.20440261 0.034546342
0.43386137 0.20617642 0.034516662
0.4355469 0.20774692 0.035624865
0.43553406 0.20951673 0.035595253
0.43552122 0.21128656 0.035565645
0.43380985 0.21327166 0.034397952
0.43379694 0.21504548 0.034368273
0.43378407 0.21681929 0.034338597
0.43377116 0.21859311 0.034308918
0.43375829 0.22036691 0.034279238
0.43374538 0.22214073 0.034249563
0.43373251 0.22391453 0.034219883
0.43371964 0.22568835 0.034190204
0.43200803 0.22770937 0.033021957
0.43199512 0.22948717 0.03299221
0.43198219 0.23126496 0.032962468
0.43366808 0.23278359 0.034071494
0.43365517 0.23455741 0.034041815
0.4336423 0.23633121 0.034012139
0.43362939 0.23810501 0.033982459
0.43361652 0.23987883 0.03395278
0.43360364 0.24165264 0.033923104
0.43359074 0.24342644 0.033893425
0.43357787 0.24520026 0.033863746
0.43356496 0.24697408 0.03383407
0.43355209 0.24874789 0.033804391
0.43353918 0.25052169 0.033774711
0.43182722 0.25259858 0.032605529
0.43181428 0.25437638 0.032575782
0.42925259 0.25662079 0.030836537
0.42923963 0.25840458 0.030806692
0.42922667 0.26018837 0.030776847
0.42751446 0.26229516 0.029607162
0.42512205 0.18219198 0.026854636
0.4276517 0.1837686 0.028534094
0.42763871 0.18556038 0.028504116
0.42762569 0.18735214 0.028474137
0.42930794 0.18898453 0.029584093
0.42929494 0.19077229 0.029554183
0.43097726 0.19239271 0.030664297
0.43096429 0.1941765 0.030634452
0.43095136 0.19596028 0.030604606
0.43348151 0.19747506 0.032285143
0.43346858 0.19925286 0.0322554
0.43345568 0.20103066 0.032225654
0.43344277 0.20280845 0.032195907
0.43342984 0.20458627 0.032166164
0.43341693 0.20636407 0.032136418
0.433404 0.20814186 0.032106675
0.43339109 0.20991966 0.032076929
0.43337816 0.21169747 0.032047186
0.43336526 0.21347527 0.03201744
0.43335235 0.21525307 0.031987693
0.43333942 0.21703088 0.03195795
0.43332651 0.21880868 0.031928204
0.43331358 0.22058648 0.031898461
0.43330067 0.22236429 0.031868715
0.43328777 0.22414209 0.031838972
0.43327484 0.22591989 0.031809226
0.43071806 0.22806846 0.030067397
0.4307051 0.22985226 0.030037552
0.43069214 0.23163605 0.030007707
0.43067917 0.23341984 0.029977862
0.43066621 0.23520361 0.029948017
0.43065327 0.2369874 0.029918171
0.43064031 0.23877119 0.029888326
0.43062735 0.24055497 0.029858481
0.43315858 0.2419201 0.031541523
0.43314567 0.24369791 0.031511776
0.43313277 0.24547571 0.031482033
0.43311983 0.24725351 0.031452287
0.43310693 0.24903131 0.031422544
0.43054959 0.25125769 0.029679412
0.43053663 0.25304148 0.029649567
0.43052366 0.25482526 0.029619722
0.4305107 0.25660905 0.029589877
0.43049774 0.25839284 0.029560031
0.42878836 0.26049563 0.028387625
0.4287754 0.26228341 0.028357713
0.42876241 0.2640712 0.0283278
0.42892849 0.18196507 0.027311822
0.42891547 0.18375683 0.027281845
0.42890245 0.1855486 0.027251866
0.43058187 0.187185 0.028364545
0.43056887 0.18897279 0.028334634
0.43055588 0.19076055 0.028304722
0.43054289 0.19254833 0.02827481
0.43222243 0.19416478 0.029387781
0.43220946 0.19594857 0.029357936
0.4321965 0.19773236 0.029328091
0.43472248 0.19924118 0.031012913
0.43470958 0.20101897 0.030983169
0.43469664 0.20279679 0.030953422
0.43468374 0.20457458 0.030923678
0.43467084 0.20635238 0.030893933
0.4346579 0.2081302 0.030864188
0.434645 0.20990799 0.030834444
0.43463206 0.21168579 0.030804699
0.43461916 0.2134636 0.030774955
0.43460622 0.2152414 0.030745208
0.43459332 0.2170192 0.030715464
0.43458042 0.218797 0.030685719
0.43202803 0.22092159 0.028940106
0.43201506 0.22270538 0.028910261
0.4320021 0.22448917 0.028880415
0.43198913 0.22627296 0.028850572
0.43197617 0.22805674 0.028820727
0.43196324 0.22984053 0.028790882
0.43195027 0.23162432 0.028761037
0.43193731 0.23340811 0.028731192
0.43192434 0.23519188 0.028701346
0.43191138 0.23697568 0.028671501
0.43189842 0.23875947 0.028641656
0.43188545 0.24054326 0.028611811
0.43187249 0.24232705 0.028581966
0.43185955 0.24411084 0.028552121
0.43184659 0.24589463 0.028522277
0.43183362 0.24767841 0.028492432
0.43182066 0.24946219 0.028462587
0.4318077 0.25124598 0.028432742
0.43179473 0.25302976 0.028402897
0.43178177 0.25481355 0.028373051
0.43007529 0.25690833 0.027197987
0.43006229 0.25869611 0.027168076
0.4300493 0.26048389 0.027138164
0.43003634 0.26227167 0.027108252
0.43002334 0.26405945 0.02707834
0.43019223 0.1819533 0.026059583
0.43017921 0.18374507 0.026029605
0.43016618 0.18553683 0.025999626
0.4318428 0.18717325 0.027115095
0.43182981 0.18896103 0.027085183
0.43181682 0.19074881 0.027055273
0.43180382 0.19253659 0.027025361
0.43179083 0.19432437 0.026995448
0.4334676 0.19593684 0.028111266
0.43345463 0.19772063 0.028081421
0.43344167 0.19950442 0.028051576
0.4334287 0.20128821 0.02802173
0.43341574 0.203072 0.027991885
0.43340278 0.20485578 0.02796204
0.43338981 0.20663957 0.027932195
0.43337688 0.20842336 0.027902352
0.43336391 0.21020715 0.027872507
0.43335095 0.21199094 0.027842661
0.43333799 0.21377473 0.027812816
0.43332502 0.21555851 0.027782971
0.43331206 0.2173423 0.027753126
0.43329909 0.21912609 0.027723281
0.43328613 0.22090988 0.027693436
0.4332732 0.22269367 0.02766359
0.43326023 0.22447746 0.027633745
0.43324727 0.22626124 0.027603902
0.4332343 0.22804503 0.027574057
0.43322134 0.22982882 0.027544212
0.43151808 0.23186772 0.026367301
0.43150508 0.23365548 0.026337391
0.43149209 0.23544326 0.026307479
0.4314791 0.23723103 0.026277566
0.4314661 0.23901881 0.026247656
0.43145311 0.24080659 0.026217744
0.43144011 0.24259438 0.026187832
0.43311766 0.24409913 0.02730545
0.43310469 0.24588291 0.027275607
0.43309173 0.2476667 0.027245762
0.43307877 0.24945047 0.027215917
0.43306583 0.25123426 0.027186072
0.43136218 0.25332105 0.026008362
0.43134922 0.25510883 0.02597845
0.43133622 0.25689659 0.025948538
0.43132323 0.25868437 0.025918625
0.43131024 0.26047215 0.025888715
0.43129724 0.26225993 0.025858803
0.43128425 0.26404771 0.025828891
0.43145597 0.18194152 0.024807343
0.43144295 0.1837333 0.024777366
0.43142992 0.18552506 0.024747387
0.4314169 0.18731683 0.024717409
0.43140391 0.1891086 0.02468743
0.43307775 0.19073707 0.025805812
0.43306476 0.19252485 0.0257759
0.43305176 0.19431263 0.025745988
0.43303877 0.19610041 0.025716078
0.43302581 0.19788818 0.025686165
0.43301281 0.19967596 0.025656253
0.43468681 0.2012765 0.026775071
0.43467385 0.20306028 0.026745226
0.43466088 0.20484407 0.026715381
0.43464795 0.20662786 0.026685536
0.43463498 0.20841165 0.026655691
0.43462202 0.21019544 0.026625846
0.43460906 0.21197923 0.026596
0.43459609 0.21376301 0.026566155
0.43458313 0.2155468 0.026536312
0.43457016 0.21733057 0.026506467
0.43286991 0.21934152 0.025327224
0.43285695 0.2211293 0.025297312
0.43284395 0.22291708 0.0252674
0.43283096 0.22470486 0.025237489
0.43281797 0.22649263 0.025207577
0.43280497 0.22828041 0.025177665
0.43279198 0.23006819 0.025147753
0.43277898 0.23185597 0.025117842
0.43276602 0.23364374 0.02508793
0.43275303 0.23543152 0.025058018
0.43274003 0.23721929 0.025028108
0.43272704 0.23900707 0.024998195
0.43271405 0.24079485 0.024968283
0.43270105 0.24258263 0.024938371
0.43268809 0.2443704 0.024908461
0.43267509 0.24615818 0.024878548
0.4326621 0.24794596 0.024848636
0.43264911 0.24973373 0.024818724
0.43263611 0.25152153 0.024788814
0.43262312 0.25330931 0.024758901
0.43261012 0.25509709 0.024728989
0.43259716 0.25688484 0.024699077
0.43258417 0.25867262 0.024669167
0.43257117 0.26046041 0.024639254
0.43255818 0.26224819 0.024609342
0.43254519 0.26403597 0.02457943
0.43271971 0.18192975 0.023555094
0.43270668 0.18372153 0.023525115
0.43269369 0.18551329 0.023495138
0.43268067 0.18730506 0.023465158
0.43266764 0.18909682 0.023435181
0.43265462 0.1908886 0.023405202
0.4343257 0.19251311 0.024526451
0.4343127 0.19430088 0.024496539
0.43429971 0.19608866 0.024466626
0.43428671 0.19787644 0.024436716
0.43427372 0.19966422 0.024406804
0.43426073 0.201452 0.024376892
0.43424776 0.20323977 0.024346981
0.43423477 0.20502755 0.024317069
0.43422177 0.20681533 0.024287157
0.43420878 0.20860311 0.024257245
0.43419579 0.21039088 0.024227334
0.43418279 0.21217866 0.024197422
0.43416983 0.21396644 0.02416751
0.43415684 0.21575421 0.024137598
0.43414384 0.21754199 0.024107685
0.43413085 0.21932977 0.024077775
0.43411785 0.22111756 0.024047863
0.43410486 0.22290534 0.024017951
0.43409187 0.22469312 0.023988038
0.4340789 0.22648089 0.023958128
0.43406591 0.22826867 0.023928216
0.43405291 0.23005645 0.023898304
0.43403992 0.23184423 0.023868391
0.43402693 0.233632 0.023838481
0.43401393 0.23541978 0.023808569
0.43400097 0.23720755 0.023778656
0.43398798 0.23899533 0.023748746
0.43397498 0.24078311 0.023718834
0.43396199 0.24257089 0.023688922
0.43394899 0.24435866 0.023659009
0.433936 0.24614644 0.023629099
0.43392304 0.24793422 0.023599187
0.43391004 0.24972199 0.023569275
0.43389705 0.25150979 0.023539362
0.43388405 0.25329757 0.023509452
0.43387106 0.25508535 0.02347954
0.43385807 0.2568731 0.023449628
0.43384507 0.25866088 0.023419715
0.43383211 0.26044866 0.023389805
0.43381912 0.26223645 0.023359893
0.43212089 0.26435113 0.022176083
0.43146187 0.18213293 0.020572504
0.43397045 0.18370976 0.022272876
0.43395743 0.18550153 0.022242898
0.4339444 0.18729329 0.022212919
0.43393138 0.18908507 0.022182941
0.43391836 0.19087683 0.022152962
0.43558663 0.19250137 0.02327699
0.43557364 0.19428913 0.023247078
0.43556064 0.19607691 0.023217168
0.43554765 0.1978647 0.023187255
0.43553466 0.19965246 0.023157343
0.43552166 0.20144024 0.023127431
0.4355087 0.20322803 0.023097521
0.4354957 0.20501581 0.023067608
0.43548271 0.20680359 0.023037696
0.43546972 0.20859137 0.023007784
0.43545672 0.21037914 0.022977874
0.43544373 0.21216692 0.022947961
0.43543077 0.2139547 0.022918049
0.43541777 0.21574247 0.022888137
0.43540478 0.21753025 0.022858227
0.43539178 0.21931803 0.022828314
0.43537879 0.22110581 0.022798402
0.4353658 0.2228936 0.02276849
0.4353528 0.22468138 0.02273858
0.43533984 0.22646914 0.022708667
0.43532684 0.22825693 0.022678755
0.43531385 0.23004471 0.022648843
0.43530086 0.23183249 0.022618933
0.43360594 0.23387927 0.021433478
0.43359292 0.23567104 0.021403499
0.43357989 0.2374628 0.021373522
0.43356687 0.23925458 0.021343542
0.43355384 0.24104635 0.021313563
0.43354085 0.24283811 0.021283586
0.43352783 0.24462989 0.021253606
0.4335148 0.24642165 0.021223629
0.43350178 0.24821343 0.02119365
0.43348876 0.25000519 0.02116367
0.43347573 0.25179696 0.021133693
0.43346274 0.25358874 0.021103714
0.43344972 0.25538051 0.021073736
0.43343669 0.25717229 0.021043757
0.43342367 0.25896403 0.021013778
0.43341064 0.26075581 0.0209838
0.43339765 0.26254758 0.020953821
0.43272984 0.18212113 0.019316068
0.43271679 0.18391888 0.01928599
0.43270373 0.18571663 0.019255912
0.43269065 0.18751438 0.019225832
0.4326776 0.18931215 0.019195754
0.43266454 0.1911099 0.019165674
0.43265149 0.19290765 0.019135596
0.43263841 0.19470541 0.019105518
0.43262535 0.19650316 0.019075438
0.43513003 0.19803214 0.020780798
0.43511704 0.1998239 0.020750819
0.43510401 0.20161568 0.020720841
0.43509099 0.20340744 0.020690862
0.43507797 0.20519921 0.020660885
0.43506494 0.20699099 0.020630905
0.43505195 0.20878275 0.020600926
0.43503892 0.21057452 0.020570949
0.4350259 0.21236628 0.020540969
0.43501288 0.21415806 0.020510992
0.43499985 0.21594982 0.020481013
0.43498683 0.21774159 0.020451033
0.43497384 0.21953337 0.020421056
0.43496081 0.22132513 0.020391077
0.43494779 0.2231169 0.020361099
0.43493477 0.22490866 0.02033112
0.43492174 0.22670044 0.020301141
0.43490875 0.22849222 0.020271163
0.43489572 0.23028398 0.020241184
0.4348827 0.23207575 0.020211207
0.43486968 0.23386751 0.020181227
0.432338 0.23605376 0.018413708
0.43232495 0.23785152 0.01838363
0.43231186 0.23964927 0.018353552
0.43229881 0.24144702 0.018323472
0.43228576 0.24324478 0.018293394
0.43227267 0.24504253 0.018263316
0.43225962 0.24684028 0.018233236
0.43224657 0.24863805 0.018203158
0.43223351 0.2504358 0.018173078
0.43222043 0.25223354 0.018143
0.43220738 0.2540313 0.018112922
0.43219432 0.25582907 0.018082842
0.43218127 0.2576268 0.018052764
0.43216819 0.25942457 0.018022686
0.43215513 0.26122233 0.017992606
0.43214208 0.26302007 0.017962528
0.43233544 0.18045081 0.016930602
0.43232235 0.18225256 0.016900457
0.43398476 0.18390708 0.018029565
0.43397167 0.18570481 0.017999487
0.43395862 0.18750258 0.017969409
0.43394557 0.18930033 0.017939329
0.43393251 0.19109809 0.017909251
0.43391943 0.19289584 0.017879171
0.43390638 0.1946936 0.017849093
0.4322176 0.19666652 0.016659295
0.43220451 0.19846827 0.016629148
0.43219143 0.20027001 0.016599003
0.43217835 0.20207176 0.016568858
0.43384108 0.20368236 0.0176987
0.433828 0.20548013 0.017668622
0.43381494 0.20727788 0.017638542
0.43380189 0.20907563 0.017608464
0.43378884 0.21087338 0.017578386
0.43377575 0.21267115 0.017548306
0.4337627 0.2144689 0.017518228
0.43374965 0.21626665 0.01748815
0.43373656 0.21806441 0.01745807
0.43372351 0.21986216 0.017427992
0.43371046 0.22165991 0.017397914
0.4336974 0.22345768 0.017367834
0.43368432 0.22525543 0.017337756
0.43367127 0.22705318 0.017307678
0.43365821 0.22885093 0.017277598
0.43364513 0.23064868 0.01724752
0.43363208 0.23244645 0.017217441
0.43361902 0.2342442 0.017187363
0.43360597 0.23604195 0.017157285
0.43191653 0.23810667 0.01596595
0.43190342 0.23990841 0.015935805
0.43189034 0.24171016 0.015905658
0.43187726 0.2435119 0.015875513
0.43186417 0.24531366 0.015845368
0.43352759 0.24682848 0.016976813
0.43351454 0.24862625 0.016946733
0.43350145 0.250424 0.016916655
0.4334884 0.25222173 0.016886575
0.43347535 0.2540195 0.016856497
0.43346229 0.25581726 0.016826419
0.43344921 0.257615 0.016796339
0.43343616 0.25941277 0.016766261
0.4334231 0.26121053 0.016736183
0.43173325 0.26333109 0.015543913
0.43193364 0.1805782 0.014509512
0.43192053 0.18238394 0.014479299
0.43358004 0.18404247 0.015611098
0.43356693 0.18584421 0.015580953
0.43355384 0.18764596 0.015550807
0.43354076 0.1894477 0.015520662
0.43352768 0.19124945 0.015490516
0.43351457 0.19305119 0.015460371
0.43350148 0.19485293 0.015430226
0.43181556 0.19682983 0.014237602
0.43180245 0.19863556 0.014207389
0.43178931 0.2004413 0.014177177
0.4317762 0.20224704 0.014146965
0.43176308 0.20405278 0.014116753
0.43174997 0.20585851 0.014086541
0.43340984 0.20746516 0.015219208
0.43339676 0.2092669 0.015189062
0.43338367 0.21106865 0.015158917
0.43337059 0.21287039 0.015128772
0.43335748 0.21467213 0.015098626
0.43334439 0.21647388 0.015068481
0.43333131 0.21827562 0.015038335
0.43331823 0.22007737 0.01500819
0.43330511 0.22187911 0.014978044
0.43329203 0.22368085 0.014947899
0.43327895 0.22548261 0.014917754
0.43326586 0.22728434 0.014887608
0.43325275 0.22908609 0.014857463
0.43323967 0.23088783 0.014827317
0.43322659 0.23268959 0.014797172
0.4332135 0.23449133 0.014767026
0.43320039 0.23629309 0.014736881
0.43318731 0.23809484 0.014706735
0.43317422 0.23989658 0.01467659
0.43148756 0.24197322 0.013482297
0.43147445 0.24377896 0.013452085
0.43146133 0.2455847 0.013421873
0.43312186 0.24710356 0.014556007
0.43310878 0.2489053 0.014525862
0.43309566 0.25070706 0.014495717
0.43308258 0.25250879 0.014465571
0.4330695 0.25431052 0.014435426
0.43305641 0.25611228 0.01440528
0.4330433 0.25791404 0.014375135
0.43303022 0.25971577 0.01434499
0.43301713 0.26151752 0.014314844
0.43133011 0.26364204 0.013119751
0.43320724 0.18056634 0.013247508
0.4331941 0.18237208 0.013217296
0.43318099 0.18417782 0.013187083
0.43316787 0.18598355 0.013156871
0.43315476 0.18778929 0.013126658
0.43481153 0.18943587 0.014261438
0.43479845 0.19123761 0.014231292
0.43311539 0.1932065 0.013036022
0.43310228 0.19501223 0.01300581
0.43308917 0.19681796 0.012975598
0.43307602 0.1986237 0.012945386
0.43306291 0.20042944 0.012915174
0.4330498 0.20223518 0.012884961
0.43303668 0.20404091 0.012854749
0.43302354 0.20584665 0.012824537
0.43301043 0.20765238 0.012794324
0.43299732 0.20945813 0.012764112
0.4329842 0.21126387 0.0127339
0.43297106 0.21306959 0.012703688
0.43295795 0.21487533 0.012673476
0.43461519 0.21646205 0.013809255
0.43293172 0.2184868 0.012613052
0.43291861 0.22029254 0.012582839
0.43290547 0.22209828 0.012552626
0.43289235 0.223904 0.012522414
0.43287924 0.22570974 0.012492202
0.43286613 0.22751547 0.01246199
0.43285298 0.22932121 0.012431778
0.43283987 0.23112695 0.012401566
0.43282676 0.23293269 0.012371354
0.43281364 0.23473841 0.012341142
0.43280053 0.23654415 0.01231093
0.43278739 0.23834988 0.012280717
0.43277428 0.24015562 0.012250505
0.43276116 0.24196136 0.012220292
0.43274805 0.2437671 0.01219008
0.43273491 0.24557284 0.012159868
0.43272179 0.24737856 0.012129656
0.43270868 0.2491843 0.012099444
0.43269557 0.25099003 0.012069232
0.43268245 0.25279576 0.01203902
0.43266931 0.25460151 0.012008808
0.4326562 0.25640723 0.011978596
0.43264309 0.25821298 0.011948383
0.43262997 0.26001871 0.01191817
0.43261683 0.26182446 0.011887958
0.43260372 0.26363018 0.011857746
0.43198037 0.18076324 0.010234286
0.4344677 0.18236022 0.011955291
0.43445459 0.18416595 0.011925079
0.43444148 0.18597169 0.011894867
0.43442833 0.18777743 0.011864655
0.43441522 0.18958317 0.011834443
0.43440211 0.19138891 0.011804231
0.434389 0.19319464 0.011774018
0.43437585 0.19500037 0.011743806
0.43436274 0.1968061 0.011713593
0.43428403 0.20764051 0.011532321
0.43427092 0.20944627 0.011502109
0.43425778 0.211252 0.011471896
0.43424466 0.21305773 0.011441683
0.43423155 0.21486346 0.011411471
0.43421844 0.2166692 0.011381259
0.43420532 0.21847494 0.011351047
0.43419218 0.22028068 0.011320835
0.43417907 0.22208641 0.011290623
0.43416595 0.22389214 0.011260411
0.43415284 0.22569788 0.011230199
0.4341397 0.22750361 0.011199987
0.43412659 0.22930935 0.011169774
0.43411347 0.23111509 0.011139561
0.43410036 0.23292083 0.011109349
0.43408725 0.23472655 0.011079137
0.4340741 0.23653229 0.011048925
0.43406099 0.23833802 0.011018713
0.43571505 0.18595983 0.010632863
0.43570194 0.18776557 0.01060265
0.43568882 0.18957131 0.010572438
0.43567571 0.19137704 0.010542226
