# .PCD v0.7 - Point Cloud Data file format
VERSION 0.7
FIELDS x y z
SIZE 4 4 4
TYPE F F F
COUNT 1 1 1
WIDTH 1415
HEIGHT 1
VIEWPOINT 0 0 0 1 0 0 0
POINTS 1415
DATA ascii
0.48755044 0.10066772 0.048685677
0.48757711 0.10154527 0.048680332
0.48846784 0.10227548 0.049194008
0.48935845 0.10300251 0.049707707
0.48938504 0.10387688 0.04970238
0.49027553 0.10459913 0.050216105
0.49116591 0.1053182 0.050729848
0.4911924 0.10618939 0.05072454
0.49208269 0.10690366 0.051238351
0.49210912 0.10777324 0.051233049
0.4929992 0.10848276 0.051746853
0.4930256 0.10935076 0.051741563
0.49391553 0.11005548 0.052255392
0.49394187 0.11092189 0.052250113
0.49483168 0.11162185 0.05276398
0.49485797 0.11248666 0.052758709
0.49488425 0.11335147 0.052753437
0.49491054 0.11421628 0.05274817
0.49493682 0.11508109 0.052742898
0.49496311 0.11594591 0.052737631
0.4949894 0.11681072 0.05273236
0.49415255 0.11785313 0.052207876
0.49417889 0.11871953 0.052202597
0.49334219 0.11976672 0.051678091
0.49250558 0.12081708 0.051153563
0.49166903 0.12187066 0.050628982
0.49083263 0.1229274 0.050104417
0.48999631 0.12398732 0.049579833
0.48829731 0.12523918 0.048535947
0.48746118 0.12630709 0.048011284
0.48576251 0.12757011 0.046967331
0.4849267 0.12864596 0.046442643
0.4832283 0.12992013 0.045398597
0.48239273 0.13100393 0.04487386
0.48069474 0.13228925 0.043829776
0.47985935 0.13338104 0.043304961
0.47902408 0.13447601 0.042780165
0.4773266 0.13577725 0.041735977
0.47649157 0.13688017 0.041211132
0.47565663 0.13798629 0.040686235
0.47482181 0.13909559 0.040161345
0.47484925 0.13999863 0.040155839
0.47401461 0.1411127 0.039630927
0.47318003 0.14222997 0.039105989
0.48807982 0.099769123 0.048011895
0.48896962 0.10050256 0.048526786
0.48899624 0.10137853 0.048521448
0.48902288 0.10225448 0.04851611
0.48991248 0.10298155 0.049031038
0.49080202 0.10370544 0.049545985
0.49169144 0.10442614 0.050060958
0.4917179 0.10529731 0.050055649
0.49260724 0.10601322 0.050570678
0.49263367 0.10688281 0.050565381
0.49352282 0.10759395 0.051080406
0.4935492 0.10846195 0.051075116
0.49443817 0.10916831 0.051590171
0.49446452 0.11003471 0.051584888
0.49449086 0.11090112 0.05157961
0.49537966 0.11160112 0.052094709
0.49540594 0.11246593 0.052089438
0.49543223 0.11333074 0.05208417
0.49545851 0.11419554 0.052078899
0.4954848 0.11506035 0.052073631
0.49551108 0.11592517 0.05206836
0.49467519 0.11696594 0.051542655
0.49470153 0.11783236 0.051537372
0.49386579 0.11887791 0.051011644
0.49303016 0.11992665 0.050485894
0.49219456 0.12097858 0.049960092
0.49135911 0.1220337 0.049434297
0.49052376 0.123092 0.048908491
0.48968852 0.12415348 0.048382662
0.48799151 0.12540686 0.047336277
0.48715651 0.12647632 0.046810396
0.48545989 0.12774085 0.045763973
0.48376346 0.12901175 0.044717472
0.48292881 0.13009393 0.044191517
0.48209429 0.1311793 0.043665547
0.48125985 0.13226786 0.043139555
0.47956404 0.13355947 0.042092927
0.47872984 0.134656 0.041566886
0.47703439 0.13595875 0.040520228
0.4762004 0.13706324 0.039994102
0.47536656 0.13817091 0.039467994
0.47539401 0.13907394 0.039462492
0.47369915 0.14039581 0.038415719
0.47372669 0.14130202 0.038410198
0.48860916 0.098870531 0.047338121
0.48949802 0.099605598 0.047854234
0.48952466 0.10048156 0.047848895
0.49041337 0.10121186 0.048365038
0.49043992 0.10208622 0.048359707
0.49046651 0.10296059 0.04835438
0.49135503 0.10368451 0.04887056
0.49224344 0.10440525 0.049386762
0.4922699 0.10527642 0.049381454
0.49315825 0.10599238 0.049897715
0.49318466 0.10686196 0.049892414
0.49407279 0.10757314 0.050408673
0.49496081 0.10828114 0.050924953
0.49498716 0.10914754 0.050919674
0.49501351 0.11001394 0.050914392
0.49503982 0.11088035 0.050909113
0.4959276 0.11158039 0.051425438
0.49595389 0.11244519 0.051420171
0.49598017 0.11331 0.0514149
0.49600646 0.11417481 0.051409632
0.49603274 0.11503962 0.051404361
0.49519783 0.11607876 0.050877437
0.49522418 0.11694517 0.050872155
0.49438938 0.11798911 0.050345201
0.49355471 0.11903621 0.049818229
0.49358115 0.11990581 0.049812932
0.49274656 0.12095769 0.049285896
0.4910512 0.12219667 0.04823716
0.49021691 0.12325651 0.04771011
0.48938271 0.12431955 0.047183041
0.4876878 0.12557445 0.046134178
0.48685384 0.12664546 0.045607053
0.48515925 0.12791151 0.044558119
0.48432553 0.12899047 0.044030953
0.48263133 0.13026766 0.042981986
0.48179787 0.13135459 0.042454768
0.48010397 0.13264295 0.041405704
0.47927073 0.13373783 0.040878437
0.4784376 0.13483591 0.040351152
0.47760457 0.13593717 0.039823845
0.47591129 0.13724622 0.038774651
0.47593874 0.13814926 0.038769148
0.47424582 0.13946785 0.037719928
0.47427335 0.14037408 0.037714407
0.47344074 0.14149128 0.037186973
0.49002644 0.098708645 0.047181666
0.49005306 0.099584594 0.047176331
0.49094081 0.10031652 0.047693696
0.49096739 0.10119089 0.047688369
0.49099395 0.10206526 0.047683038
0.49188152 0.1027908 0.048200443
0.49190804 0.10366359 0.048195124
0.49279544 0.10438436 0.048712559
0.4936828 0.10510194 0.049230043
0.49370924 0.10597153 0.049224745
0.49459639 0.10668433 0.049742229
0.4946228 0.10755233 0.049736939
0.4955098 0.10826036 0.050254449
0.49553615 0.10912677 0.050249171
0.49556246 0.10999317 0.050243892
0.49558881 0.11085958 0.050238609
0.49647558 0.11155965 0.050756171
0.49650186 0.11242446 0.0507509
0.49652815 0.11328927 0.050745629
0.49655443 0.11415408 0.050740361
0.49572048 0.11519159 0.050212212
0.49574682 0.11605799 0.050206933
0.49491298 0.1171003 0.049678754
0.49407926 0.11814578 0.04915056
0.4941057 0.11901537 0.049145259
0.4932721 0.12006564 0.048617002
0.49157864 0.12130133 0.047565822
0.49074531 0.12235956 0.047037546
0.48991209 0.12342096 0.046509251
0.48907888 0.12448557 0.045980912
0.48738608 0.12574197 0.044929605
0.48655319 0.12681453 0.044401243
0.48486066 0.12808211 0.043349836
0.48402801 0.12916262 0.042821422
0.4823359 0.13044132 0.041769981
0.48150343 0.13152981 0.041241489
0.48067111 0.13262148 0.040713012
0.47897947 0.13391611 0.039661471
0.47814739 0.13501574 0.039132945
0.47731537 0.13611858 0.038604364
0.47648349 0.13722457 0.038075801
0.47565171 0.13833377 0.037547216
0.47482002 0.13944612 0.037018612
0.47398838 0.1405617 0.036489956
0.47229779 0.14189138 0.035438206
0.47232547 0.14280237 0.035432655
0.49146825 0.099421188 0.047022361
0.49149483 0.10029556 0.04701703
0.49152142 0.10116993 0.047011703
0.49240801 0.10189711 0.047530331
0.49243453 0.10276988 0.047525015
0.49332097 0.10349229 0.048043672
0.49334744 0.10436348 0.048038363
0.49423379 0.10508109 0.048557077
0.49426022 0.10595068 0.048551776
0.49514639 0.10666352 0.049070492
0.49517277 0.10753152 0.049065202
0.49605879 0.10823959 0.049583945
0.49608511 0.109106 0.049578667
0.49611145 0.1099724 0.049573388
0.49613777 0.11083881 0.049568109
0.49616411 0.11170521 0.049562827
0.49619046 0.11257161 0.049557548
0.49621677 0.11343802 0.049552269
0.49624312 0.11430442 0.049546991
0.49626946 0.11517082 0.049541708
0.49543661 0.11621149 0.049012307
0.49460384 0.11725534 0.048482887
0.49463028 0.11812493 0.04847759
0.4937976 0.11917356 0.047948115
0.4929651 0.12022538 0.047418643
0.49213266 0.12128037 0.046889156
0.49044144 0.12252238 0.045835469
0.48960921 0.12358534 0.045305904
0.48877713 0.12465148 0.04477635
0.48708639 0.12590942 0.043722566
0.48625451 0.12698354 0.043192927
0.4845641 0.12825261 0.042139083
0.48373252 0.12933469 0.041609429
0.4820424 0.13061492 0.040555477
0.48121104 0.13170496 0.040025774
0.4795213 0.13299632 0.038971793
0.47869021 0.13409431 0.038442042
0.47785914 0.13519552 0.037912238
0.47702822 0.13629989 0.03738245
0.47619739 0.13740744 0.036852643
0.47536668 0.13851818 0.036322821
0.474536 0.13963212 0.035792939
0.47370547 0.14074923 0.035263073
0.47287503 0.14186953 0.034733187
0.47204468 0.142993 0.034203283
0.49202228 0.09940023 0.046345703
0.49204886 0.10027459 0.046340372
0.49207541 0.10114897 0.046335045
0.49296102 0.10187619 0.046854902
0.49298754 0.10274895 0.046849582
0.49387297 0.1034714 0.047369473
0.49389943 0.10434259 0.047364164
0.4947848 0.10506023 0.047884118
0.49481121 0.10592983 0.047878817
0.49569637 0.10664271 0.048398759
0.49572274 0.10751071 0.048393473
0.49660775 0.10821882 0.048913449
0.4966341 0.10908522 0.04890817
0.49666041 0.10995162 0.048902892
0.49668676 0.11081804 0.048897609
0.4967131 0.11168444 0.04889233
0.49673942 0.11255084 0.048887052
0.49676576 0.11341725 0.048881773
0.49679211 0.11428364 0.04887649
0.49596021 0.11532268 0.048345868
0.49512839 0.1163649 0.04781523
0.49515483 0.11723449 0.047809929
0.49432313 0.1182815 0.047279224
0.49349156 0.11933167 0.046748534
0.49266011 0.12038505 0.046217825
0.49182874 0.1214416 0.045687094
0.49013954 0.12268512 0.044630904
0.48930842 0.12374964 0.044100124
0.48761961 0.12500429 0.0430439
0.48678866 0.12607679 0.042513039
0.48595789 0.12715246 0.041982193
0.48426956 0.12842305 0.040925868
0.48343903 0.12950666 0.040394973
0.48175097 0.13078842 0.039338548
0.48092067 0.13188002 0.038807604
0.47923303 0.1331729 0.037751146
0.47840291 0.13427246 0.03722012
0.47757295 0.1353752 0.036689106
0.4767431 0.13648112 0.036158081
0.47591332 0.13759023 0.03562703
0.47508362 0.13870254 0.035095926
0.47425404 0.13981803 0.034564842
0.47342455 0.14093669 0.034033731
0.47259519 0.14205854 0.033502601
0.47176591 0.14318357 0.03297146
0.47179368 0.14409776 0.032965887
0.47096449 0.14522758 0.03243468
0.4925763 0.099379264 0.045669034
0.49260288 0.10025363 0.045663703
0.49348748 0.10098248 0.046184789
0.49351403 0.10185526 0.04617947
0.4943985 0.10257933 0.046700578
0.49442497 0.10345051 0.04669527
0.49445146 0.1043217 0.046689961
0.49533579 0.10503939 0.047211148
0.49536222 0.10590898 0.047205847
0.49624637 0.1066219 0.047727026
0.49627274 0.1074899 0.047721736
0.49629912 0.10835789 0.047716446
0.49718305 0.10906445 0.048237666
0.4972094 0.10993085 0.048232388
0.49723575 0.11079726 0.048227109
0.49726206 0.11166367 0.048221827
0.49728841 0.11253007 0.048216548
0.49731475 0.11339647 0.048211269
0.4964838 0.11443387 0.047679421
0.49651018 0.11530187 0.047674131
0.49567941 0.11634404 0.04714226
0.49484867 0.11738943 0.046610333
0.49401805 0.11843798 0.046078421
0.49318755 0.11948971 0.045546487
0.49235716 0.12054464 0.045014538
0.49066988 0.1217849 0.0439559
0.4898397 0.12284779 0.043423895
0.48900965 0.12391385 0.042891871
0.48732284 0.12517004 0.04183314
0.48649302 0.12624407 0.041301072
0.48566329 0.12732129 0.040768981
0.48397705 0.12859342 0.039710183
0.4831475 0.12967859 0.039178018
0.4823181 0.13076696 0.03864586
0.48063233 0.13205498 0.037586961
0.4798032 0.13315132 0.037054755
0.4781177 0.13445051 0.035995759
0.47728878 0.13555482 0.035463508
0.47645998 0.13666229 0.034931235
0.47563124 0.13777296 0.034398913
0.47480261 0.13888682 0.033866599
0.47397411 0.14000385 0.03333427
0.47314569 0.14112407 0.032801919
0.47231737 0.14224747 0.032269545
0.4714891 0.14337407 0.031737126
0.47151694 0.14428985 0.031731546
0.47068885 0.14542122 0.031199126
0.46986088 0.14655578 0.030666692
0.49313033 0.099358298 0.044992376
0.49401397 0.10008878 0.045514677
0.49404049 0.10096156 0.045509361
0.49492401 0.10168727 0.046031699
0.4949505 0.10255844 0.04602639
0.49497697 0.10342963 0.046021082
0.49500346 0.10430082 0.046015769
0.49588677 0.10501854 0.046538185
0.49591321 0.10588814 0.046532884
0.49679634 0.10660109 0.047055293
0.49682271 0.10746909 0.047050007
0.49684912 0.10833708 0.047044717
0.49773204 0.10904368 0.04756717
0.49775836 0.10991008 0.047561891
0.4977847 0.11077649 0.047556613
0.49781105 0.1116429 0.04755133
0.49698102 0.11267707 0.047018271
0.4970074 0.11354507 0.047012981
0.49617752 0.11458402 0.046479896
0.49620396 0.11545362 0.046474595
0.49537417 0.11649735 0.04594145
0.49454454 0.11754428 0.045408309
0.49371499 0.11859439 0.044875156
0.49288556 0.11964767 0.044341978
0.49205622 0.12070415 0.043808784
0.49122691 0.12176382 0.043275543
0.48954189 0.12301037 0.042214431
0.48871288 0.12407799 0.041681163
0.48702815 0.12533571 0.040619958
0.48619938 0.12641129 0.040086646
0.48537073 0.12749006 0.039553318
0.48368648 0.12876369 0.038492009
0.48285803 0.12985043 0.037958633
0.48117417 0.13113521 0.03689729
0.48034599 0.13222989 0.036363859
0.47951788 0.1333278 0.035830382
0.47868988 0.13442886 0.035296913
0.47700664 0.13573435 0.034235448
0.47617885 0.1368434 0.033701897
0.47535118 0.13795561 0.033168368
0.47452363 0.13907102 0.03263481
0.47455135 0.139982 0.032629259
0.47286883 0.14131138 0.031567648
0.47289661 0.14222555 0.031562079
0.47206935 0.14335212 0.031028422
0.47209719 0.1442679 0.031022841
0.47127011 0.14539923 0.030489191
0.47044316 0.14653376 0.029955519
0.49454045 0.099195085 0.044844568
0.49456698 0.10006786 0.044839248
0.4945935 0.10094063 0.044833928
0.49547601 0.10166638 0.045357496
0.4955025 0.10253755 0.045352187
0.49552897 0.10340874 0.045346878
0.49555546 0.10427993 0.04534157
0.49643779 0.10499769 0.045865215
0.49646419 0.10586729 0.045859914
0.49649063 0.10673688 0.045854617
0.49737272 0.10744828 0.046378274
0.49739909 0.10831627 0.046372984
0.49742547 0.10918427 0.046367697
0.49745184 0.11005227 0.046362408
0.49747825 0.11092027 0.046357118
0.49750462 0.11178827 0.046351828
0.497531 0.11265626 0.046346538
0.4967021 0.11369359 0.045812223
0.49672851 0.11456317 0.045806926
0.49589971 0.11560529 0.045272555
0.49507102 0.11665057 0.044738196
0.49424246 0.11769906 0.044203814
0.49341395 0.11875071 0.043669418
0.49258557 0.11980556 0.043135002
0.49175724 0.1208636 0.042600535
0.49092907 0.12192481 0.042066075
0.4892461 0.12317288 0.041002493
0.4884181 0.12424207 0.040467959
0.48759025 0.12531443 0.039933428
0.48590776 0.12657842 0.038869753
0.48508018 0.12765875 0.038335174
0.48339799 0.12893391 0.037271395
0.48257062 0.1300222 0.036736775
0.48088881 0.13130848 0.035672959
0.48006165 0.13240474 0.035138257
0.47923464 0.13350418 0.034603562
0.47840768 0.13460681 0.034068856
0.47758085 0.13571262 0.033534132
0.47589979 0.1370244 0.032470122
0.47507319 0.13813816 0.031935349
0.47424668 0.13925514 0.031400554
0.47342029 0.14037527 0.030865734
0.4734481 0.14128946 0.030860163
0.47262177 0.14241439 0.030325288
0.47179562 0.1435425 0.029790426
0.47182351 0.14445987 0.029784836
0.47099748 0.14559275 0.029249946
0.47102544 0.14651172 0.029244345
0.49509346 0.099174157 0.044169135
0.49511999 0.10004693 0.044163816
0.49514651 0.10091971 0.0441585
0.49602804 0.10164549 0.044683296
0.4960545 0.10251667 0.044677988
0.49608099 0.10338785 0.044672679
0.49610746 0.10425904 0.044667371
0.49698877 0.10497684 0.045192249
0.49701521 0.10584643 0.045186952
0.49704164 0.10671602 0.045181654
0.49706808 0.10758561 0.045176353
0.49794906 0.10829546 0.045701254
0.49797544 0.10916346 0.045695964
0.49800184 0.11003146 0.045690678
0.49802822 0.11089946 0.045685388
0.49720022 0.11193356 0.045149859
0.49722666 0.11280315 0.045144558
0.49725309 0.11367274 0.045139261
0.49642521 0.11471322 0.044603668
0.49559751 0.11575688 0.044068087
0.4947699 0.11680372 0.043532483
0.49394238 0.11785375 0.042996865
0.49396899 0.11872971 0.042991526
0.49228758 0.11996338 0.041925535
0.49146035 0.12102296 0.041389856
0.49063322 0.12208573 0.040854152
0.48895228 0.12333532 0.039788064
0.48812538 0.12440605 0.039252318
0.48644483 0.12566678 0.038186193
0.48561817 0.12674548 0.037650391
0.48479158 0.12782738 0.037114546
0.48396513 0.12891245 0.036578711
0.4822852 0.13019387 0.035512459
0.48145899 0.1312869 0.034976579
0.47977936 0.13257949 0.033910226
0.47895339 0.13368049 0.033374291
0.47812751 0.13478467 0.032838341
0.47730169 0.13589205 0.032302339
0.47647601 0.1370026 0.031766351
0.47565043 0.13811633 0.031230342
0.47482494 0.13923326 0.030694313
0.47399956 0.14035335 0.030158261
0.47317421 0.14147666 0.029622162
0.47234902 0.14260313 0.029086078
0.47237688 0.1435205 0.029080486
0.47155184 0.14465176 0.028544372
0.47157976 0.14557073 0.028538771
0.47075486 0.14670675 0.028002627
0.49564648 0.099153236 0.043493707
0.495673 0.10002601 0.043488387
0.49569952 0.10089878 0.043483067
0.49572608 0.10177156 0.043477751
0.4966065 0.10249578 0.044003792
0.49663299 0.10336697 0.043998484
0.49665946 0.10423815 0.043993175
0.49668595 0.10510933 0.043987866
0.49756619 0.10582559 0.044513989
0.49759263 0.10669518 0.044508688
0.49761906 0.10756476 0.044503391
0.4976455 0.10843435 0.04449809
0.49767193 0.10930394 0.044492792
0.49769834 0.11017353 0.044487491
0.49772477 0.11104313 0.044482194
0.49775121 0.11191271 0.044476897
0.49777764 0.1127823 0.044471595
0.49695075 0.11382116 0.043934777
0.496124 0.11486317 0.043397974
0.49529734 0.11590839 0.042861149
0.49532393 0.11678275 0.042855822
0.49449739 0.11783275 0.042318966
0.49281791 0.11906315 0.041250527
0.49199164 0.12012111 0.040713627
0.49116546 0.12118225 0.040176705
0.4903394 0.12224657 0.039639764
0.48866051 0.12349768 0.038571198
0.48783466 0.12456997 0.038034208
0.48700893 0.12564543 0.0374972
0.48533055 0.12691246 0.036428537
0.48450506 0.12799591 0.035891481
0.48367965 0.12908253 0.035354406
0.48200181 0.13036548 0.034285672
0.48117658 0.13146009 0.033748519
0.48035154 0.13255784 0.033211369
0.47867417 0.13385671 0.032142542
0.4778493 0.13496247 0.031605318
0.47702459 0.13607138 0.031068107
0.47619995 0.13718349 0.030530874
0.47537544 0.13829878 0.029993623
0.47455102 0.13941726 0.029456353
0.47372663 0.14053892 0.02891903
0.47290239 0.14166377 0.02838172
0.47207826 0.14279179 0.027844392
0.47210619 0.14371076 0.027838793
0.47213411 0.14462973 0.027833192
0.47131017 0.14576413 0.027295824
0.47133815 0.14668468 0.027290216
0.49531981 0.098400079 0.042291041
0.4953464 0.099274449 0.042285714
0.49537298 0.10014882 0.042280387
0.49625257 0.10087786 0.042807631
0.49627909 0.10175064 0.042802315
0.4971585 0.10247489 0.043329589
0.49718499 0.10334608 0.043324281
0.49721149 0.10421727 0.043318972
0.49723795 0.10508844 0.043313663
0.49811718 0.10580474 0.043841019
0.49814361 0.10667433 0.043835718
0.49817005 0.10754392 0.043830421
0.49819648 0.1084135 0.04382512
0.49822292 0.1092831 0.043819822
0.49824935 0.11015268 0.043814525
0.49827579 0.11102228 0.043809224
0.49744979 0.1120579 0.043271191
0.49747628 0.11292908 0.043265883
0.49665049 0.11396948 0.042727854
0.49582478 0.11501306 0.042189807
0.49585137 0.11588743 0.04218448
0.49502581 0.11693579 0.041646402
0.49420035 0.11798733 0.041108306
0.49337494 0.11904208 0.040570166
0.49254969 0.12009999 0.040032029
0.49087259 0.12134146 0.038961086
0.49004754 0.12240735 0.038422871
0.48922262 0.12347641 0.037884668
0.487546 0.12473379 0.036813628
0.48672131 0.12581083 0.036275383
0.48504499 0.12707938 0.035204243
0.48422056 0.12816437 0.034665942
0.48339623 0.12925255 0.034127623
0.48172039 0.13053702 0.03305639
0.48089629 0.13163316 0.032518018
0.48007229 0.13273248 0.031979639
0.47924837 0.13383499 0.03144123
0.47757316 0.13514017 0.030369869
0.47674951 0.13625064 0.029831413
0.47592595 0.13736431 0.029292939
0.47510248 0.13848116 0.028754445
0.47427905 0.1396012 0.028215898
0.47345579 0.14072441 0.02767737
0.47263259 0.1418508 0.027138818
0.47266054 0.14276977 0.027133219
0.47183749 0.14390095 0.026594637
0.47186548 0.14482149 0.026589027
0.47104254 0.14595747 0.026050385
0.49587384 0.09837912 0.041614383
0.49590042 0.099253483 0.041609056
0.49592701 0.10012785 0.041603729
0.49680555 0.10085693 0.042132206
0.4968321 0.10172971 0.04212689
0.49685863 0.10260248 0.042121571
0.49773699 0.1033252 0.042650085
0.49776348 0.10419638 0.042644776
0.49778995 0.10506755 0.042639464
0.49781644 0.10593874 0.042634156
0.4986946 0.10665348 0.043162756
0.49872103 0.10752307 0.043157458
0.49874747 0.10839265 0.043152157
0.49792236 0.10942347 0.042612921
0.49794883 0.11029464 0.042607613
0.49797532 0.11116583 0.042602304
0.49800178 0.11203702 0.042596996
0.49717695 0.11307578 0.042057749
0.49635223 0.11411773 0.04151848
0.49637881 0.1149921 0.041513149
0.49555421 0.11603882 0.04097385
0.49472973 0.11708874 0.040434528
0.49390528 0.11814185 0.039895166
0.49308097 0.11919814 0.039355803
0.49225679 0.1202576 0.038816426
0.49058169 0.1215006 0.037742984
0.48975775 0.12256803 0.037203554
0.48808303 0.12382216 0.036130071
0.48725933 0.12489755 0.0355906
0.48643565 0.12597616 0.035051074
0.48561212 0.12705791 0.034511559
0.48393807 0.12833275 0.033437952
0.48311478 0.12942249 0.032898389
0.48144102 0.13070847 0.031824682
0.48061797 0.13180616 0.03128507
0.47979504 0.13290705 0.030745441
0.47897214 0.13401112 0.030205758
0.47814938 0.13511837 0.029666096
0.47732675 0.13622881 0.029126406
0.47565395 0.13754505 0.028052542
0.47483146 0.13866347 0.027512778
0.47400916 0.13978505 0.026973022
0.47403705 0.14070241 0.02696743
0.47321486 0.14182878 0.026427645
0.4723928 0.14295831 0.025887839
0.47242078 0.14387888 0.025882231
0.4715988 0.14501321 0.025342369
0.47162685 0.14593536 0.02533675
0.49467227 0.096883997 0.039878394
0.49555013 0.09762267 0.040408049
0.49557674 0.098498628 0.04040271
0.49645445 0.099232525 0.040932387
0.49648103 0.10010689 0.04092706
0.49650761 0.10098127 0.040921733
0.49738511 0.10170879 0.041451454
0.49741164 0.10258155 0.041446134
0.49743816 0.10345434 0.041440815
0.49831548 0.10417549 0.041970577
0.49834195 0.10504667 0.041965269
0.49836844 0.10591786 0.04195996
0.49839491 0.10678904 0.041954651
0.4984214 0.10766022 0.041949343
0.49844787 0.10853139 0.041944034
0.49847436 0.10940258 0.041938726
0.49850082 0.11027376 0.041933417
0.49852732 0.11114495 0.041928109
0.49770343 0.11218208 0.041387632
0.49772999 0.11305485 0.041382313
0.49690625 0.11409677 0.04084181
0.49608263 0.11514186 0.040301289
0.49525911 0.11619015 0.039760746
0.49443561 0.11724163 0.039220158
0.49361226 0.11829628 0.038679574
0.49278903 0.11935413 0.038138974
0.49196589 0.12041514 0.037598357
0.49029288 0.12165966 0.036522437
0.48946998 0.12272864 0.035981767
0.48864716 0.12380081 0.035441078
0.48782444 0.12487617 0.034900375
0.48615208 0.12614138 0.033824328
0.4853296 0.1272247 0.033283573
0.4836576 0.12850106 0.032207489
0.48283532 0.12959236 0.031666651
0.4820132 0.13068682 0.03112583
0.4803417 0.13197911 0.030049644
0.47951975 0.13308154 0.029508745
0.47869799 0.13418716 0.028967852
0.47787628 0.13529596 0.028426945
0.47705469 0.13640796 0.027886013
0.47623318 0.13752313 0.027345063
0.47541174 0.13864151 0.026804065
0.47374129 0.13996883 0.025727673
0.47376922 0.14088778 0.025722072
0.4729481 0.1420157 0.025181042
0.47297609 0.14293624 0.025175434
0.47215506 0.14406896 0.024634343
0.47133422 0.14520484 0.024093272
0.47136229 0.14612858 0.024087643
0.49432459 0.095241919 0.038673732
0.49435133 0.096121065 0.038668375
0.49522832 0.096862957 0.03919927
0.49525499 0.097740509 0.039193921
0.49613178 0.098477632 0.039724819
0.49615839 0.099353582 0.039719481
0.49703506 0.10008593 0.040250402
0.49706161 0.1009603 0.040245075
0.49708819 0.10183466 0.040239744
0.49796465 0.10256063 0.04077071
0.49799117 0.10343342 0.040765394
0.4980177 0.10430618 0.040760074
0.49889395 0.10502578 0.041291073
0.49892044 0.10589697 0.041285764
0.49894691 0.10676815 0.041280456
0.4989734 0.10763933 0.041275147
0.49899986 0.10851051 0.041269835
0.49902636 0.1093817 0.041264527
0.49905285 0.11025287 0.041259218
0.49822992 0.11128838 0.040717527
0.49825644 0.11216116 0.040712208
0.49743369 0.11320144 0.04017048
0.49661103 0.11424491 0.039628737
0.49663764 0.11512086 0.039623398
0.49581513 0.11616911 0.039081622
0.49499264 0.11722055 0.038539801
0.49417034 0.11827517 0.037997983
0.49249908 0.11951004 0.036919687
0.49167696 0.12057262 0.036377795
0.49085495 0.12163839 0.035835911
0.4891842 0.12288918 0.034757517
0.48836246 0.12396291 0.034215592
0.48669201 0.12522484 0.033137098
0.48587048 0.12630655 0.03259512
0.4850491 0.12739141 0.03205312
0.48422778 0.12847948 0.031511109
0.48255795 0.12976214 0.030432487
0.48173687 0.13085815 0.02989042
0.4809159 0.13195738 0.029348338
0.48009497 0.13305978 0.028806198
0.47842583 0.13436313 0.027727485
0.47760519 0.13547349 0.027185334
0.47678465 0.13658702 0.026643159
0.47596416 0.13770378 0.026100939
0.47514382 0.13882369 0.025558725
0.47432357 0.13994679 0.025016498
0.47350341 0.14107306 0.024474246
0.47268331 0.14220256 0.023931948
0.47271135 0.1431247 0.023926329
0.47273937 0.14404686 0.023920709
0.47107163 0.14539638 0.022841712
0.49400559 0.094474129 0.037461296
0.49488166 0.095220841 0.037993368
0.49490836 0.096099988 0.037988011
0.4949351 0.096979134 0.037982654
0.49581102 0.097719468 0.038514789
0.49668682 0.098456629 0.039046917
0.49671343 0.099332578 0.039041579
0.49674004 0.10020854 0.03903624
0.49761564 0.10093934 0.039568409
0.49764222 0.1018137 0.039563082
0.4976688 0.10268807 0.039557755
0.49854419 0.10341249 0.040089957
0.49857071 0.10428526 0.040084638
0.49859723 0.10515804 0.040079318
0.49947244 0.10587608 0.040611561
0.49949893 0.10674726 0.040606253
0.4995254 0.10761844 0.040600944
0.49955189 0.10848963 0.040595636
0.49872988 0.1095219 0.040052727
0.49875641 0.11039468 0.040047407
0.49878293 0.11126745 0.040042091
0.49796113 0.11230611 0.039499145
0.49713942 0.11334795 0.038956173
0.49716607 0.1142239 0.038950834
0.49634451 0.11527052 0.03840784
0.49552298 0.11632033 0.037864793
0.49470162 0.1173733 0.037321754
0.49388033 0.11842948 0.0367787
0.49305916 0.11948884 0.036235631
0.49139011 0.12073001 0.035154793
0.49056917 0.12179733 0.034611672
0.48974833 0.12286783 0.034068529
0.48807973 0.12412493 0.032987602
0.48725915 0.12520339 0.032444406
0.48559093 0.12647162 0.031363443
0.4847706 0.12755805 0.0308202
0.48395029 0.12864769 0.030276911
0.48313013 0.12974049 0.029733635
0.48146257 0.13102943 0.028652541
0.48064259 0.13213021 0.028109185
0.47982278 0.13323414 0.027565835
0.47900304 0.13434128 0.027022472
0.47818342 0.1354516 0.026479088
0.47736391 0.13656512 0.02593568
0.47569719 0.13788433 0.024854375
0.47487792 0.1390058 0.024310919
0.47490585 0.13992475 0.024305319
0.4740867 0.14105099 0.023761839
0.47326761 0.14218044 0.023218308
0.47244868 0.14331307 0.022674782
0.4716298 0.14444886 0.022131246
0.49453688 0.093572274 0.03678507
0.49456364 0.094453014 0.036779705
0.49543869 0.095199764 0.037313003
0.49546543 0.09607891 0.037307646
0.49549216 0.096958056 0.037302289
0.49636707 0.097698435 0.037835661
0.49724182 0.098435625 0.038369026
0.49726847 0.099311583 0.038363688
0.49729508 0.10018754 0.038358349
0.4973217 0.10106351 0.038353011
0.49819624 0.10179274 0.038886417
0.49822283 0.1026671 0.03888109
0.49824938 0.10354147 0.038875762
0.49912372 0.10426433 0.039409205
0.49915025 0.10513711 0.039403889
0.4991768 0.10600989 0.03939857
0.5000509 0.10672638 0.039932054
0.50007743 0.10759756 0.039926745
0.49925637 0.10862821 0.039382614
0.4992829 0.10950098 0.039377298
0.49930942 0.11037375 0.039371978
0.49848858 0.11141078 0.038827807
0.49851516 0.11228514 0.03882248
0.49769446 0.11332694 0.038278282
0.49687386 0.11437193 0.037734058
0.49605331 0.1154201 0.037189785
0.49523291 0.11647146 0.036645532
0.49525967 0.11735219 0.036640164
0.49359238 0.11858372 0.035556957
0.49277222 0.11964465 0.035012603
0.49195218 0.12070874 0.034468271
0.49028537 0.12195619 0.033384968
0.48946559 0.12302825 0.032840583
0.48779908 0.12428687 0.031757176
0.48697954 0.12536688 0.031212743
0.48531342 0.12663664 0.030129304
0.48449406 0.12772463 0.029584786
0.48367488 0.1288158 0.029040286
0.48285577 0.12991017 0.028495768
0.48203677 0.1310077 0.027951229
0.48037136 0.13230295 0.026867596
0.4795526 0.13340844 0.026323011
0.47873393 0.13451715 0.025778404
0.47791538 0.13562901 0.025233777
0.47709683 0.13674408 0.024689101
0.47627848 0.13786234 0.02414443
0.47461402 0.13918781 0.023060651
0.47379586 0.14031404 0.022515906
0.47382388 0.14123619 0.022510286
0.47300589 0.14236717 0.021965545
0.47303396 0.14329092 0.021959916
0.47221613 0.14442669 0.021415139
0.49509493 0.093551159 0.03610348
0.49512169 0.094431899 0.036098115
0.49514848 0.095312633 0.036092747
0.49602246 0.096057832 0.036627289
0.4960492 0.096936978 0.036621932
0.49692312 0.097677395 0.037156537
0.49779686 0.098414622 0.037691128
0.49697646 0.099432498 0.037145842
0.49785012 0.10016654 0.037680451
0.49787673 0.10104251 0.037675112
0.49875027 0.10177177 0.038209755
0.49877682 0.10264614 0.038204428
0.49880341 0.10352051 0.038199097
0.49967673 0.10424341 0.038733777
0.49970326 0.10511619 0.038728457
0.49972981 0.10598896 0.038723141
0.49975634 0.10686173 0.038717821
0.49978286 0.10773451 0.038712502
0.49980938 0.10860728 0.038707186
0.49983591 0.10948005 0.038701866
0.49901602 0.11051544 0.038156472
0.4990426 0.11138982 0.038151145
0.49822286 0.11242998 0.037605722
0.4982495 0.11330594 0.037600383
0.49742991 0.11435089 0.037054934
0.49661034 0.11539903 0.036509428
0.49579096 0.11645035 0.035963938
0.49497166 0.11750484 0.035418428
0.49415246 0.11856253 0.034872893
0.49248731 0.11980037 0.03378715
0.49166837 0.12086602 0.033241574
0.49000362 0.12211499 0.032155793
0.48918486 0.1231886 0.031610135
0.48752043 0.12444873 0.030524289
0.48670197 0.1255303 0.029978614
0.48588356 0.12661506 0.029432919
0.48421961 0.12789111 0.028346945
0.48340148 0.12898384 0.027801201
0.48258343 0.13007976 0.027255438
0.48176542 0.13117886 0.026709625
0.48094758 0.13228114 0.026163818
0.48012984 0.13338661 0.025617998
0.47846684 0.13469291 0.024531869
0.47849461 0.13560709 0.024526298
0.47683185 0.13692297 0.02344008
0.47601452 0.13804278 0.022894172
0.47519732 0.13916574 0.022348246
0.47438014 0.14029194 0.021802267
0.4735631 0.14142129 0.0212563
0.47274619 0.14255384 0.020710316
0.47277433 0.14347917 0.020704675
0.47195753 0.14461648 0.020158662
0.495653 0.093530044 0.035421882
0.49567977 0.094410785 0.035416517
0.49570653 0.095291518 0.035411149
0.49657953 0.096036755 0.035946924
0.49660626 0.096915901 0.035941567
0.49663296 0.097795047 0.03593621
0.49750581 0.098533899 0.03647206
0.49753249 0.099411458 0.03646671
0.49840516 0.10014554 0.037002556
0.49843177 0.10102151 0.036997218
0.49845839 0.10189746 0.036991879
0.49933085 0.10262518 0.037527762
0.49935743 0.10349955 0.037522435
0.50022978 0.10422248 0.038058348
0.5002563 0.10509526 0.038053028
0.50028282 0.10596804 0.038047709
0.50030935 0.10684081 0.038042393
0.50033587 0.10771358 0.038037073
0.5003624 0.10858636 0.038031753
0.49954349 0.10962012 0.037485138
0.49957004 0.11049448 0.03747981
0.49959663 0.11136885 0.03747448
0.4987779 0.11240898 0.036927827
0.49795926 0.11345229 0.036381152
0.49714068 0.11449881 0.035834424
0.49716741 0.11537795 0.035829067
0.49634901 0.11642923 0.035282344
0.49468565 0.11765742 0.034194224
0.49386746 0.11871667 0.033647418
0.49304941 0.1197791 0.033100631
0.49138653 0.12102321 0.032012414
0.49056873 0.1220936 0.031465575
0.48890615 0.12334887 0.030377259
0.4872438 0.12461051 0.029288936
0.48642638 0.12569363 0.028742017
0.48560902 0.12677996 0.028195048
0.48479179 0.12786946 0.027648091
0.48397467 0.12896216 0.027101116
0.48315763 0.13005804 0.026554121
0.48149616 0.13134992 0.025465587
0.48067936 0.13245377 0.024918541
0.47986266 0.13356078 0.024371479
0.47904608 0.13467099 0.023824396
0.47822952 0.13578439 0.023277262
0.47656888 0.13710177 0.022188598
0.4765968 0.13802074 0.022182999
0.4749364 0.13934769 0.021094246
0.47412035 0.14047541 0.020547057
0.47330439 0.14160632 0.019999847
0.47333249 0.14253165 0.019994209
0.47251669 0.14366733 0.019446969
0.49618429 0.092628188 0.03474566
0.49621105 0.093508929 0.034740292
0.49623781 0.09438967 0.034734927
0.49626458 0.095270403 0.034729559
0.49629137 0.096151143 0.034724191
0.4971633 0.096894823 0.03526121
0.49719003 0.097773969 0.035255853
0.49806187 0.098512858 0.035792936
0.49808854 0.099390417 0.035787586
0.49896017 0.10012454 0.036324657
0.49898681 0.1010005 0.036319319
0.49901342 0.10187646 0.036313981
0.49988487 0.10260421 0.036851101
0.49991146 0.10347858 0.03684577
0.49993804 0.10435296 0.036840443
0.50080931 0.10507434 0.037377596
0.50083584 0.10594711 0.03737228
0.50086236 0.10681988 0.03736696
0.50088888 0.10769266 0.037361644
0.50007093 0.10872479 0.036813803
0.50009751 0.10959915 0.036808472
0.5001241 0.11047351 0.036803145
0.49930629 0.11151202 0.036255267
0.49933293 0.11238798 0.036249928
0.49851531 0.11343125 0.035702024
0.49769774 0.11447773 0.035154067
0.49688029 0.11552738 0.034606118
0.49606296 0.1165802 0.03405815
0.49524572 0.11763623 0.033510163
0.49358454 0.11887071 0.032419514
0.49276754 0.1199347 0.031871479
0.49110675 0.12118033 0.030780787
0.49028996 0.12225229 0.030232677
0.48862949 0.12350906 0.029141916
0.48781297 0.12458897 0.028593784
0.48699656 0.12567206 0.028045632
0.48533654 0.12694478 0.02695475
0.48452038 0.12803583 0.026406549
0.4837043 0.12913008 0.02585833
0.48288825 0.13022752 0.02531006
0.48122892 0.13152093 0.024219081
0.48041317 0.13262631 0.023670794
0.47959754 0.1337349 0.023122488
0.47878194 0.13484667 0.022574129
0.47796652 0.13596161 0.02202579
0.47715116 0.13707975 0.021477425
0.47633591 0.13820106 0.02092904
0.4755207 0.13932557 0.020380605
0.47386256 0.1406588 0.019289384
0.47389069 0.14158413 0.019283745
0.47307584 0.14271818 0.018735284
0.47226107 0.14385542 0.018186802
0.49589792 0.092736132 0.033520497
0.4967691 0.093487814 0.034058701
0.49679586 0.094368547 0.034053333
0.49682266 0.095249288 0.034047969
0.49684942 0.096130028 0.034042601
0.49772033 0.096873745 0.034580845
0.49774706 0.097752891 0.034575488
0.4977738 0.098632038 0.034570131
0.49864456 0.099369377 0.035108455
0.49867123 0.10024692 0.035103109
0.49954182 0.10097951 0.035641428
0.49956846 0.10185546 0.03563609
0.50043893 0.10258325 0.036174435
0.50046545 0.10345761 0.036169108
0.50049204 0.10433199 0.036163777
0.50136232 0.10505341 0.036702167
0.50138885 0.10592619 0.036696848
0.50141537 0.10679896 0.036691532
0.5014419 0.10767173 0.036686212
0.50062495 0.10870382 0.036137138
0.50065154 0.10957819 0.03613181
0.49983472 0.11061505 0.035582714
0.49986133 0.11149102 0.035577375
0.49904469 0.11253267 0.035028242
0.49822807 0.1135775 0.034479059
0.49825478 0.11445665 0.034473702
0.49743837 0.11550626 0.033924527
0.49577895 0.11673111 0.032831494
0.49496272 0.11778869 0.032282237
0.49414665 0.11884945 0.031732988
0.4924877 0.12009023 0.030639865
0.49167186 0.12115894 0.030090567
0.49001321 0.12241089 0.028997343
0.48835483 0.12366918 0.027904106
0.48753938 0.12475064 0.027354738
0.48672396 0.1258353 0.026805311
0.48590872 0.12692313 0.026255896
0.48425093 0.12820213 0.02516254
0.48343587 0.12929794 0.024613045
0.48262095 0.13039692 0.024063569
0.48180613 0.13149908 0.023514068
0.48099142 0.13260444 0.022964548
0.48017678 0.13371298 0.022415014
0.47851989 0.13502225 0.021321435
0.47770551 0.13613875 0.020771852
0.47689122 0.13725843 0.020222245
0.47607696 0.13838132 0.019672584
0.47526288 0.13950737 0.019122943
0.47444889 0.14063662 0.018573279
0.47363499 0.14176904 0.018023593
0.47282118 0.14290465 0.017473893
0.49730039 0.092585959 0.033382472
0.49732715 0.093466699 0.033377104
0.49735394 0.094347432 0.033371739
0.4973807 0.095228173 0.033366371
0.49825066 0.095973521 0.033905845
0.4982774 0.096852668 0.033900488
0.4983041 0.097731814 0.033895131
0.49833083 0.09861096 0.033889774
0.49920061 0.099348336 0.034429327
0.49922729 0.10022588 0.034423977
0.50009686 0.1009585 0.034963533
0.5001235 0.10183445 0.034958195
0.50099295 0.10256229 0.035497773
0.50101948 0.10343666 0.035492443
0.50104606 0.10431103 0.035487115
0.50107265 0.10518539 0.035481788
0.50109923 0.10605976 0.035476457
0.50112581 0.10693412 0.03547113
0.5011524 0.10780849 0.035465803
0.50117898 0.10868286 0.035460476
0.50120556 0.10955723 0.035455145
0.50038975 0.11059406 0.034904815
0.50041634 0.11147001 0.034899477
0.49960071 0.11251163 0.034349114
0.49878511 0.11355642 0.033798702
0.49796966 0.11460441 0.033248298
0.4971543 0.11565557 0.032697879
0.49633902 0.11670992 0.032147437
0.49468178 0.11794107 0.03105187
0.49386674 0.11900339 0.030501384
0.49220988 0.12024568 0.029405784
0.49139506 0.12131596 0.028855212
0.48973852 0.12256941 0.027759543
0.4880822 0.12382922 0.026663834
0.48726776 0.12491225 0.026113186
0.48645344 0.12599845 0.025562555
0.48563924 0.12708783 0.025011897
0.48482516 0.1281804 0.024461227
0.48316956 0.12946571 0.023365332
0.48235568 0.13056625 0.022814607
0.48154193 0.13166997 0.02226387
0.48072824 0.13277687 0.021713106
0.47991464 0.13388698 0.021162296
0.47910115 0.13500026 0.020611495
0.47828779 0.13611671 0.020060679
0.47747451 0.13723636 0.019509837
0.47666126 0.13835922 0.01895895
0.47500706 0.1396891 0.017862815
0.47503519 0.14061444 0.017857177
0.47338128 0.14195387 0.016760984
0.49785846 0.092564844 0.032700874
0.49788523 0.093445577 0.032695506
0.49791199 0.094326317 0.032690141
0.49793875 0.095207058 0.032684773
0.49796554 0.096087798 0.032679405
0.49883443 0.09683159 0.033220127
0.49886116 0.097710736 0.03321477
0.4988879 0.098589882 0.03320941
0.49975666 0.099327296 0.033750195
0.49978334 0.10020485 0.033744849
0.5006519 0.1009375 0.034285631
0.50067854 0.10181346 0.034280293
0.50154692 0.10254133 0.034821108
0.5015735 0.10341569 0.034815781
0.50160009 0.10429007 0.03481045
0.50162667 0.10516442 0.034805123
0.50165325 0.10603879 0.034799796
0.50167984 0.10691316 0.034794468
0.50170642 0.10778753 0.034789138
0.50173301 0.1086619 0.03478381
0.50091815 0.1096971 0.034232251
0.50094479 0.11057305 0.034226913
0.50013006 0.11161303 0.033675328
0.49931544 0.11265621 0.033123694
0.49850094 0.11370255 0.032572068
0.49768654 0.11475208 0.032020424
0.49687225 0.1158048 0.031468764
0.49605799 0.11686072 0.030917047
0.49440286 0.11809337 0.029819038
0.49358886 0.11915724 0.029267307
0.49277499 0.1202243 0.02871556
0.49112031 0.1214729 0.027617421
0.48946583 0.12272786 0.026519276
0.48865238 0.12380765 0.025967451
0.4869982 0.12507376 0.024869205
0.48618495 0.12616152 0.024317324
0.48537183 0.12725246 0.02376543
0.48455873 0.12834659 0.023213485
0.48374578 0.12944391 0.022661546
0.48293293 0.13054441 0.022109594
0.48127973 0.13184077 0.021011198
0.48046705 0.13294925 0.020459164
0.47965455 0.13406089 0.019907139
0.47884214 0.13517572 0.0193551
0.47887006 0.13609469 0.019349499
0.47721753 0.13741495 0.018250924
0.47640541 0.13853934 0.017698826
0.47559339 0.13966691 0.017146703
0.47478145 0.14079767 0.016594566
0.47228953 0.14234565 0.014949358
0.49841651 0.092543729 0.032019284
0.49844328 0.093424462 0.032013915
0.49847004 0.094305202 0.032008551
0.49849683 0.095185943 0.032003183
0.49852359 0.096066676 0.031997815
0.4993915 0.096810512 0.032539763
0.49941823 0.097689658 0.032534406
0.49944493 0.098568805 0.032529049
0.50031269 0.099306256 0.033071067
0.50033939 0.10018381 0.033065721
0.50120693 0.1009165 0.033607736
0.50123358 0.10179245 0.033602398
0.50210094 0.10252036 0.034144443
0.50212753 0.10339473 0.034139115
0.50215411 0.1042691 0.034133788
0.5021807 0.10514347 0.034128461
0.50220728 0.10601783 0.03412313
0.50223386 0.1068922 0.034117803
0.50226045 0.10776657 0.034112476
0.50144655 0.10880013 0.033559695
0.50147319 0.1096761 0.033554357
0.50065947 0.11071444 0.03300155
0.49984577 0.11175598 0.03244869
0.49987248 0.11263513 0.03244333
0.49905899 0.11368144 0.031890474
0.4982456 0.11473093 0.031337596
0.49659213 0.11595396 0.030237151
0.49577901 0.11701143 0.029684227
0.49412593 0.1182456 0.028583743
0.49331301 0.11931102 0.02803077
0.49166024 0.12055636 0.026930191
0.49084759 0.12162974 0.026377164
0.48919517 0.12288622 0.025276549
0.4883827 0.12396758 0.024723448
0.48757038 0.12505211 0.024170352
0.48591846 0.1263245 0.023069641
0.48510635 0.12741701 0.02251647
0.48429435 0.1285127 0.021963309
0.48348245 0.12961157 0.021410134
0.48267066 0.13071363 0.020856937
0.48185897 0.13181885 0.020303724
0.48104733 0.13292728 0.019750452
0.48023582 0.1340389 0.019197198
0.47942442 0.1351537 0.018643925
0.47777382 0.13647069 0.017542902
0.47780183 0.13739285 0.017537285
0.47615156 0.13871939 0.016436242
0.4753406 0.13984852 0.015882881
0.46949533 0.14221318 0.012043039
0.46616781 0.14397918 0.0098463213
0.44944695 0.15007143 -0.0011205513
0.49889424 0.089880399 0.03135379
0.49892104 0.09076114 0.031348422
0.4989478 0.091641873 0.031343058
0.49897456 0.092522606 0.03133769
0.49900132 0.093403347 0.031332321
0.49902812 0.094284087 0.031326957
0.49905488 0.095164828 0.031321589
0.49908164 0.096045561 0.031316221
0.49994853 0.096789435 0.031859402
0.49997526 0.097668581 0.031854045
0.50000197 0.098547727 0.031848688
0.50086874 0.099285215 0.032391939
0.50089538 0.10016277 0.032386594
0.50176197 0.1008955 0.032929841
0.50178856 0.10177145 0.032924503
0.50265497 0.1024994 0.033467781
0.50268155 0.10337377 0.033462454
0.50270814 0.10424814 0.033457123
0.50273472 0.1051225 0.033451796
0.5027613 0.10599687 0.033446468
0.50278789 0.10687123 0.033441141
0.50281447 0.1077456 0.03343581
0.50200158 0.10877912 0.0328818
0.50118881 0.10981584 0.032327771
0.50121546 0.1106934 0.032322422
0.50040281 0.1117349 0.031768329
0.49959028 0.11277958 0.031214248
0.49877787 0.11382744 0.030660151
0.49796551 0.1148785 0.030106032
0.49631414 0.11610305 0.02900311
0.49550202 0.11716206 0.028448943
0.49469003 0.11822426 0.027894758
0.49303913 0.11946474 0.026791736
0.49222738 0.1205349 0.026237503
0.49057686 0.12178652 0.025134446
0.48976535 0.12286465 0.024580164
0.48811513 0.12412743 0.02347701
0.48730385 0.12521352 0.022922678
0.48649266 0.12630278 0.022368327
0.48484293 0.12758149 0.021265071
0.48403201 0.12867872 0.020710671
0.48322117 0.12977915 0.020156253
0.48241043 0.13088275 0.019601814
0.48159975 0.13198955 0.019047325
0.48078918 0.13309954 0.018492848
0.47997874 0.13421269 0.017938351
0.47916842 0.13532905 0.017383836
0.47835809 0.13644859 0.016829263
0.47754794 0.13757131 0.016274709
0.47589976 0.13889937 0.01517119
0.47341362 0.14043757 0.013518644
0.46841365 0.14260139 0.010219143
0.49947909 0.090740018 0.03066683
0.49950585 0.091620758 0.030661462
0.49953264 0.092501491 0.030656096
0.4995594 0.093382232 0.030650727
0.49958616 0.094262972 0.030645361
0.49961293 0.095143706 0.030639995
0.50047886 0.095889211 0.031184398
0.50050557 0.096768357 0.031179041
0.50053233 0.097647503 0.031173684
0.50139809 0.098386623 0.031718161
0.50142479 0.099264182 0.031712815
0.50145143 0.10014173 0.031707466
0.50231701 0.1008745 0.032251943
0.5023436 0.10175045 0.032246608
0.50320899 0.10247844 0.032791115
0.50323558 0.1033528 0.032785788
0.50326216 0.10422718 0.032780461
0.50328875 0.10510154 0.032775134
0.50331533 0.1059759 0.032769803
0.50334191 0.10685027 0.032764476
0.50252998 0.10788217 0.03220924
0.50255662 0.10875813 0.032203905
0.50174487 0.10979481 0.031648643
0.50093311 0.11083468 0.031093324
0.50012159 0.11187772 0.030538023
0.49931011 0.11292396 0.029982703
0.49849874 0.11397338 0.029427361
0.4976874 0.115026 0.028871965
0.49687621 0.11608177 0.028316587
0.4952271 0.11731263 0.027211193
0.49441615 0.11837637 0.026655765
0.4927673 0.11961837 0.02555027
0.49195662 0.12069009 0.024994794
0.49030817 0.12194322 0.023889264
0.48949766 0.12302291 0.023333706
0.48868731 0.12410577 0.022778161
0.48703933 0.12537484 0.021672534
0.48622918 0.12646568 0.021116909
0.48541915 0.12755969 0.020561295
0.48460922 0.12865688 0.020005666
0.48296189 0.12994665 0.018899912
0.48215216 0.13105184 0.018344199
0.48134258 0.13216017 0.0177885
0.48053309 0.13327171 0.017232779
0.47972369 0.13438642 0.016677039
0.47975168 0.13530698 0.01667143
0.47810516 0.13662541 0.01556547
0.47729608 0.1377497 0.015009672
0.47564995 0.13907929 0.013903677
0.47065559 0.14123012 0.010596827
0.46649891 0.14319476 0.0078400886
0.50003713 0.090718903 0.029985238
0.5000639 0.091599643 0.029979872
0.50009066 0.092480376 0.029974503
0.50011748 0.093361117 0.029969137
0.50014424 0.094241858 0.029963771
0.50100917 0.094988987 0.030509396
0.50103593 0.095868133 0.030504037
0.50106263 0.096747279 0.03049868
0.50108933 0.097626425 0.030493323
0.50195414 0.098365583 0.031039031
0.50198084 0.099243142 0.031033684
0.50284541 0.099977531 0.031579386
0.50287199 0.1008535 0.031574052
0.50289863 0.10172945 0.031568713
0.50292528 0.10260541 0.031563375
0.5037896 0.10333184 0.032109126
0.50381619 0.10420621 0.032103799
0.50384277 0.10508057 0.032098472
0.50386935 0.10595495 0.032093145
0.50305837 0.10698521 0.031536687
0.50308502 0.10786117 0.031531349
0.50227422 0.10889621 0.030974859
0.50146347 0.10993446 0.030418321
0.50149018 0.1108136 0.030412965
0.50067961 0.11185661 0.02985643
0.49903193 0.11306827 0.028748687
0.49822158 0.11411925 0.028192073
0.49741134 0.11517341 0.027635468
0.49660122 0.11623074 0.027078846
0.49495417 0.1174631 0.025970979
0.49414423 0.11852841 0.025414275
0.4924975 0.11977193 0.02430634
0.49168786 0.1208452 0.02374962
0.49087834 0.12192164 0.023192883
0.48923203 0.1231811 0.022084815
0.48842275 0.12426551 0.021528026
0.48761353 0.12535311 0.020971222
0.48596773 0.12662847 0.019863058
0.48515877 0.12772405 0.019306201
0.48434991 0.1288228 0.018749328
0.48354113 0.12992473 0.018192433
0.48273242 0.13102987 0.017635487
0.48192385 0.13213818 0.017078556
0.48111537 0.13324967 0.016521603
0.48030698 0.13436435 0.015964629
0.4786624 0.13567953 0.014856226
0.47785425 0.13680217 0.014299205
0.47621006 0.1381285 0.013190762
0.47456598 0.1394612 0.012082254
0.50059521 0.090697788 0.029303644
0.50062197 0.091578521 0.029298278
0.50064874 0.092459261 0.029292909
0.5006755 0.093340002 0.029287543
0.50153953 0.09408877 0.029834392
0.50072902 0.095101476 0.029276809
0.50159299 0.095847055 0.029823676
0.5016197 0.096726201 0.029818319
0.5016464 0.097605348 0.029812962
0.50251019 0.098344542 0.030359903
0.50253683 0.099222101 0.030354556
0.50340044 0.099956527 0.030901492
0.50342703 0.10083249 0.030896153
0.50345367 0.10170845 0.030890815
0.50348032 0.10258441 0.030885478
0.50434363 0.10331088 0.031432465
0.50437021 0.10418525 0.031427138
0.5043968 0.10505961 0.031421807
0.50358683 0.10608826 0.030864127
0.50361341 0.10696421 0.030858789
0.50364006 0.10784017 0.03085345
0.50283027 0.10887517 0.030295733
0.50202054 0.10991338 0.029737961
0.50121093 0.11095475 0.029180204
0.50040144 0.11199933 0.028622428
0.49959201 0.11304708 0.028064629
0.49794647 0.11426502 0.026954351
0.49713731 0.11532074 0.026396506
0.49632826 0.11637963 0.025838643
0.49551928 0.11744172 0.025280757
0.4938744 0.11868038 0.024170352
0.49306566 0.11975043 0.023612421
0.49142116 0.12100023 0.022501981
0.49061263 0.12207825 0.021943966
0.48896843 0.1233392 0.020833461
0.48816019 0.12442516 0.020275429
0.48735201 0.12551433 0.019717349
0.48570833 0.12679121 0.018606743
0.48490041 0.12788834 0.018048646
0.48409259 0.12898862 0.017490529
0.48328486 0.13009214 0.016932361
0.48247725 0.13119882 0.016374202
0.48166972 0.13230868 0.015816029
0.48086229 0.13342173 0.015257833
0.48005491 0.13453797 0.014699588
0.47924772 0.13565738 0.014141352
0.47760537 0.13697885 0.013030478
0.47596318 0.13830671 0.01191953
0.472651 0.14004502 0.0097032879
0.46766901 0.14220336 0.0063815974
0.50029004 0.089919902 0.028074017
0.50115323 0.090676673 0.02862205
0.50118005 0.091557406 0.028616684
0.50120682 0.092438146 0.028611315
0.50123358 0.093318887 0.028605949
0.50126034 0.09419962 0.028600583
0.5021233 0.094946831 0.029148674
0.50215 0.095825978 0.029143317
0.50217676 0.096705124 0.029137958
0.50220346 0.09758427 0.029132601
0.50306624 0.098323509 0.029680775
0.50309289 0.099201061 0.029675428
0.50395548 0.099935524 0.030223597
0.50398207 0.1008115 0.030218259
0.50400871 0.10168745 0.030212922
0.50487107 0.10241555 0.030761128
0.50489765 0.10328992 0.030755801
0.50492424 0.10416429 0.030750472
0.50411522 0.10519128 0.030191571
0.50414181 0.10606726 0.030186232
0.50416845 0.1069432 0.030180894
0.50335962 0.10797659 0.029621953
0.50255084 0.10901316 0.029062957
0.50174218 0.11005291 0.028503977
0.50093365 0.11109583 0.027944976
0.50012523 0.11214195 0.027385958
0.49931684 0.11319127 0.026826886
0.49850857 0.11424376 0.026267828
0.4968653 0.115468 0.025155077
0.4960573 0.11652845 0.02459597
0.49441433 0.11776385 0.023483122
0.49360657 0.11883226 0.022923967
0.49279889 0.11990386 0.022364791
0.4911564 0.12115519 0.021251842
0.49034896 0.12223475 0.02069262
0.48954165 0.12331751 0.020133378
0.48789963 0.12458476 0.019020334
0.48709252 0.12567547 0.018461041
0.48628554 0.12676936 0.01790173
0.48464409 0.12805253 0.016788622
0.48383728 0.1291544 0.016229231
0.48303062 0.13025945 0.015669852
0.48222408 0.13136768 0.015110455
0.4814176 0.1324791 0.014551035
0.48061121 0.13359372 0.013991566
