# .PCD v0.7 - Point Cloud Data file format
VERSION 0.7
FIELDS x y z
SIZE 4 4 4
TYPE F F F
COUNT 1 1 1
WIDTH 1379
HEIGHT 1
VIEWPOINT 0 0 0 1 0 0 0
POINTS 1379
DATA ascii
0.59581453 0.052384473 0.071300134
0.59665024 0.053033855 0.071878411
0.59667206 0.053752143 0.07187403
0.59750772 0.054396741 0.072452351
0.59752947 0.055113435 0.072447985
0.59836489 0.055753261 0.073026314
0.59838665 0.056468364 0.073021956
0.59922194 0.05710341 0.073600337
0.59924364 0.057816919 0.073595986
0.60007882 0.058447186 0.074174382
0.60010046 0.059159104 0.074170038
0.60093546 0.059784591 0.074748479
0.60095704 0.060494918 0.07474415
0.60097867 0.061205242 0.074739821
0.600187 0.062006772 0.074152686
0.60020864 0.062718689 0.074148349
0.60023028 0.0634306 0.074144013
0.59943885 0.064238504 0.073556855
0.59946054 0.064952008 0.073552512
0.59866923 0.065764688 0.072965309
0.59869093 0.066479787 0.07296095
0.59789979 0.067297243 0.07237374
0.59792161 0.068013936 0.072369374
0.59713054 0.068836175 0.071782112
0.59715241 0.069554463 0.071777739
0.59636152 0.07038147 0.071190462
0.59638339 0.071101345 0.071186081
0.59559274 0.071933135 0.070598781
0.59561461 0.072654605 0.070594385
0.59482408 0.073491178 0.070007034
0.59532619 0.048107248 0.07018552
0.59616125 0.048767813 0.070764959
0.59537005 0.049550194 0.070176728
0.596205 0.050207574 0.07075619
0.59622687 0.050927453 0.070751801
0.59706169 0.05158006 0.071331285
0.59627062 0.052367214 0.070743024
0.59710538 0.053016633 0.071322531
0.5971272 0.053734921 0.071318157
0.59796178 0.05437956 0.071897708
0.5979836 0.055096254 0.071893342
0.598818 0.055736117 0.072472908
0.59883976 0.05645122 0.072468549
0.59967405 0.057086304 0.073048159
0.59969574 0.057799812 0.073043808
0.60052991 0.058430117 0.073623434
0.60055155 0.059142038 0.073619097
0.60138553 0.059767563 0.074198768
0.60140717 0.060477886 0.074194439
0.60142875 0.06118821 0.07419011
0.60145032 0.061898533 0.074185781
0.60065973 0.06270162 0.073597401
0.60068136 0.063413538 0.073593065
0.59989095 0.064221397 0.073004678
0.59991264 0.064934902 0.073000334
0.59912235 0.065747544 0.072411895
0.59914404 0.066462643 0.072407544
0.59835392 0.067280062 0.071819097
0.59756386 0.068100661 0.071230613
0.59758568 0.068818949 0.071226239
0.5967958 0.069644332 0.070637748
0.59681767 0.070364207 0.070633359
0.59602791 0.071194366 0.070044838
0.59604985 0.071915835 0.070040442
0.5952602 0.07275077 0.069451869
0.5952822 0.073473841 0.069447465
0.59530419 0.074196905 0.069443054
0.59451479 0.07503821 0.068854466
0.59576142 0.047368478 0.069631577
0.59578335 0.048089951 0.069627181
0.59580523 0.048811421 0.069622785
0.59663928 0.049470436 0.070203461
0.59666115 0.050190315 0.07019908
0.59668303 0.050910193 0.070194691
0.5967049 0.051630076 0.070190303
0.59753865 0.052281123 0.070771031
0.59756052 0.052999411 0.070766658
0.59758234 0.053717699 0.070762277
0.59841591 0.054362375 0.071343064
0.59843773 0.055079069 0.071338698
0.59927112 0.055718973 0.071919493
0.60010445 0.056355689 0.072500326
0.60012615 0.057069197 0.072495982
0.60095936 0.057701133 0.073076822
0.600981 0.058413051 0.073072486
0.60181403 0.059040207 0.073653378
0.60183561 0.059750531 0.073649049
0.60185724 0.060460858 0.07364472
0.60187882 0.061171181 0.073640391
0.6019004 0.061881501 0.073636062
0.60111082 0.062684551 0.073046461
0.60113245 0.063396469 0.073042117
0.60034305 0.064204291 0.0724525
0.60036474 0.064917795 0.072448149
0.5995754 0.0657304 0.071858488
0.59878623 0.066546187 0.071268819
0.59880805 0.067262873 0.071264453
0.598019 0.068083443 0.07067474
0.59804082 0.068801731 0.070670359
0.59725195 0.069627069 0.070080638
0.59646314 0.070455596 0.069490887
0.59648508 0.071177065 0.069486491
0.59569639 0.072010376 0.068896703
0.59571838 0.07273344 0.0688923
0.59574038 0.073456503 0.068887889
0.59576231 0.074179567 0.068883486
0.59497392 0.075020835 0.068293661
0.59418559 0.075865291 0.067703798
0.59621853 0.047351182 0.069073237
0.59624046 0.048072655 0.069068842
0.5962624 0.048794124 0.069064446
0.59709537 0.049453177 0.069646358
0.59711725 0.050173055 0.06964197
0.59713918 0.050892934 0.069637582
0.59716105 0.051612817 0.069633201
0.59799379 0.052263904 0.070215158
0.59801561 0.052982192 0.070210785
0.59803748 0.053700481 0.070206404
0.59887004 0.054345194 0.070788421
0.59889179 0.055061888 0.070784055
0.59972423 0.055701826 0.071366087
0.60055655 0.056338582 0.071948156
0.60057825 0.057052091 0.071943805
0.60141045 0.057684068 0.072525881
0.60143209 0.058395982 0.072521545
0.60226411 0.059023179 0.073103666
0.60228568 0.059733503 0.073099338
0.60230732 0.060443826 0.073095009
0.6023289 0.061154149 0.07309068
0.60235047 0.061864473 0.073086351
0.6015619 0.062667482 0.072495513
0.60158354 0.063379399 0.072491176
0.60079515 0.064187184 0.071900323
0.60081685 0.064900689 0.071895979
0.60002851 0.065713249 0.071305081
0.59924036 0.066528998 0.070714176
0.59926218 0.067245692 0.07070981
0.59847409 0.068066217 0.070118867
0.59768617 0.068889931 0.069527917
0.59689838 0.069716826 0.068936951
0.59692025 0.070438296 0.068932556
0.59694219 0.071159773 0.068928152
0.59615457 0.071993038 0.068337135
0.59617651 0.072716102 0.068332724
0.59538907 0.073554143 0.067741692
0.59541106 0.074278802 0.067737274
0.59543312 0.07500346 0.067732856
0.5946458 0.075847879 0.067141764
0.59667569 0.047333881 0.068514898
0.59669763 0.048055355 0.068510503
0.59671956 0.048776828 0.068506107
0.59755152 0.049435917 0.069089249
0.5975734 0.050155796 0.069084868
0.59759527 0.050875679 0.069080479
0.59761715 0.051595557 0.069076091
0.59844893 0.052246682 0.069659285
0.59847075 0.05296497 0.069654904
0.59849256 0.053683259 0.069650531
0.59932417 0.054328009 0.070233777
0.60015559 0.054969583 0.070817031
0.60017735 0.055684682 0.070812672
0.60100865 0.056321476 0.071395978
0.60103035 0.057034984 0.071391627
0.60186154 0.057666998 0.071974941
0.6026926 0.058295824 0.072558284
0.60271418 0.059006147 0.072553955
0.60273582 0.059716471 0.072549626
0.60275739 0.060426798 0.072545297
0.60277897 0.061137121 0.072540969
0.60280055 0.061847445 0.07253664
0.60201299 0.062650412 0.071944572
0.60203463 0.06336233 0.071940228
0.60124725 0.064170077 0.071348146
0.60045993 0.064981006 0.070756026
0.60048163 0.065696105 0.070751667
0.59969449 0.066511817 0.070159532
0.59890741 0.067330711 0.069567367
0.59812045 0.068152793 0.068975195
0.59814233 0.068872675 0.068970807
0.59735548 0.069699526 0.068378605
0.59737742 0.070421003 0.068374209
0.5965907 0.071252637 0.067781962
0.59661269 0.071975701 0.067777559
0.59582615 0.07281211 0.067185298
0.5958482 0.073536769 0.067180887
0.59506178 0.074377961 0.066588581
0.59508389 0.075104214 0.066584155
0.59510595 0.075830467 0.066579729
0.59711087 0.046595111 0.067960955
0.5971328 0.047316585 0.067956559
0.59715474 0.048038058 0.067952164
0.5979858 0.048698779 0.068536527
0.59719861 0.049481004 0.067943372
0.59802955 0.050138537 0.068527758
0.59805143 0.050858419 0.06852337
0.5980733 0.051578298 0.068518981
0.59890401 0.05222946 0.069103412
0.59892589 0.052947748 0.069099031
0.59975648 0.053594135 0.069683507
0.59977829 0.054310828 0.069679141
0.60060871 0.054952439 0.070263624
0.60143906 0.055590857 0.070848145
0.60146075 0.056304369 0.070843801
0.60229099 0.056938015 0.071428329
0.60231262 0.057649929 0.071423993
0.60314268 0.058278795 0.072008573
0.60316426 0.058989119 0.072004244
0.60318589 0.059699442 0.071999915
0.60320747 0.060409766 0.071995586
0.60322905 0.061120089 0.071991257
0.60325062 0.061830413 0.071986929
0.60246408 0.06263335 0.071393624
0.60167766 0.063439459 0.070800319
0.60169935 0.064152971 0.070795968
0.60091299 0.064963862 0.070202619
0.6001268 0.065777943 0.069609262
0.60014862 0.066494636 0.069604896
0.59936249 0.067313492 0.069011495
0.59857655 0.06813553 0.068418086
0.59779072 0.068960764 0.067824662
0.59781265 0.069682233 0.067820266
0.59702688 0.070512235 0.067226797
0.5962413 0.071345426 0.066633329
0.59626329 0.072070085 0.066628911
0.59547782 0.072908051 0.06603539
0.59549987 0.073634304 0.066030964
0.59552199 0.074360549 0.066026539
0.59554404 0.075086802 0.066022113
0.59475881 0.075932734 0.065428562
0.59756804 0.046577815 0.067402616
0.59758997 0.047299288 0.06739822
0.5976119 0.048020761 0.067393824
0.59763384 0.048742231 0.067389429
0.59846377 0.049401399 0.067975037
0.59848565 0.050121278 0.067970648
0.59850758 0.05084116 0.067966267
0.59933734 0.051493954 0.068551913
0.59935915 0.052212242 0.068547532
0.59938097 0.052930526 0.068543158
0.60021061 0.05357695 0.069128864
0.60023236 0.054293644 0.069124497
0.60106182 0.054935291 0.069710217
0.60189116 0.05557375 0.070295967
0.60191286 0.056287263 0.070291623
0.60274208 0.056920946 0.070877388
0.60357118 0.05755144 0.07146319
0.60359275 0.058261763 0.071458861
0.60361433 0.058972087 0.071454532
0.60363597 0.05968241 0.071450204
0.60365754 0.060392737 0.071445875
0.60367912 0.061103061 0.071441546
0.6037007 0.061813384 0.071437217
0.60291517 0.062616281 0.070842683
0.60212976 0.063422352 0.070248142
0.60215145 0.064135864 0.070243791
0.6013661 0.064946719 0.069649205
0.60058093 0.065760754 0.069054618
0.59979582 0.066577986 0.068459995
0.59901083 0.067398392 0.067865372
0.59822595 0.068221986 0.067270719
0.59824783 0.068943463 0.067266323
0.59746307 0.069771834 0.066671632
0.59667844 0.070603393 0.066076942
0.59670043 0.071328051 0.066072524
0.59591591 0.072164394 0.065477781
0.59593797 0.072890639 0.065473355
0.59515363 0.07373175 0.064878605
0.59517574 0.074459597 0.064874165
0.59519786 0.075187437 0.064869732
0.5944137 0.076034926 0.064274922
0.5980252 0.046560518 0.066844277
0.59804714 0.047281992 0.066839881
0.59806901 0.048003465 0.066835485
0.59889805 0.048664261 0.067422315
0.59891993 0.049384139 0.067417927
0.5989418 0.050104018 0.067413546
0.59896368 0.050823901 0.067409158
0.59979248 0.051476732 0.06799604
0.5998143 0.05219502 0.067991659
0.59983611 0.052913308 0.067987286
0.60066473 0.053559769 0.06857422
0.60068649 0.054276463 0.068569854
0.60151494 0.054918148 0.069156803
0.60234326 0.055556644 0.06974379
0.60236496 0.056270156 0.069739446
0.60319316 0.056903876 0.07032644
0.60402125 0.057534412 0.070913479
0.60404283 0.058244735 0.07090915
0.60406446 0.058955058 0.070904821
0.60408604 0.059665382 0.070900492
0.60410762 0.060375705 0.070896164
0.6041292 0.061086029 0.070891835
0.60334462 0.06188729 0.070296079
0.60336626 0.062599212 0.070291735
0.60258186 0.063405246 0.069695964
0.60179746 0.064214475 0.069100156
0.60101324 0.065026879 0.068504348
0.60103506 0.065743573 0.068499975
0.60025096 0.06656076 0.067904122
0.59946698 0.067381129 0.067308262
0.59868306 0.068204686 0.066712387
0.59789926 0.06903144 0.066116467
0.59792125 0.069754496 0.066112064
0.59713757 0.070586018 0.065516137
0.59635401 0.071420729 0.064920172
0.59637606 0.072146982 0.064915746
0.59559268 0.072986461 0.064319767
0.59561479 0.073714301 0.064315334
0.59483153 0.074558564 0.06371931
0.5948537 0.075288005 0.063714869
0.59487587 0.076017439 0.063710421
0.59763211 0.045152951 0.065702297
0.5976541 0.045876015 0.065697894
0.59848231 0.046543218 0.066285938
0.59850425 0.047264691 0.066281542
0.59852618 0.047986165 0.066277139
0.59854811 0.048707638 0.066272743
0.59937608 0.04936688 0.066860825
0.59939796 0.050086759 0.066856436
0.59941983 0.050806642 0.066852048
0.60024756 0.051459514 0.067440167
0.60026944 0.052177798 0.067435786
0.60109705 0.05282589 0.06802395
0.6011188 0.053542584 0.068019576
0.60194629 0.054185901 0.068607755
0.60196805 0.054901004 0.068603396
0.60279536 0.055539537 0.069191612
0.60362262 0.056174893 0.069779836
0.60364425 0.056886807 0.069775499
0.60447133 0.05751738 0.070363767
0.6044929 0.058227703 0.070359439
0.60451454 0.058938026 0.07035511
0.60453612 0.05964835 0.070350781
0.60455769 0.060358677 0.070346452
0.60457927 0.061069001 0.070342124
0.60379571 0.061870225 0.069745131
0.60301226 0.062674634 0.069148131
0.60303396 0.063388139 0.069143787
0.60225058 0.064197332 0.068546742
0.60146737 0.065009698 0.067949705
0.60068423 0.065825254 0.067352623
0.5999012 0.066643991 0.066755541
0.59992307 0.067363873 0.066751152
0.59914023 0.068187393 0.06615404
0.59835738 0.069014102 0.065556891
0.59757471 0.069843993 0.064959742
0.5967921 0.070677064 0.064362556
0.59681416 0.071403317 0.06435813
0.59603173 0.072241165 0.063760936
0.59524935 0.073082209 0.063163698
0.59527153 0.073811643 0.06315925
0.5952937 0.074541077 0.063154809
0.59531587 0.075270519 0.063150361
0.5945338 0.07611952 0.062553093
0.59809029 0.045135617 0.065142728
0.59811229 0.045858681 0.065138318
0.59893948 0.046525922 0.065727599
0.59896141 0.047247395 0.065723203
0.59898335 0.047968868 0.0657188
0.59900528 0.048690341 0.065714404
0.59983218 0.049349621 0.066303715
0.59985405 0.0500695 0.066299327
0.59987599 0.050789382 0.066294938
0.6007027 0.051442292 0.066884287
0.60072452 0.052160576 0.066879913
0.60155118 0.052808706 0.067469306
0.60157293 0.053525403 0.06746494
0.60239941 0.054168757 0.068054341
0.60322577 0.054808922 0.068643786
0.60324746 0.055522431 0.068639435
0.6040737 0.056157824 0.069228888
0.60409534 0.056869742 0.069224551
0.6049214 0.057500351 0.069814056
0.60494298 0.058210675 0.069809727
0.60496461 0.058920998 0.069805399
0.60498619 0.059631322 0.06980107
0.60500777 0.060341645 0.069796741
0.60422516 0.061141238 0.069198526
0.6042468 0.061853155 0.069194183
0.60346437 0.062657528 0.068595961
0.60268199 0.063465081 0.067997694
0.60189968 0.064275816 0.067399427
0.6019215 0.064992517 0.067395061
0.60113937 0.065808028 0.06679675
0.60035735 0.066626735 0.066198431
0.5995754 0.067448623 0.065600097
0.59879357 0.068273701 0.065001726
0.59801185 0.069101959 0.064403355
0.59803391 0.069826618 0.064398937
0.59725225 0.070659652 0.063800521
0.59647077 0.071495876 0.063202098
0.59568936 0.07233528 0.062603638
0.59571153 0.073064722 0.062599197
0.59493029 0.073908903 0.062000725
0.59495252 0.074639931 0.06199627
0.59497476 0.07537096 0.061991815
0.5941937 0.076221518 0.061393306
0.59772211 0.044446219 0.063992687
0.59854841 0.04511828 0.064583153
0.59857041 0.045841344 0.064578749
0.59939659 0.046508625 0.06516926
0.59941852 0.047230098 0.065164864
0.59944046 0.047951572 0.065160468
0.60026646 0.048612483 0.065750994
0.60028833 0.049332362 0.065746605
0.60031021 0.05005224 0.065742224
0.60033208 0.050772123 0.065737836
0.60115784 0.05142507 0.066328414
0.60117966 0.052143358 0.06632404
0.6020053 0.052791525 0.066914663
0.60202706 0.053508218 0.066910297
0.60285252 0.054151613 0.067500934
0.60367787 0.054791816 0.068091609
0.60369956 0.055505324 0.068087257
0.60452479 0.056140754 0.068677947
0.60454643 0.056852672 0.068673611
0.60537148 0.057483319 0.069264345
0.60539311 0.058193643 0.069260016
0.60541469 0.058903966 0.069255687
0.60543627 0.05961429 0.069251359
0.60465461 0.060412254 0.068651915
0.60467625 0.061124172 0.068647578
0.60389477 0.061926909 0.068048127
0.60391647 0.062640421 0.068043783
0.60313505 0.063447937 0.067444287
0.60235381 0.064258635 0.066844784
0.60157263 0.065072522 0.06624525
0.60079157 0.065889597 0.06564571
0.60001063 0.066709854 0.065046154
0.60003257 0.067431323 0.065041758
0.59925175 0.068256363 0.064442158
0.59847099 0.069084585 0.06384255
0.59769034 0.069915995 0.063242912
0.59690982 0.070750579 0.062643267
0.59612942 0.07158836 0.062043585
0.59615159 0.072317794 0.062039137
0.59537131 0.07316035 0.061439443
0.59539354 0.073891379 0.061434992
0.59461337 0.074738711 0.060835268
0.59463567 0.075471334 0.060830805
0.59385562 0.076323442 0.060231037
0.59815925 0.043704189 0.0634363
0.59818131 0.044428848 0.063431889
0.5982033 0.045153506 0.063427471
0.59902859 0.04582401 0.064019173
0.59905052 0.046547074 0.06401477
0.59907252 0.047270138 0.064010359
0.59989762 0.047934275 0.064602122
0.59991956 0.048655745 0.064597726
0.60074449 0.049315102 0.065189503
0.60076636 0.050034981 0.065185115
0.60078824 0.050754864 0.065180726
0.60161299 0.051407848 0.065772541
0.6016348 0.052126136 0.06576816
0.60245937 0.05277434 0.066360019
0.60248119 0.053491037 0.066355653
0.60330564 0.054134466 0.066947527
0.60412997 0.054774709 0.067539431
0.60415167 0.055488218 0.06753508
0.60497588 0.056123685 0.068126999
0.60499752 0.056835603 0.068122663
0.60582155 0.057466291 0.068714626
0.60584319 0.058176614 0.068710305
0.60586476 0.058886938 0.068705976
0.60508406 0.059683267 0.06810531
0.6051057 0.060395185 0.068100974
0.60432518 0.061196294 0.067500301
0.60434687 0.061909802 0.06749595
0.60356647 0.062715687 0.066895232
0.60278618 0.06352476 0.066294514
0.60280794 0.064241454 0.066290148
0.60202777 0.065055303 0.065689377
0.60124773 0.065872334 0.065088607
0.6004678 0.066692553 0.064487815
0.59968793 0.067515962 0.063886993
0.59890813 0.068342552 0.063286163
0.59812844 0.06917233 0.062685296
0.59734893 0.07000529 0.062084429
0.59656942 0.070841439 0.061483525
0.59659159 0.071570873 0.06147908
0.59581226 0.072411798 0.060878165
0.59503305 0.073255904 0.060277231
0.59505534 0.07398852 0.060272764
0.59427619 0.074837409 0.059671786
0.59349722 0.075689487 0.059070799
0.59351957 0.076425292 0.059066318
0.59779394 0.043009903 0.062282577
0.59861845 0.043686815 0.062875494
0.59864044 0.044411473 0.062871084
0.5986625 0.045136131 0.062866665
0.59868449 0.04586079 0.062862247
0.5995087 0.04652974 0.063455194
0.60033286 0.047195505 0.064048178
0.60035473 0.047916975 0.064043783
0.60037667 0.048638448 0.064039387
0.6003986 0.049359921 0.064034991
0.60122246 0.050017722 0.064628005
0.60124439 0.050737604 0.064623617
0.60126626 0.051457483 0.064619236
0.60208994 0.052108914 0.065212287
0.6029135 0.052757159 0.065805376
0.60293531 0.053473853 0.06580101
0.60375875 0.054117322 0.066394113
0.60458207 0.054757603 0.066987254
0.60460377 0.055471111 0.066982903
0.60542697 0.05610662 0.067576058
0.6054486 0.056818534 0.067571722
0.60627168 0.057449259 0.068164915
0.60629326 0.058159582 0.068160586
0.60551351 0.058954284 0.067558706
0.60553515 0.059666201 0.06755437
0.60555679 0.060378116 0.067550026
0.60477728 0.061179187 0.066948123
0.60479897 0.061892696 0.066943772
0.60401958 0.062698543 0.066341825
0.60324025 0.063507579 0.06573987
0.60246104 0.064319797 0.065137878
0.60168201 0.065135196 0.064535886
0.60090297 0.065953784 0.063933872
0.60092491 0.066675261 0.063929476
0.60014606 0.067498624 0.063327417
0.59936732 0.068325177 0.062725358
0.59858865 0.069154918 0.062123258
0.59781009 0.069987841 0.061521158
0.59703159 0.070823953 0.06091902
0.59625328 0.071663238 0.060316883
0.59547496 0.072505713 0.059714727
0.59469682 0.073351383 0.05911253
0.59471911 0.074085593 0.059108056
0.59394109 0.074936032 0.058505852
0.59316313 0.075789668 0.057903606
0.59238529 0.076646477 0.057301365
0.59825414 0.042992491 0.061720543
0.5982762 0.04371874 0.061716117
0.59829825 0.044444993 0.061711691
0.59912163 0.045118757 0.06230586
0.59914368 0.045843415 0.062301446
0.59996688 0.046512403 0.062895626
0.59998882 0.047235467 0.062891215
0.6008119 0.047899678 0.063485444
0.60083383 0.048621152 0.063481048
0.60085577 0.049342625 0.063476652
0.6008777 0.050064094 0.063472256
0.60170048 0.050720345 0.064066514
0.60172236 0.051440224 0.064062126
0.60254502 0.052091692 0.064656414
0.60336763 0.052739974 0.065250739
0.60338938 0.053456672 0.065246366
0.60421181 0.054100178 0.065840706
0.60503417 0.054740496 0.066435076
0.60505587 0.055454005 0.066430733
0.60587806 0.05608955 0.06702511
0.60589969 0.056801468 0.067020774
0.60592133 0.057513382 0.067016438
0.60594296 0.0582253 0.067012101
0.6059646 0.058937218 0.067007758
0.60598624 0.059649132 0.067003421
0.60520768 0.060448568 0.066400297
0.60522938 0.061162081 0.066395946
0.60445094 0.0619663 0.065792769
0.60367262 0.062773697 0.065189593
0.60369438 0.063490398 0.065185227
0.60291618 0.064302579 0.064582005
0.6021381 0.06511794 0.063978776
0.60136014 0.065936491 0.063375533
0.60058224 0.066758223 0.062772252
0.59980446 0.067583144 0.062168967
0.59902674 0.068411253 0.061565649
0.59824914 0.069242544 0.060962327
0.59747159 0.070077024 0.060358968
0.59669423 0.070914686 0.059755605
0.59591693 0.071755536 0.059152223
0.59513968 0.072599567 0.058548804
0.59516203 0.073333777 0.05854433
0.59438497 0.074182592 0.057940904
0.59360796 0.075034589 0.057337437
0.59283108 0.075889766 0.05673397
0.59205431 0.07674814 0.056130465
0.59207684 0.07748872 0.05612595
0.48758456 0.099980086 -0.02238372
0.59869224 0.042248826 0.06116293
0.59871429 0.042975079 0.061158504
0.59873635 0.043701328 0.061154079
0.59875846 0.044427581 0.061149653
0.59958082 0.045101386 0.061745055
0.59960282 0.04582604 0.061740641
0.59962487 0.046550699 0.061736222
0.600447 0.047218133 0.062331647
0.60046893 0.0479412 0.06232724
0.60049093 0.048664264 0.062322833
0.60131294 0.049325325 0.062918313
0.60133481 0.050046798 0.062913917
0.60135674 0.050768271 0.062909521
0.60217851 0.051422965 0.063505016
0.60300016 0.052074473 0.064100541
0.60302198 0.052792761 0.06409616
0.60384351 0.053439487 0.06469173
0.60466492 0.054083034 0.065287292
0.60548627 0.054723389 0.065882899
0.60550797 0.055436898 0.065878555
0.60632914 0.056072481 0.066474169
0.60635078 0.056784399 0.066469833
0.60637242 0.057496317 0.06646549
0.60639405 0.058208231 0.066461153
0.60561639 0.059004445 0.065856814
0.60563809 0.059717953 0.065852463
0.60565978 0.060431462 0.06584812
0.6048823 0.061234049 0.065243721
0.60490406 0.061949152 0.065239362
0.60412675 0.062756516 0.064634949
0.60334951 0.063567072 0.064030506
0.60257238 0.064380802 0.063426055
0.60259426 0.065100677 0.063421667
0.60181731 0.065919191 0.062817194
0.60104036 0.066740893 0.06221268
0.6002636 0.067565769 0.061608162
0.59948689 0.068393841 0.06100361
0.5987103 0.069225095 0.060399055
0.59713519 0.070166133 0.059194326
0.59715742 0.070897162 0.059189871
0.59638113 0.071737967 0.058585256
0.5956049 0.072581962 0.057980608
0.59482884 0.073429145 0.057375956
0.59405279 0.074279509 0.056771263
0.59327686 0.075133055 0.056166574
0.59250104 0.075989798 0.055561848
0.59252357 0.076730385 0.055557333
0.59174788 0.077591896 0.054952595
0.5909723 0.078456596 0.054347835
0.59019685 0.079324476 0.053743038
0.58942145 0.080195546 0.053138241
0.48818603 0.099957332 -0.023118312
0.48901266 0.10077289 -0.022523792
0.4898392 0.10158525 -0.021929255
0.48986796 0.10253129 -0.02193502
0.59833086 0.041549608 0.060004327
0.59915239 0.042231414 0.060600895
0.59917444 0.042957667 0.06059647
0.59919655 0.043683916 0.060592044
0.59921861 0.044410169 0.060587618
0.59924066 0.045136418 0.060583193
0.60006201 0.045808665 0.061179835
0.60008401 0.046533324 0.061175417
0.60010606 0.047257982 0.061171003
0.60092711 0.047923863 0.061767668
0.60094911 0.048646931 0.061763261
0.60097104 0.049369991 0.061758857
0.60179198 0.050029501 0.062355578
0.60181391 0.050750975 0.062351182
0.60263467 0.051405706 0.062947914
0.60345531 0.052057251 0.063544661
0.60347712 0.052775539 0.063540287
0.60429764 0.053422306 0.064137086
0.60511804 0.054065887 0.064733885
0.60513979 0.05478099 0.064729527
0.60596007 0.055419791 0.065326378
0.60598177 0.056133304 0.065322027
0.60680187 0.05676733 0.065918885
0.6068235 0.057479247 0.065914549
0.6060468 0.05827383 0.065308981
0.60606849 0.058987338 0.065304637
0.60609019 0.059700847 0.065300286
0.60531366 0.060501806 0.064694665
0.60533541 0.061216906 0.064690307
0.60455906 0.062022638 0.064084679
0.60458082 0.062739335 0.064080313
0.60380459 0.063549846 0.063474633
0.60302848 0.064363539 0.062868953
0.60225248 0.065180421 0.06226325
0.60147655 0.066000491 0.061657514
0.60070074 0.066823736 0.061051775
0.59992498 0.067650177 0.060445998
0.59914941 0.068479799 0.059840221
0.59837383 0.06931261 0.059234407
0.59759837 0.07014861 0.058628589
0.5968231 0.070987783 0.058022752
0.59604782 0.071830146 0.057416882
0.59527266 0.07267569 0.056811005
0.59449762 0.07352443 0.056205094
0.59452003 0.074261829 0.056200601
0.59294778 0.075231455 0.054993231
0.59297031 0.075972043 0.054988716
0.59219563 0.076831922 0.054382756
0.59142101 0.07769499 0.053776775
0.59064645 0.078561246 0.053170756
0.5906691 0.07930661 0.053166214
0.58989477 0.080177642 0.052560184
0.58912045 0.081051856 0.051954117
0.59879202 0.041532159 0.059441056
0.59881413 0.042260002 0.059436619
0.59963465 0.042940255 0.060034428
0.5996567 0.043666504 0.060030002
0.59967881 0.044392757 0.060025577
0.59970087 0.045119006 0.060021151
0.59972292 0.045845255 0.060016725
0.59974504 0.046571504 0.0600123
0.6005652 0.047240607 0.060610197
0.60058725 0.047965266 0.060605783
0.60060924 0.048689924 0.060601365
0.60142922 0.049352657 0.061199281
0.60145122 0.050075721 0.061194874
0.60227108 0.050733674 0.061792839
0.60229295 0.051455148 0.061788443
0.60391039 0.052040029 0.062988788
0.60393226 0.052758317 0.062984414
0.60475177 0.053405121 0.063582443
0.60557115 0.054048743 0.064180478
0.60559291 0.054763846 0.06417612
0.60641217 0.055402685 0.0647742
0.60643387 0.056116197 0.064769849
0.6064555 0.056829706 0.064765505
0.6064772 0.057543214 0.064761154
0.6064989 0.058256723 0.064756803
0.60652059 0.058970232 0.06475246
0.60574502 0.059769556 0.064145617
0.60576677 0.060484659 0.064141259
0.60499138 0.061288759 0.063534401
0.60501319 0.062005457 0.063530035
0.60423791 0.06281434 0.062923133
0.60346276 0.063626401 0.062316231
0.60348463 0.064346284 0.062311843
0.60270965 0.065163121 0.061704911
0.60193473 0.065983154 0.061097939
0.60115993 0.066806369 0.06049097
0.60038519 0.067632765 0.05988396
0.59961057 0.068462349 0.05927695
0.59803939 0.06940005 0.058067307
0.59726501 0.070237599 0.057460248
0.59649074 0.07107833 0.056853153
0.59571654 0.07192225 0.056246057
0.59494245 0.072769351 0.055638921
0.59416842 0.073619641 0.055031784
0.59339452 0.074473113 0.05442461
0.59341705 0.075213701 0.054420099
0.59264332 0.076071955 0.053812914
0.59186965 0.076933391 0.05320571
0.5910961 0.077798016 0.052598469
0.59111875 0.078543372 0.052593928
0.59034532 0.079412773 0.051986672
0.59036803 0.080159731 0.05198212
0.58959478 0.081033915 0.051374823
0.58882159 0.081911273 0.050767522
0.59925318 0.04151471 0.058877785
0.59927529 0.042242553 0.058873352
0.59929746 0.042970397 0.058868915
0.59931958 0.043698236 0.058864482
0.60013896 0.044375345 0.059463542
0.60016102 0.045101594 0.059459116
0.60018313 0.045827843 0.059454691
0.60020518 0.046554092 0.059450265
0.60022724 0.047280345 0.059445839
0.60104638 0.047947895 0.060044978
0.60106844 0.048672549 0.06004056
0.60109043 0.049397208 0.060036145
0.60190934 0.050058387 0.060635302
0.60272819 0.050716378 0.0612345
0.60275012 0.051437851 0.061230104
0.60356879 0.052091066 0.06182931
0.6043874 0.052741095 0.062428538
0.60520589 0.05338794 0.063027799
0.60602427 0.054031599 0.063627064
0.60604602 0.054746702 0.063622706
0.60686427 0.055385578 0.064222023
0.60688597 0.056099091 0.064217672
0.60690761 0.056812599 0.064213328
0.6069293 0.057526108 0.064208977
0.606951 0.058239616 0.064204633
0.60617644 0.059037313 0.063596562
0.60619813 0.059752412 0.063592203
0.60542369 0.060554884 0.062984124
0.6054455 0.061271578 0.062979758
0.60467118 0.062078826 0.062371634
0.60469306 0.062797114 0.062367257
0.60391891 0.063609146 0.061759122
0.60314488 0.064424358 0.061150968
0.60237092 0.065242752 0.060542773
0.60159707 0.066064335 0.059934579
0.60082328 0.066889107 0.059326351
0.60004961 0.067717053 0.058718115
0.59927607 0.068548203 0.058109846
0.59850258 0.069382526 0.057501573
0.59772921 0.070220031 0.056893282
0.59695596 0.071060732 0.056284953
0.59538728 0.07201428 0.055072751
0.59461421 0.072862931 0.054464392
0.59463668 0.073601924 0.054459888
0.59386379 0.074455358 0.053851482
0.59309101 0.075311981 0.053243075
0.59311354 0.076054163 0.053238552
0.59234095 0.076915555 0.052630115
0.59156835 0.077780142 0.052021641
0.59079593 0.078647912 0.051413164
0.59081864 0.07939487 0.051408615
0.59004629 0.080267422 0.050800093
0.58927411 0.081143148 0.050191566
0.58929694 0.081893288 0.050186995
0.58931971 0.082643434 0.050182424
0.5989179 0.041541591 0.057709806
0.59973651 0.0422251 0.05831008
0.59975863 0.042952944 0.058305647
0.59978074 0.043680787 0.05830121
0.59980285 0.044408631 0.058296777
0.59982497 0.045136474 0.05829234
0.59984708 0.045864318 0.058287904
0.60066533 0.04653668 0.058888227
0.60068744 0.047262933 0.058883801
0.6007095 0.047989186 0.058879375
0.60152757 0.048655175 0.059479758
0.60154963 0.049379833 0.05947534
0.60236752 0.05004105 0.06007573
0.60318536 0.050699081 0.060676161
0.60320729 0.051420555 0.060671765
0.60402495 0.052073807 0.061272204
0.60484248 0.052723877 0.061872661
0.60566002 0.053370755 0.062473159
0.60647738 0.054014456 0.063073657
0.60649908 0.054729559 0.063069299
0.60731637 0.055368472 0.063669845
0.60733801 0.056081984 0.063665494
0.60735971 0.056795493 0.063661151
0.6073814 0.057509001 0.063656799
0.60660779 0.058305062 0.063047513
0.60662949 0.059020169 0.063043155
0.60665125 0.059735268 0.063038796
0.60587782 0.0605377 0.062429484
0.60589963 0.061254393 0.062425118
0.60512632 0.062061604 0.061815761
0.60435313 0.062872007 0.061206404
0.60358006 0.063685589 0.060597025
0.60360199 0.064407058 0.060592629
0.60282904 0.065225415 0.059983201
0.60205621 0.066046961 0.059373777
0.60128343 0.066871695 0.058764312
0.60051078 0.067699604 0.058154847
0.59894353 0.068633966 0.056940295
0.59817117 0.069469847 0.056330781
0.59739882 0.070308909 0.055721227
0.59662664 0.07115116 0.055111676
0.59585446 0.071996599 0.054502085
0.59508246 0.072845213 0.053892493
0.59431052 0.073697023 0.053282864
0.5935387 0.074552007 0.052673236
0.592767 0.07541018 0.052063584
0.59278959 0.076153956 0.052059051
0.59201801 0.077016912 0.051449355
0.59124655 0.07788305 0.050839655
0.5912692 0.078630008 0.050835107
0.59049785 0.079500921 0.050225358
0.59052062 0.080249473 0.050220799
0.5897494 0.081125163 0.049611039
0.58977222 0.081875302 0.049606469
0.58900118 0.082755782 0.048996665
0.59938008 0.041524101 0.057145305
0.59940225 0.042253535 0.057140861
0.59942442 0.042982973 0.057136416
0.6002419 0.043663338 0.057737939
0.60026401 0.044391181 0.057733506
0.60028619 0.045119025 0.057729069
0.6003083 0.045846868 0.057724636
0.60033041 0.046574712 0.057720199
0.60114759 0.047245521 0.058321763
0.60116965 0.047971774 0.058317337
0.60119176 0.048698023 0.058312912
0.60200876 0.049362462 0.058914535
0.60282564 0.050023716 0.059516158
0.60284764 0.05074678 0.059511751
0.6036644 0.051403258 0.060113423
0.60448104 0.052056547 0.060715094
0.60529763 0.052706655 0.061316788
0.60611409 0.053353574 0.061918516
0.60693049 0.053997308 0.062520243
0.60695219 0.054712411 0.062515892
0.60776848 0.055351365 0.063117668
0.60779011 0.056064878 0.063113317
0.60781181 0.056778386 0.063108973
0.60703915 0.057572819 0.062498458
0.60706091 0.058287919 0.062494099
0.60708261 0.059003022 0.062489744
0.60631019 0.059803825 0.06187921
0.60633194 0.060520519 0.06187484
0.60555959 0.061326098 0.061264262
0.60478741 0.062134862 0.060653683
0.60480928 0.062854744 0.060649294
0.60403723 0.063668288 0.060038682
0.60326523 0.064485013 0.059428036
0.60249335 0.065304928 0.058817387
0.60172153 0.06612803 0.0582067
0.60094988 0.066954315 0.057596013
0.60017824 0.067783788 0.056985285
0.59940678 0.068616442 0.056374557
0.59863538 0.069452278 0.055763811
0.59786403 0.070291311 0.055153027
0.59629929 0.07124152 0.053935912
0.59552824 0.072088502 0.053325098
0.59475726 0.072938681 0.052714247
0.59398639 0.07379204 0.052103393
0.59400898 0.074534215 0.05209887
0.59323823 0.075392351 0.05148799
0.59246761 0.076253682 0.050877068
0.5916971 0.077118188 0.050266147
0.59171981 0.077865146 0.050261594
0.59094942 0.078734428 0.049650628
0.59017915 0.079606898 0.049039658
0.59020191 0.080357037 0.049035087
0.58943176 0.081234291 0.048424069
0.58945465 0.081986025 0.048419487
0.58947748 0.082737759 0.048414908
0.59984225 0.041506615 0.056580801
0.59986442 0.042236049 0.056576356
0.5998866 0.042965483 0.056571912
0.59990877 0.043694921 0.056567468
0.59993094 0.044424355 0.056563023
0.60074735 0.045101576 0.057165798
0.60076946 0.045829415 0.057161365
0.60079157 0.046557259 0.057156928
0.60160774 0.047228109 0.057759728
0.60162985 0.047954362 0.057755303
0.60165191 0.048680611 0.057750877
0.60246795 0.049345087 0.05835373
0.60328382 0.050006378 0.058956586
0.60409963 0.050664485 0.059559479
0.60412157 0.051385958 0.059555084
0.60573089 0.051971145 0.060765289
0.60575277 0.052689433 0.060760912
0.60656822 0.053336389 0.061363876
0.60738361 0.053980164 0.061966836
0.6074053 0.054695267 0.061962482
0.60822058 0.055334259 0.062565491
0.60824221 0.056047771 0.062561139
0.60747051 0.056840573 0.061949406
0.60749227 0.057555676 0.061945051
0.60751396 0.058270775 0.061940692
0.6067425 0.059069946 0.061328936
0.60676426 0.05978664 0.061324567
0.60599291 0.060590591 0.060712766
0.60601473 0.061308879 0.060708389
0.60524356 0.062117603 0.060096573
0.6044724 0.062929519 0.059484739
0.60449433 0.063650988 0.059480343
0.60372335 0.064467683 0.058868464
0.60295248 0.06528756 0.058256581
0.60218173 0.066110618 0.057644662
0.60141104 0.066936865 0.057032742
0.59984773 0.06786789 0.055813279
0.59907728 0.068702094 0.055201307
0.59830695 0.069539495 0.054589301
0.59753668 0.070380077 0.053977296
0.59676653 0.07122384 0.053365249
0.5959965 0.072070785 0.052753199
0.59522653 0.072920926 0.052141115
0.59445667 0.073774248 0.051529031
0.59368694 0.074630752 0.050916925
0.59291726 0.075490445 0.050304782
0.59214771 0.076353326 0.049692638
0.59217042 0.077100277 0.049688086
0.59140098 0.077967934 0.049075894
0.59063166 0.078838773 0.048463702
0.59065443 0.079588912 0.048459131
0.58988523 0.080464534 0.047846891
0.58990806 0.081216268 0.047842313
0.58993095 0.081968002 0.04783773
0.58916193 0.082849994 0.047225472
0.59951103 0.04153334 0.055407912
0.6003266 0.042218558 0.056011856
0.60034877 0.042947996 0.056007411
0.60037094 0.043677431 0.056002963
0.60039312 0.044406869 0.055998519
0.60120851 0.045084126 0.05660253
0.60123062 0.045811966 0.056598093
0.60125279 0.04653981 0.05659366
0.60206795 0.047210697 0.05719769
0.60209 0.04793695 0.057193264
0.60211211 0.048663199 0.057188839
0.60292709 0.049327713 0.057792928
0.60374194 0.049989045 0.058397014
0.6045568 0.050647188 0.05900114
0.60537148 0.05130215 0.059605267
0.60618603 0.051953923 0.060209416
0.60620785 0.052672211 0.060205039
0.60702235 0.053319208 0.060809232
0.60783666 0.05396302 0.061413426
0.60785842 0.054678123 0.061409071
0.60788018 0.055393223 0.061404712
0.60790187 0.056108326 0.061400354
0.60792363 0.056823429 0.061395995
0.60794538 0.057538528 0.06139164
0.60717481 0.058336068 0.060778663
0.60719663 0.059052765 0.060774293
0.60721838 0.059769459 0.060769927
0.60644805 0.060573369 0.060156889
0.60567778 0.061380465 0.059543855
0.60569966 0.062100343 0.059539467
0.60492957 0.062912218 0.0589264
0.60415953 0.063727282 0.058313299
0.60338962 0.064545527 0.057700194
0.60261983 0.065366961 0.057087049
0.60185009 0.066191569 0.056473907
0.60108048 0.067019373 0.055860724
0.60031092 0.067850359 0.055247545
0.59954149 0.068684533 0.05463434
0.59877217 0.069521889 0.054021101
0.59721136 0.070468761 0.052799076
0.59644228 0.071314082 0.052185807
0.59567326 0.072162583 0.051572498
0.59490436 0.073014274 0.050959192
0.59413558 0.073869146 0.050345864
0.59336686 0.074727215 0.049732499
0.59259826 0.075588457 0.04911913
0.59262097 0.076335415 0.049114577
0.59185249 0.077201441 0.048501164
0.59108412 0.078070648 0.04788775
0.59110695 0.078820787 0.047883179
0.59033871 0.079694778 0.047269717
0.59036154 0.080446512 0.047265135
0.58959347 0.081325278 0.046651661
0.58961642 0.082078598 0.046647072
0.58963931 0.082831934 0.046642479
0.58887142 0.083717071 0.046028949
0.59997422 0.041515812 0.054842178
0.60078883 0.042201072 0.055447351
0.600811 0.042930506 0.055442907
0.60083318 0.043659944 0.055438463
0.60085535 0.044389378 0.055434018
0.60166973 0.045066673 0.056039259
0.60169184 0.045794517 0.056034826
0.60250604 0.046467032 0.056640077
0.6025281 0.047193285 0.056635652
0.60255021 0.047919538 0.056631226
0.60336423 0.048585679 0.057236537
0.60417813 0.049248643 0.057841849
0.60420012 0.049971707 0.057837442
0.60501391 0.050629891 0.058442801
0.60582757 0.051284891 0.059048161
0.60664117 0.051936705 0.059653543
0.60745466 0.05258533 0.060258958
0.60747647 0.053302024 0.060254592
0.60828978 0.053945877 0.060860019
0.60831153 0.05466098 0.060855661
0.60833329 0.055376079 0.060851302
0.60835499 0.056091182 0.060846947
0.60837674 0.056806281 0.060842589
0.60760719 0.057602189 0.060228389
0.60762894 0.058318883 0.060224019
0.60765076 0.059035581 0.060219653
0.60688132 0.059837863 0.059605394
0.60611206 0.060643326 0.058991134
0.60613394 0.061363205 0.058986746
0.6053648 0.062173449 0.058372457
0.60459572 0.062986881 0.057758134
0.60461771 0.063709944 0.057753727
0.60384881 0.064528152 0.057139389
0.60307997 0.065349549 0.056525014
0.60231125 0.06617412 0.055910639
0.60075194 0.067101799 0.054686263
0.59998345 0.067934342 0.05407184
0.59921509 0.068770073 0.053457376
0.59844679 0.069608986 0.052842911
0.5976786 0.070451081 0.05222841
0.59612 0.071404248 0.051003881
0.59535211 0.072254308 0.050389349
0.59458429 0.073107548 0.049774799
0.59381652 0.073963977 0.049160212
0.59383917 0.074709341 0.049155671
0.59307158 0.075570554 0.048541069
0.59230405 0.076434948 0.047926433
0.59153664 0.077302523 0.047311794
0.59155947 0.078052662 0.047307223
0.59079218 0.078925021 0.046692539
0.59002501 0.079800561 0.046077851
0.5900479 0.080553889 0.046073262
0.59007084 0.081307217 0.046068672
0.59009373 0.082060538 0.046064079
0.5893268 0.08294405 0.045449328
0.6004374 0.041498285 0.05427644
0.60045964 0.042229313 0.054271989
0.60127318 0.04291302 0.054878406
0.60129535 0.043642454 0.054873962
0.60131752 0.044371892 0.054869514
0.60213089 0.045049224 0.055475991
0.602153 0.045777068 0.055471554
0.60296619 0.04644962 0.056078039
0.6029883 0.047175873 0.056073613
0.60380137 0.04784365 0.05668015
0.60382336 0.048568308 0.056675732
0.60463631 0.049231306 0.057282276
0.60544914 0.049891122 0.057888858
0.60626185 0.050547753 0.05849544
0.60628372 0.051267631 0.058491055
0.60709631 0.051919483 0.059097666
0.60790879 0.052568145 0.059704315
0.6079306 0.053284843 0.059699949
0.60874289 0.053928733 0.060306609
0.60876465 0.054643832 0.06030225
0.60878634 0.055358935 0.060297891
0.6088081 0.056074038 0.060293537
0.6080395 0.056868315 0.059678111
0.60806125 0.057585008 0.059673745
0.60808307 0.058301702 0.059669375
0.60731465 0.059102356 0.059053894
0.60733646 0.059820641 0.059049517
0.60656816 0.060626067 0.058434024
0.60579997 0.061434679 0.057818513
0.60582191 0.062156152 0.057814118
0.60505384 0.06296955 0.057198558
0.60428596 0.063786119 0.056582998
0.60351807 0.064605884 0.055967402
0.6027503 0.065428831 0.055351801
0.60198265 0.066254966 0.054736167
0.60121512 0.067084275 0.054120529
0.60044765 0.067916781 0.053504869
0.59889066 0.068855532 0.052277964
0.59812343 0.069696009 0.05166224
0.59735632 0.070539653 0.051046513
0.59658927 0.071386494 0.050430752
0.59582233 0.072236516 0.049814988
0.59505552 0.073089719 0.049199205
0.59428877 0.073946111 0.048583385
0.59352213 0.074805684 0.047967561
0.59275562 0.075668454 0.047351703
0.59198916 0.076534405 0.046735842
0.59201199 0.077284537 0.046731271
0.59124565 0.078155272 0.046115361
0.59047943 0.07902918 0.045499451
0.59050232 0.079782501 0.045494862
0.58973628 0.0806612 0.044878904
0.58975923 0.081416115 0.044874303
0.58978218 0.08217103 0.044869702
0.58901632 0.083056092 0.044253726
0.60090059 0.041480761 0.053710707
0.60092282 0.042211786 0.053706251
0.60094506 0.042942818 0.053701799
0.60175753 0.043624967 0.054309458
0.6017797 0.044354402 0.054305013
0.60259205 0.045031775 0.05491272
0.60261416 0.045759615 0.054908283
0.6034264 0.046432208 0.055516001
0.60344845 0.047158461 0.055511579
0.6042605 0.047826275 0.056119341
0.60507244 0.048490908 0.056727111
0.60588431 0.049152352 0.057334915
0.60590625 0.049873825 0.057330519
0.606718 0.050530493 0.057938334
0.60752958 0.051183976 0.058546167
0.6083411 0.05183427 0.059154041
0.60836291 0.052550964 0.059149675
0.60838467 0.053267658 0.059145305
0.60919601 0.053911585 0.059753198
0.60921776 0.054626688 0.05974884
0.60923946 0.055341788 0.059744485
0.60926121 0.056056894 0.059740126
0.60849363 0.05685113 0.059123468
0.60851538 0.057567824 0.059119102
0.6085372 0.058284517 0.059114736
0.60776973 0.059085134 0.058498021
0.60700244 0.059888929 0.057881307
0.60702431 0.060608808 0.057876918
0.60625714 0.061417382 0.057260174
0.60549003 0.062229142 0.056643393
0.6047231 0.063044086 0.056026611
0.60395616 0.063862219 0.055409789
0.60397822 0.064588472 0.055405363
0.60242265 0.065508038 0.054176107
0.60165608 0.066335723 0.053559247
0.60088962 0.067166597 0.052942365
0.60012317 0.068000652 0.05232545
0.59935689 0.068837889 0.051708531
0.5978021 0.069782943 0.050479122
0.597036 0.070628151 0.049862135
0.59627008 0.071476541 0.049245149
0.59550416 0.07232812 0.04862814
0.59473842 0.073182881 0.048011098
0.59397274 0.074040823 0.047394052
0.59320712 0.074901961 0.046776969
0.59244168 0.075766273 0.046159886
0.59246445 0.07651642 0.046155315
0.59169912 0.077385515 0.045538183
0.59093386 0.078257792 0.044921052
0.59095681 0.07901112 0.044916462
0.59019166 0.07988818 0.044299282
0.5894267 0.080768421 0.043682102
0.58944964 0.081524931 0.04367749
0.58947265 0.08228144 0.043672882
0.60136384 0.041463234 0.053144973
0.60138601 0.042194262 0.053140517
0.60219753 0.042878043 0.053749401
0.6022197 0.043607477 0.053744957
0.60224187 0.044336915 0.053740509
0.60305327 0.045014326 0.054349449
0.60386449 0.045688547 0.054958392
0.60388654 0.046414796 0.054953966
0.60469764 0.047084246 0.055562954
0.6047197 0.047808904 0.05555854
0.60553062 0.048473574 0.056167539
0.60634148 0.049135055 0.056776576
0.60715222 0.049793351 0.057385612
0.6071741 0.050513234 0.057381228
0.60798472 0.051166754 0.057990294
0.60879523 0.051817086 0.058599398
0.60881704 0.052533779 0.058595031
0.6088388 0.053250477 0.058590665
0.60964912 0.053894442 0.059199788
0.60967088 0.054609545 0.059195433
0.60969257 0.055324644 0.059191074
0.60892594 0.056117255 0.058573194
0.60894775 0.056833949 0.058568828
0.60896951 0.057550643 0.058564462
0.60820305 0.058349624 0.057946522
0.60822487 0.059067912 0.057942145
0.60745859 0.05987167 0.057324197
0.60669237 0.060678612 0.056706231
0.60671431 0.061400086 0.056701835
0.60594821 0.062211808 0.056083821
0.60518223 0.063026711 0.055465806
0.60441631 0.063844807 0.054847751
0.60365057 0.064666085 0.054229699
0.60288489 0.065490551 0.053611606
0.60211927 0.066318192 0.052993514
0.60056609 0.067248836 0.051761724
0.59980077 0.068084449 0.051143583
0.5990355 0.068923242 0.050525405
0.59827036 0.069765225 0.049907222
0.59671777 0.070716567 0.048675306
0.59595287 0.071566515 0.048057079
0.59518802 0.072419643 0.047438812
0.59442329 0.073275961 0.046820544
0.59365869 0.074135467 0.046202239
0.5928942 0.074998148 0.045583934
0.59291697 0.075748287 0.045579363
0.5921526 0.076615758 0.044961005
0.59138829 0.077486403 0.044342652
0.59062409 0.078360245 0.043724257
0.58986002 0.07923726 0.043105867
0.58988303 0.07999377 0.043101255
0.58911908 0.080875568 0.042482831
0.58914214 0.081633672 0.042478211
0.58837831 0.082520254 0.041859742
0.58840144 0.083279952 0.041855112
0.60182703 0.041445706 0.052579235
0.60184926 0.042176735 0.052574784
0.60265976 0.042860553 0.053184897
0.60268193 0.043589991 0.053180452
0.60349232 0.044269029 0.053790614
0.60351443 0.044996873 0.053786181
0.60432464 0.045671135 0.054396354
0.60434669 0.046397384 0.054391928
0.60515684 0.047066871 0.055002149
0.60596681 0.047733173 0.05561237
0.60677671 0.048396286 0.056222633
0.60679865 0.049117759 0.056218237
0.60760838 0.049776092 0.056828506
0.60841799 0.050431248 0.057438795
0.60843986 0.051149532 0.057434417
0.60924935 0.051799905 0.058044758
0.60927111 0.052516598 0.058040388
0.60929292 0.053233292 0.058036022
0.60931468 0.053949989 0.058031656
0.6093365 0.054666683 0.058027286
0.60935825 0.055383377 0.05802292
0.60938007 0.05610007 0.058018554
0.60940182 0.056816764 0.058014184
0.60863632 0.057614118 0.057395026
0.60865813 0.058332402 0.057390649
0.60789281 0.059134532 0.05677148
0.60712755 0.059939843 0.056152288
0.60714948 0.060661312 0.056147892
0.6063844 0.061471406 0.055528656
0.60561937 0.062284678 0.054909416
0.60485446 0.06310115 0.054290138
0.60408962 0.063920788 0.053670865
0.60332489 0.064743623 0.053051546
0.60256028 0.065569639 0.052432232
0.60179573 0.066398844 0.051812898
0.6010313 0.06723123 0.051193524
0.59948033 0.068168171 0.049959231
0.59871614 0.069008514 0.049339827
0.59795201 0.069852062 0.048720386
0.597188 0.070698775 0.048100945
0.5964241 0.071548685 0.047481485
0.59487391 0.072511099 0.046247035
0.59411025 0.073368974 0.045627508
0.59413296 0.074117519 0.045622945
0.59336948 0.074980162 0.045003407
0.59260607 0.075846002 0.044383831
0.59184271 0.076715022 0.043764252
0.59107947 0.077587225 0.043144636
0.59031636 0.078462616 0.042525019
0.59033936 0.079219125 0.042520408
0.58957642 0.080099292 0.041900761
0.58881348 0.080982648 0.041281078
0.58805072 0.081869185 0.040661395
0.58807385 0.08263047 0.040656757
0.58731121 0.083521791 0.040037025
0.60229021 0.041428179 0.052013502
0.60231245 0.042159207 0.052009046
0.60312194 0.042843066 0.052620396
0.60314411 0.0435725 0.052615952
0.60395348 0.04425158 0.053227346
0.60397559 0.044979423 0.05322291
0.60478479 0.045653723 0.053834315
0.60559398 0.046324838 0.054445762
0.60561597 0.047049496 0.054441344
0.60642493 0.047715835 0.055052798
0.60723382 0.048378985 0.055664293
0.6080426 0.049038954 0.056275785
0.60806447 0.049758833 0.0562714
0.60887313 0.050414026 0.056882922
0.60889494 0.051132314 0.056878544
0.60970348 0.05178272 0.057490114
0.60972524 0.052499413 0.057485748
0.60974705 0.053216111 0.057481378
0.60976881 0.053932805 0.057477012
0.60979062 0.054649498 0.057472646
0.60981238 0.055366192 0.057468276
0.60983419 0.056082889 0.05746391
0.60906965 0.056878608 0.056843527
0.60909146 0.057596896 0.056839149
0.60832709 0.05839739 0.056218758
0.60834897 0.059117272 0.05621437
0.60758471 0.059922546 0.055593949
0.60682052 0.060731009 0.054973487
0.60684252 0.061454073 0.054969084
0.60607851 0.062267307 0.05434861
0.60531461 0.063083738 0.053728104
0.60455078 0.063903339 0.053107593
0.60378706 0.064726137 0.052487046
0.6022377 0.06564866 0.051250394
0.60147423 0.066479422 0.050629798
0.60071081 0.067313358 0.050009202
0.59994751 0.068150491 0.049388565
0.59839875 0.069093712 0.048151769
0.59763575 0.069938809 0.047531106
0.59687281 0.07078708 0.04691042
0.59610993 0.071638547 0.046289697
0.59534723 0.072493188 0.045668975
0.59458452 0.073351026 0.045048214
0.593822 0.074212037 0.044427451
0.59305954 0.075076245 0.043806653
0.5922972 0.075943634 0.043185852
0.59153491 0.076814212 0.042565014
0.59077275 0.077687971 0.041944172
0.5900107 0.078564905 0.041323315
0.59003371 0.079323016 0.041318696
0.58927178 0.080204733 0.040697787
0.58850998 0.081089646 0.040076882
0.58774823 0.081977732 0.039455935
0.5869866 0.082869016 0.038834989
0.602709 0.039948598 0.051456675
0.60273117 0.040679626 0.051452223
0.6027534 0.041410655 0.051447768
0.60356194 0.042096142 0.05206034
0.60358411 0.042825576 0.052055892
0.60360628 0.043555014 0.052051447
0.60441464 0.044234131 0.052664075
0.60522294 0.044910062 0.053276703
0.60524499 0.045636311 0.053272277
0.60605311 0.046307463 0.053884957
0.60686111 0.046975434 0.054497633
0.60688311 0.047698501 0.054493226
0.60769099 0.048361689 0.055105951
0.60849875 0.049021695 0.055718679
0.60852063 0.049741574 0.055714291
0.60932827 0.050396804 0.056327045
0.60935009 0.051115092 0.056322668
0.61015761 0.051765539 0.056935471
0.61017936 0.052482232 0.056931105
0.61020118 0.053198926 0.056926738
0.61022294 0.053915624 0.056922369
0.61024475 0.054632317 0.056918003
0.61026651 0.055349011 0.056913637
0.60950291 0.056143101 0.056292031
0.60952473 0.056861386 0.056287654
0.60876131 0.057660252 0.055666037
0.60878319 0.058380131 0.055661649
0.60801995 0.059183776 0.055040006
0.60804188 0.05990525 0.05503561
0.6072787 0.060713671 0.054413915
0.60651565 0.061525278 0.053792223
0.60575271 0.06234007 0.053170491
0.60498989 0.06315805 0.052548759
