# .PCD v0.7 - Point Cloud Data file format
VERSION 0.7
FIELDS x y z
SIZE 4 4 4
TYPE F F F
COUNT 1 1 1
WIDTH 1373
HEIGHT 1
VIEWPOINT 0 0 0 1 0 0 0
POINTS 1373
DATA ascii
0.44966036 0.10247546 -0.023369154
0.44969067 0.10347247 -0.02337523
0.55137908 0.012046745 0.048529599
0.55222785 0.012859863 0.049097013
0.55307657 0.013669796 0.049664445
0.55310065 0.014462938 0.04965961
0.55312473 0.015256079 0.049654778
0.55314887 0.016049223 0.049649946
0.55317295 0.016842363 0.049645111
0.55319709 0.017635504 0.049640279
0.55322117 0.018428648 0.049635444
0.55324531 0.019221788 0.049630612
0.55326939 0.020014931 0.04962578
0.55329353 0.020808073 0.049620945
0.55331761 0.021601215 0.049616113
0.55334175 0.022394357 0.049611278
0.55336583 0.023187499 0.049606446
0.55338997 0.02398064 0.049601614
0.55341405 0.024773782 0.049596779
0.55343819 0.025566924 0.049591947
0.55346227 0.026360065 0.049587112
0.55348635 0.027153207 0.04958228
0.55351049 0.027946349 0.049577449
0.55353457 0.028739491 0.049572613
0.55355871 0.029532634 0.049567781
0.55358279 0.030325774 0.049562946
0.55360693 0.031118916 0.049558114
0.55363101 0.031912059 0.049553283
0.55365515 0.032705199 0.049548447
0.55367923 0.033498343 0.049543615
0.55370337 0.034291483 0.04953878
0.55372745 0.035084628 0.049533948
0.55375159 0.035877768 0.049529117
0.55459881 0.036639921 0.050096855
0.55462289 0.037431471 0.050092034
0.55382389 0.038257193 0.049514614
0.55384797 0.039050337 0.049509782
0.55469507 0.039806116 0.050077561
0.55471915 0.040597666 0.050072741
0.55474317 0.041389216 0.050067917
0.55476725 0.042180765 0.050063092
0.55396855 0.043016046 0.049485616
0.55399263 0.043809187 0.049480785
0.55401677 0.044602327 0.049475949
0.55404085 0.045395471 0.049471118
0.55406499 0.046188612 0.049466282
0.55408907 0.046981756 0.04946145
0.55411315 0.047774896 0.049456619
0.55413729 0.048568036 0.049451783
0.55416137 0.049361181 0.049446952
0.55418551 0.050154321 0.049442116
0.55420959 0.050947461 0.049437284
0.55423373 0.051740605 0.049432453
0.55425781 0.052533746 0.049427617
0.55345982 0.053391322 0.048850026
0.5526619 0.054252084 0.048272412
0.5526861 0.05504841 0.048267558
0.55188829 0.055913951 0.047689881
0.5510906 0.056782674 0.047112219
0.54187608 0.0077293948 0.041056201
0.54686832 0.0094994716 0.044487059
0.55105996 0.01200923 0.047339808
0.55190784 0.012823981 0.047908477
0.55275559 0.013635544 0.048477132
0.55277973 0.014430277 0.048472289
0.55362731 0.015237063 0.049040977
0.55365139 0.016030207 0.049036141
0.55367553 0.016823348 0.04903131
0.55369961 0.017616488 0.049026478
0.55372375 0.018409632 0.049021643
0.55374783 0.019202773 0.049016811
0.55377197 0.019995915 0.049011976
0.55379605 0.020789057 0.049007144
0.55382019 0.021582199 0.049002312
0.55384427 0.022375342 0.048997477
0.55386841 0.023168484 0.048992645
0.55389249 0.023961624 0.04898781
0.55391657 0.024754766 0.048982978
0.55394071 0.025547909 0.048978146
0.55396479 0.026341049 0.048973311
0.55398893 0.027134191 0.048968479
0.55401301 0.027927333 0.048963644
0.55403715 0.028720476 0.048958812
0.55406123 0.029513618 0.04895398
0.55408537 0.030306758 0.048949145
0.55410945 0.031099901 0.048944313
0.55413359 0.031893045 0.048939478
0.55415767 0.032686185 0.048934646
0.55418181 0.033479325 0.048929814
0.55420589 0.03427247 0.048924979
0.55423003 0.03506561 0.048920147
0.55425411 0.03585875 0.048915312
0.55427819 0.036651894 0.04891048
0.55430233 0.037445035 0.048905648
0.55432642 0.038238179 0.048900813
0.55435055 0.039031319 0.048895981
0.55437464 0.03982446 0.048891146
0.55439878 0.040617604 0.048886314
0.55442286 0.041410744 0.048881482
0.554447 0.042203888 0.048876647
0.55447108 0.042997029 0.048871815
0.55449522 0.043790173 0.04886698
0.5545193 0.044583313 0.048862148
0.55454344 0.045376454 0.048857316
0.55456752 0.046169598 0.048852481
0.5545916 0.046962738 0.048847649
0.55461574 0.047755882 0.048842814
0.55463982 0.048549023 0.048837982
0.55466396 0.049342163 0.04883315
0.55468804 0.050135303 0.048828315
0.55471218 0.050928447 0.048823483
0.55473626 0.051721592 0.048818648
0.55393922 0.052577533 0.048239831
0.55396336 0.053372268 0.048234988
0.55398756 0.054167002 0.048230145
0.55319071 0.055029318 0.047651291
0.55239385 0.055894822 0.047072381
0.5507763 0.056834273 0.045919452
0.54997981 0.057707738 0.045340527
0.54154503 0.0068663904 0.039855447
0.54239273 0.0077098445 0.04042514
0.54488599 0.0085997758 0.042144254
0.54655617 0.0094569111 0.043288697
0.54822618 0.01030768 0.044433217
0.54989594 0.011152076 0.045577742
0.55074292 0.011971639 0.046147581
0.55158979 0.01278802 0.046717439
0.55325913 0.01361649 0.047862094
0.55328327 0.014411223 0.047857251
0.55330747 0.015205958 0.047852408
0.55333161 0.016000696 0.047847565
0.55335575 0.016795428 0.047842722
0.5542022 0.017597472 0.048412669
0.55422628 0.018390616 0.048407834
0.55425042 0.019183757 0.048403002
0.5542745 0.019976899 0.048398171
0.55429864 0.020770041 0.048393335
0.55432272 0.021563184 0.048388503
0.55434686 0.022356326 0.048383668
0.55437094 0.023149468 0.048378836
0.55439508 0.023942608 0.048374005
0.55441916 0.024735751 0.048369169
0.55444324 0.025528893 0.048364338
0.55446738 0.026322033 0.048359502
0.55449146 0.027115176 0.04835467
0.5545156 0.027908318 0.048349839
0.55453968 0.02870146 0.048345003
0.55456382 0.029494602 0.048340172
0.5545879 0.030287743 0.048335336
0.55461204 0.031080885 0.048330504
0.55463612 0.031874027 0.048325673
0.55466026 0.032667167 0.048320837
0.55468434 0.033460312 0.048316006
0.55470848 0.034253452 0.04831117
0.55473256 0.035046596 0.048306338
0.55475664 0.035839736 0.048301507
0.55478078 0.036632877 0.048296671
0.55480486 0.037426021 0.04829184
0.554829 0.038219161 0.048287004
0.55485308 0.039012305 0.048282173
0.55487722 0.039805446 0.048277341
0.5549013 0.040598586 0.048272505
0.55492544 0.04139173 0.048267674
0.55494952 0.042184871 0.048262838
0.55497366 0.042978015 0.048258007
0.55499774 0.043771155 0.048253175
0.55502188 0.044564296 0.048248339
0.55504596 0.04535744 0.048243508
0.5550701 0.04615058 0.048238672
0.55509418 0.046943724 0.048233841
0.55511826 0.047736865 0.048229009
0.5551424 0.048530005 0.048224173
0.55516648 0.049323149 0.048219342
0.55437034 0.050174277 0.047639322
0.55439448 0.050969012 0.047634479
0.55441862 0.051763747 0.047629636
0.55444276 0.052558482 0.047624793
0.55364686 0.053417571 0.047044724
0.55367106 0.0542139 0.04703987
0.55287522 0.055077773 0.046459738
0.5520795 0.055944826 0.045879621
0.55046397 0.056885794 0.044724219
0.54966855 0.057760812 0.044144053
0.54805332 0.058712937 0.042988546
0.54564321 0.060559183 0.041252758
0.5411911 0.0051814993 0.038657237
0.54206276 0.0068468018 0.039223153
0.54290944 0.0076902942 0.03979408
0.54457784 0.00855547 0.04094094
0.54706782 0.0094375517 0.042663801
0.54958189 0.011112778 0.044381831
0.55042791 0.011933972 0.044952892
0.55209535 0.01276889 0.046099938
0.5529412 0.013582123 0.046671085
0.55378687 0.014392169 0.047242217
0.55381101 0.015186904 0.047237374
0.55383515 0.015981641 0.047232531
0.55385929 0.016776374 0.047227688
0.55388349 0.017571108 0.047222845
0.55390763 0.018365843 0.047218002
0.55393177 0.019160576 0.04721316
0.55395597 0.019955313 0.047208317
0.55398011 0.020750046 0.047203474
0.55400425 0.021544781 0.047198631
0.55402839 0.022339515 0.047193788
0.55405259 0.02313425 0.047188945
0.55407673 0.023928985 0.047184102
0.55410087 0.024723718 0.047179259
0.55412501 0.025518453 0.047174416
0.55414921 0.026313188 0.047169574
0.55417335 0.027107922 0.047164731
0.55419749 0.027902657 0.047159888
0.55422169 0.028697392 0.047155045
0.55424583 0.029492127 0.047150202
0.55426997 0.03028686 0.047145359
0.55429411 0.031081595 0.047140516
0.55431831 0.031876329 0.047135673
0.55434245 0.032671064 0.047130831
0.55436659 0.033465799 0.047125988
0.55439073 0.034260534 0.047121145
0.55441493 0.035055269 0.047116302
0.55443907 0.035850003 0.047111459
0.55446321 0.036644734 0.047106616
0.55448741 0.037439469 0.047101773
0.55451155 0.038234204 0.04709693
0.55453569 0.039028939 0.047092088
0.55455983 0.039823674 0.047087245
0.55540389 0.040579572 0.047658704
0.55542797 0.041372713 0.047653873
0.55545211 0.042165857 0.047649037
0.55547619 0.042958997 0.047644205
0.55550033 0.043752141 0.04763937
0.55552441 0.044545282 0.047634538
0.55554849 0.045338422 0.047629707
0.55475312 0.046181548 0.047048498
0.55477726 0.046976287 0.047043655
0.5548014 0.047771022 0.047038812
0.55482554 0.048565753 0.047033969
0.55484974 0.049360488 0.047029126
0.55487388 0.050155222 0.047024284
0.55489802 0.050949957 0.047019441
0.55492222 0.051744692 0.047014598
0.55412722 0.052602153 0.046433307
0.55415142 0.053398479 0.046428453
0.55335653 0.054260723 0.045847099
0.55256182 0.055126149 0.045265757
0.55176717 0.055994757 0.044684399
0.55097258 0.056866549 0.044103019
0.54935926 0.057813816 0.042945076
0.54856497 0.058693577 0.042363647
0.54777074 0.059576519 0.0417822
0.5461579 0.060539711 0.040624164
0.54454529 0.06150927 0.03946612
0.5408389 0.0034901602 0.037456565
0.54086381 0.0043103769 0.037451565
0.54170978 0.0051618726 0.03802371
0.54173464 0.0059804972 0.038018722
0.54258043 0.0068272133 0.038590863
0.5434261 0.0076707439 0.03916302
0.54509246 0.0085359961 0.04031235
0.54675871 0.0093948785 0.041461751
0.55093551 0.011914765 0.044332925
0.5517804 0.012732817 0.044905242
0.55262518 0.013547679 0.045477577
0.55346996 0.014359358 0.046049964
0.55349416 0.015155685 0.04604511
0.55351835 0.015952013 0.046040259
0.55354255 0.016748341 0.046035405
0.55356675 0.017544666 0.046030551
0.55441117 0.018346788 0.046602964
0.55443537 0.019141523 0.046598122
0.55445951 0.019936258 0.046593279
0.55448365 0.020730993 0.046588436
0.55450779 0.021525728 0.046583593
0.55453199 0.022320462 0.04657875
0.55455613 0.023115197 0.046573907
0.55458027 0.02390993 0.046569064
0.55460447 0.024704665 0.046564221
0.55462861 0.0254994 0.046559379
0.55465275 0.026294135 0.046554536
0.55467689 0.027088869 0.046549693
0.55470109 0.027883602 0.04654485
0.55472523 0.028678337 0.046540007
0.55474937 0.029473072 0.046535164
0.55477357 0.030267807 0.046530321
0.55479771 0.031062542 0.046525478
0.55482185 0.031857274 0.046520635
0.55484599 0.032652009 0.046515793
0.55487019 0.033446744 0.04651095
0.55489433 0.034241479 0.046506107
0.55491847 0.035036214 0.046501264
0.55494261 0.035830949 0.046496421
0.55496681 0.036625683 0.046491578
0.55499095 0.037420418 0.046486735
0.55501509 0.038215153 0.046481892
0.55503929 0.039009888 0.04647705
0.55506343 0.039804619 0.046472207
0.55508757 0.040599354 0.046467364
0.55511171 0.041394088 0.046462521
0.55513591 0.042188823 0.046457678
0.55516005 0.042983558 0.046452835
0.55518419 0.043778293 0.046447992
0.55520833 0.044573028 0.046443149
0.55523252 0.045367762 0.046438307
0.55525666 0.046162497 0.046433464
0.5552808 0.046957232 0.046428621
0.555305 0.047751967 0.046423778
0.55532914 0.048546702 0.046418935
0.55535328 0.049341436 0.046414092
0.55455917 0.050194077 0.045831595
0.55458337 0.050990406 0.045826744
0.55460757 0.051786732 0.04582189
0.55463177 0.052583061 0.04581704
0.55383784 0.05344367 0.04523446
0.55386209 0.05424159 0.045229599
0.5530684 0.055106979 0.044647023
0.55227476 0.055975549 0.044064429
0.55066335 0.056917958 0.04290409
0.54905206 0.057866741 0.041743673
0.54825878 0.058748052 0.041161004
0.54746568 0.059632547 0.040578313
0.54667252 0.060520239 0.03999557
0.54506195 0.06148972 0.03883506
0.54345155 0.062465575 0.037674516
0.54135859 0.0034704953 0.036821805
0.5413835 0.0042907121 0.036816809
0.54222846 0.0051422459 0.037390184
0.54225338 0.0059608705 0.037385195
0.54309815 0.0068076248 0.03795857
0.54394281 0.0076511935 0.038531963
0.54560715 0.0085165221 0.039683752
0.54727137 0.0093754809 0.040835619
0.55062354 0.011876986 0.04313454
0.55146748 0.012696667 0.043708079
0.55313081 0.013528549 0.044860072
0.55315506 0.014326468 0.044855211
0.55399877 0.015136593 0.045428842
0.55402297 0.015932921 0.045423988
0.55404717 0.016729249 0.045419138
0.55407137 0.017525574 0.045414284
0.55409557 0.018321902 0.04540943
0.55411977 0.019118229 0.045404579
0.55414397 0.019914556 0.045399725
0.55416816 0.020710884 0.045394875
0.55419236 0.021507211 0.045390021
0.55421656 0.022303537 0.045385167
0.55424076 0.023099866 0.045380317
0.55426502 0.023896191 0.045375463
0.55428922 0.024692519 0.045370612
0.55431342 0.025488846 0.045365758
0.55433762 0.026285173 0.045360904
0.55436182 0.027081501 0.045356054
0.55438602 0.027877828 0.0453512
0.55441022 0.028674155 0.045346349
0.55443442 0.029470481 0.045341495
0.55445862 0.030266808 0.045336641
0.55448282 0.031063136 0.045331791
0.55450702 0.031859465 0.045326937
0.55453122 0.03265579 0.045322083
0.55455548 0.033452116 0.045317233
0.55457968 0.034248445 0.045312379
0.55460387 0.035044771 0.045307528
0.55462807 0.0358411 0.045302674
0.55465227 0.036637425 0.04529782
0.55467647 0.037433755 0.04529297
0.55470067 0.03823008 0.045288116
0.55472487 0.039026409 0.045283265
0.55474907 0.039822735 0.045278411
0.55477327 0.04061906 0.045273557
0.55479747 0.04141539 0.045268707
0.55482167 0.042211715 0.045263853
0.55484593 0.043008044 0.045259003
0.55487013 0.04380437 0.045254149
0.55489433 0.044600695 0.045249294
0.55491853 0.045397025 0.045244444
0.55494273 0.04619335 0.04523959
0.55496693 0.046989679 0.045234736
0.55499113 0.047786005 0.045229886
0.55501533 0.048582334 0.045225032
0.55503953 0.04937866 0.045220181
0.55506372 0.050174985 0.045215327
0.55508792 0.050971314 0.045210473
0.55429494 0.051828701 0.044626683
0.5543192 0.052626621 0.044621821
0.55434346 0.053424541 0.04461696
0.55355066 0.054288298 0.044033162
0.55275798 0.055155236 0.043449346
0.55196542 0.056025364 0.042865511
0.55035603 0.056969292 0.041702658
0.54956371 0.057847381 0.041118778
0.54877144 0.058728654 0.040534876
0.5479793 0.059613112 0.039950952
0.54718721 0.060500763 0.039366975
0.54557866 0.06147017 0.038204003
0.54478681 0.062365778 0.037620012
0.54399514 0.063264571 0.037036005
0.54187828 0.0034508305 0.036187049
0.54272228 0.0043039965 0.036761649
0.5427472 0.0051226192 0.036756661
0.54277205 0.0059412443 0.036751673
0.54361582 0.0067880363 0.03732628
0.54445946 0.0076316432 0.037900902
0.54612178 0.0084970482 0.039055161
0.54696524 0.0093326932 0.039629869
0.54862726 0.010186953 0.040784191
0.55113214 0.011857742 0.042513341
0.55197507 0.01267746 0.043088112
0.55281788 0.013493991 0.043662902
0.55366063 0.014307338 0.044237711
0.55368489 0.015105258 0.044232849
0.55370915 0.015903179 0.044227984
0.55373341 0.016701099 0.044223122
0.55375767 0.017499018 0.044218261
0.55378187 0.018296938 0.044213399
0.55380613 0.019094858 0.044208538
0.55383039 0.019892778 0.044203673
0.55467272 0.020691792 0.044778604
0.55469698 0.021488119 0.044773754
0.55472118 0.022284446 0.0447689
0.55474538 0.023080774 0.044764046
0.55476958 0.023877099 0.044759195
0.55479378 0.024673427 0.044754341
0.55481797 0.025469754 0.044749491
0.55484217 0.026266081 0.044744637
0.55486637 0.027062409 0.044739783
0.55489057 0.027858736 0.044734932
0.55491477 0.028655063 0.044730078
0.55493897 0.029451389 0.044725228
0.55496323 0.030247716 0.044720374
0.55498743 0.031044044 0.04471552
0.55501163 0.031840373 0.04471067
0.55503583 0.032636698 0.044705816
0.55506003 0.033433024 0.044700962
0.55508423 0.034229353 0.044696111
0.55510843 0.035025679 0.044691257
0.55513263 0.035822008 0.044686407
0.55515683 0.036618333 0.044681553
0.55518103 0.037414663 0.044676699
0.55520523 0.038210988 0.044671848
0.55522943 0.039007317 0.044666994
0.55525368 0.039803643 0.044662144
0.55527788 0.040599968 0.04465729
0.55530208 0.041396298 0.044652436
0.55532628 0.042192623 0.044647586
0.55535048 0.042988952 0.044642732
0.55537468 0.043785278 0.044637881
0.55539888 0.044581603 0.044633027
0.55542308 0.045377932 0.044628173
0.55544728 0.046174258 0.044623323
0.55547148 0.046970587 0.044618469
0.55549568 0.047766913 0.044613618
0.55551994 0.048563242 0.044608764
0.55472773 0.049415812 0.044023767
0.55475199 0.050213732 0.044018906
0.55477625 0.051011652 0.044014044
0.55480051 0.051809572 0.044009183
0.55482477 0.052607492 0.044004321
0.55403298 0.053469617 0.043419302
0.55405724 0.054269131 0.043414429
0.55326563 0.055136032 0.042829379
0.55165809 0.0560751 0.041664127
0.55086666 0.056949969 0.041078996
0.55007535 0.05782802 0.040493879
0.54846835 0.058783017 0.03932853
0.54849297 0.059593678 0.039323591
0.5477019 0.060481291 0.038738381
0.54609531 0.061450619 0.037572946
0.54530454 0.06234619 0.036987722
0.54532933 0.063163221 0.036982745
0.54237306 0.0026109472 0.035557292
0.54239804 0.0034311658 0.035552293
0.54242295 0.0042513823 0.035547294
0.54326588 0.0051029925 0.036123138
0.54329073 0.0059216176 0.03611815
0.54413348 0.0067684478 0.036693987
0.54497617 0.0076120929 0.037269842
0.54581869 0.0084525542 0.03784572
0.54747891 0.0093132574 0.039002504
0.54832125 0.010145756 0.03957843
0.54916346 0.010975068 0.040154375
0.55082315 0.011819846 0.041311257
0.55166513 0.012641196 0.04188725
0.55332446 0.013474823 0.043044169
0.55334878 0.014274335 0.043039296
0.55419046 0.015086127 0.043615345
0.55421472 0.015884047 0.043610483
0.55423898 0.016681969 0.043605622
0.55426323 0.017479887 0.04360076
0.55428749 0.018277809 0.043595895
0.55431175 0.019075727 0.043591034
0.55433601 0.019873647 0.043586172
0.55436021 0.020671567 0.043581311
0.55438447 0.021469487 0.043576449
0.55440873 0.022267407 0.043571584
0.55443299 0.023065327 0.043566722
0.55445725 0.023863247 0.043561861
0.55448151 0.024661167 0.043556999
0.55450577 0.025459087 0.043552134
0.55453002 0.026257006 0.043547273
0.55455428 0.027054926 0.043542411
0.55457848 0.027852846 0.04353755
0.55460274 0.028650766 0.043532688
0.554627 0.029448686 0.043527823
0.55465126 0.030246606 0.043522961
0.55467552 0.031044526 0.0435181
0.55469978 0.031842444 0.043513238
0.55472404 0.032640364 0.043508377
0.5547483 0.033438284 0.043503512
0.55477256 0.034236204 0.04349865
0.55479681 0.035034124 0.043493789
0.55482101 0.035832044 0.043488927
0.55484527 0.036629964 0.043484062
0.55486953 0.037427884 0.0434792
0.55489379 0.038225804 0.043474339
0.55491805 0.039023723 0.043469477
0.55494231 0.039821643 0.043464616
0.55496657 0.040619563 0.043459751
0.55499083 0.041417483 0.043454889
0.55501509 0.042215403 0.043450028
0.55503935 0.043013323 0.043445166
0.55506355 0.043811243 0.043440301
0.5550878 0.044609163 0.043435439
0.55511206 0.045407083 0.043430578
0.55513632 0.046205003 0.043425716
0.55516058 0.047002923 0.043420855
0.55518484 0.047800843 0.04341599
0.5552091 0.048598763 0.043411128
0.55523336 0.049396683 0.043406267
0.55525762 0.050194602 0.043401405
0.55528188 0.050992522 0.043396544
0.55449092 0.051851425 0.042810313
0.55451524 0.052650936 0.042805441
0.55453956 0.053450447 0.042800568
0.55374885 0.05431572 0.042214297
0.55295825 0.055184178 0.041628007
0.55216771 0.056055818 0.041041695
0.5513773 0.05693065 0.040455334
0.55058694 0.05780866 0.039868984
0.54898196 0.058763582 0.038701169
0.54819185 0.059649561 0.038114738
0.54821652 0.060461815 0.038109791
0.54742664 0.06135257 0.037523363
0.54663676 0.062246509 0.036936916
0.54584706 0.063143633 0.036350451
0.54668635 0.063877389 0.036926977
0.54671115 0.064692825 0.036922008
0.54673594 0.065508269 0.036917038
0.53875691 0.000753881 0.032022543
0.5412336 0.0016954653 0.033763532
0.54289281 0.0025912824 0.034922533
0.54373485 0.0034461182 0.035499588
0.5437597 0.0042647431 0.035494599
0.54378456 0.0050833658 0.035489611
0.54380947 0.0059019909 0.035484623
0.54465121 0.0067488593 0.036061697
0.54549283 0.0075925426 0.036638785
0.54633439 0.0084330421 0.037215892
0.54717582 0.0092703551 0.037793022
0.54883385 0.010126359 0.038952302
0.54967505 0.010955709 0.03952948
0.55051619 0.011781872 0.040106677
0.55217373 0.012621951 0.041266054
0.55301464 0.013440151 0.041843299
0.55385536 0.014255167 0.042420562
0.55387968 0.015054679 0.04241569
0.553904 0.015854193 0.042410817
0.55392826 0.016653705 0.042405944
0.55395257 0.017453218 0.042401072
0.55397689 0.01825273 0.042396203
0.55400121 0.019052243 0.04239133
0.55484158 0.019854518 0.042968672
0.55486584 0.020652438 0.04296381
0.5548901 0.021450358 0.042958949
0.5549143 0.022248277 0.042954087
0.55493855 0.023046197 0.042949222
0.55496281 0.023844117 0.042944361
0.55498707 0.024642037 0.042939499
0.55501133 0.025439957 0.042934638
0.55503559 0.026237875 0.042929776
0.55505985 0.027035795 0.042924911
0.55508411 0.027833715 0.042920049
0.55510837 0.028631635 0.042915188
0.55513263 0.029429555 0.042910326
0.55515683 0.030227475 0.042905465
0.55518109 0.031025395 0.0429006
0.55520535 0.031823315 0.042895738
0.5552296 0.032621235 0.042890877
0.55525386 0.033419155 0.042886015
0.55527812 0.034217075 0.04288115
0.55530238 0.035014994 0.042876288
0.55532664 0.035812914 0.042871427
0.5553509 0.036610834 0.042866565
0.55537516 0.037408754 0.042861704
0.55539936 0.038206674 0.042856839
0.55542362 0.039004594 0.042851977
0.55544788 0.039802514 0.042847116
0.55547214 0.040600434 0.042842254
0.55549639 0.041398354 0.042837389
0.55552065 0.042196274 0.042832527
0.55554491 0.042994194 0.042827666
0.55556917 0.043792114 0.042822804
0.55559343 0.044590034 0.042817943
0.55561763 0.045387954 0.042813078
0.55564189 0.046185873 0.042808216
0.55566615 0.046983793 0.042803355
0.55569041 0.047781713 0.042798493
0.55571467 0.048579633 0.042793632
0.55492467 0.049433716 0.042206194
0.55494893 0.05023323 0.042201322
0.55497324 0.051032744 0.042196449
0.55499756 0.051832255 0.042191576
0.55502182 0.052631766 0.042186704
0.55423212 0.053495407 0.041599214
0.55425644 0.054296512 0.04159433
0.55346686 0.055164933 0.041006807
0.55267733 0.056036536 0.040419266
0.55188793 0.056911327 0.039831668
0.55109859 0.057789303 0.039244089
0.55030936 0.058670461 0.038656488
0.54952025 0.059554804 0.038068868
0.54873121 0.060442343 0.037481192
0.54875588 0.061254594 0.037476242
0.54796702 0.062146902 0.036888577
0.54717827 0.063042395 0.036300886
0.54720306 0.063857839 0.036295917
0.54804122 0.064588442 0.036873698
0.54806596 0.065402292 0.03686874
0.5480907 0.066216134 0.036863782
0.5384655 0.00069459504 0.0307984
0.54175532 0.0016757242 0.03312631
0.54422861 0.0026078667 0.034871053
0.54425353 0.0034264915 0.034866065
0.54427838 0.0042451164 0.034861077
0.54511923 0.0050952067 0.035439361
0.54514408 0.0059122378 0.03543438
0.54516888 0.0067292713 0.035429403
0.54600954 0.0075729927 0.036007728
0.54766577 0.0084386272 0.037169378
0.54850626 0.0092743859 0.037747782
0.54934651 0.010106961 0.03832617
0.55018669 0.01093635 0.038904585
0.55102682 0.011762552 0.039483011
0.55186683 0.012585571 0.040061496
0.55352223 0.013420944 0.041223329
0.55436194 0.014235999 0.041801829
0.55357093 0.015023154 0.041213568
0.55441058 0.015835024 0.041792084
0.5544349 0.016634537 0.041787215
0.55445915 0.017434049 0.041782342
0.55448347 0.018233562 0.041777469
0.55450779 0.019033074 0.041772597
0.55453205 0.019832587 0.041767724
0.55455637 0.020632097 0.041762851
0.55458069 0.021431612 0.041757982
0.55460501 0.022231124 0.04175311
0.55462927 0.023030637 0.041748237
0.55465358 0.023830149 0.041743364
0.5546779 0.024629662 0.041738492
0.55470216 0.025429174 0.041733623
0.55472648 0.026228687 0.04172875
0.5547508 0.027028199 0.041723877
0.55477512 0.027827712 0.041719005
0.55479938 0.028627224 0.041714132
0.55563819 0.029410426 0.042292822
0.55566245 0.030208346 0.042287961
0.55487227 0.031025762 0.041699518
0.55571091 0.031804185 0.042278238
0.55492091 0.032624785 0.041689772
0.55494523 0.033424299 0.041684899
0.55496949 0.03422381 0.041680031
0.55499381 0.035023324 0.041675158
0.55501813 0.035822835 0.041670285
0.55504239 0.036622349 0.041665412
0.5550667 0.03742186 0.04166054
0.55509102 0.038221374 0.041655667
0.55511528 0.039020885 0.041650798
0.5551396 0.039820399 0.041645925
0.55516392 0.04061991 0.041641053
0.55518824 0.041419424 0.04163618
0.5552125 0.042218938 0.041631307
0.55523682 0.043018449 0.041626438
0.55526114 0.04381796 0.041621566
0.55528539 0.044617474 0.041616693
0.55530971 0.045416985 0.04161182
0.55533403 0.046216499 0.041606948
0.55535835 0.04701601 0.041602075
0.55538261 0.047815524 0.041597206
0.55540693 0.048615035 0.041592333
0.55543125 0.049414549 0.041587461
0.55545551 0.05021406 0.041582588
0.55466664 0.051072884 0.040993888
0.55469102 0.051873989 0.040989008
0.55471534 0.052675094 0.040984128
0.55473971 0.0534762 0.040979244
0.55395108 0.054342989 0.040390499
0.55397546 0.055145688 0.040385608
0.55318695 0.05601725 0.039796833
0.5523985 0.056892008 0.039208006
0.55161023 0.057769943 0.038619194
0.55082202 0.058651064 0.038030356
0.55003393 0.059535369 0.037441507
0.55005854 0.060346033 0.037436567
0.54927057 0.061235122 0.036847651
0.54929525 0.062047377 0.0368427
0.54850745 0.062941238 0.036253791
0.54853219 0.06375508 0.036248833
0.54936934 0.064484134 0.036827851
0.54858166 0.065382779 0.036238912
0.5486064 0.066196628 0.036233954
0.52915746 -0.0014967097 0.023153014
0.54474735 0.00258824 0.034237526
0.54558724 0.0034415559 0.034817025
0.5456121 0.004258587 0.034812044
0.54645187 0.0051071257 0.035391573
0.54647666 0.0059225634 0.035386603
0.5465014 0.0067380047 0.035381634
0.54734099 0.0075801704 0.035961196
0.54818046 0.0084191533 0.03654078
0.54901987 0.0092549501 0.03712042
0.54985917 0.010087564 0.037700042
0.55069834 0.010916989 0.038279682
0.55153745 0.01174323 0.038859345
0.55237645 0.012566288 0.03943906
0.55321538 0.013386157 0.04001876
0.55405414 0.014202843 0.040598478
0.55407852 0.015003948 0.040593598
0.55410284 0.015805053 0.040588718
0.55412722 0.01660616 0.040583834
0.55415154 0.017407265 0.040578954
0.55417591 0.018208368 0.04057407
0.55420029 0.019009473 0.04056919
0.55422461 0.01981058 0.040564306
0.55424899 0.020611685 0.040559426
0.55427331 0.02141279 0.040554546
0.55429769 0.022213893 0.040549662
0.554322 0.023015 0.040544782
0.55516016 0.023810981 0.041124627
0.55518448 0.024610493 0.041119754
0.5552088 0.025410004 0.041114882
0.55523306 0.026209518 0.041110009
0.55525738 0.027009031 0.04110514
0.5552817 0.027808543 0.041100267
0.55530602 0.028608056 0.041095395
0.55533028 0.029407568 0.041090522
0.5553546 0.030207081 0.041085649
0.55537891 0.031006593 0.04108078
0.55540317 0.031806104 0.041075908
0.55542749 0.032605618 0.041071035
0.55545181 0.033405129 0.041066162
0.55547607 0.034204643 0.04106129
0.55550039 0.035004154 0.041056417
0.55552471 0.035803668 0.041051548
0.55554903 0.036603179 0.041046675
0.55557328 0.037402693 0.041041803
0.5555976 0.038202204 0.04103693
0.55562192 0.039001718 0.041032057
0.55564618 0.039801229 0.041027188
0.5556705 0.040600743 0.041022316
0.55569482 0.041400254 0.041017443
0.55571914 0.042199768 0.04101257
0.5557434 0.042999279 0.041007698
0.55576771 0.043798793 0.041002825
0.55579203 0.044598304 0.040997956
0.55581629 0.045397818 0.040993083
0.55584061 0.046197329 0.040988211
0.55586493 0.046996843 0.040983338
0.55507684 0.047849257 0.040393449
0.55510122 0.048650365 0.040388566
0.55512553 0.049451467 0.040383685
0.55514991 0.050252575 0.040378802
0.55517423 0.05105368 0.040373921
0.55519861 0.051854782 0.040369038
0.55522293 0.052655891 0.040364157
0.55443525 0.053521045 0.039774191
0.55445969 0.054323744 0.039769296
0.55367213 0.055193678 0.039179299
0.55369657 0.055997968 0.0391744
0.55290914 0.056872685 0.038584337
0.55212188 0.057750583 0.037994292
0.55133468 0.058631666 0.037404228
0.5513593 0.059440736 0.037399299
0.55057222 0.060326595 0.036809202
0.55059689 0.061137259 0.036804263
0.54980993 0.062027901 0.036214106
0.54983461 0.062840156 0.036209155
0.54985929 0.063652411 0.036204204
0.54988396 0.064464658 0.036199257
0.5499087 0.065276921 0.036194306
0.54993337 0.066089168 0.036189355
0.54995805 0.066901423 0.036184408
0.54608011 0.0026049344 0.034189712
0.54691893 0.0034566987 0.034770451
0.54694372 0.0042721364 0.034765482
0.54778248 0.0051191193 0.035346251
0.54780722 0.0059329653 0.035341289
0.54783195 0.0067468127 0.035336331
0.54867041 0.0075874249 0.035917137
0.54950893 0.0084248548 0.036497999
0.54953355 0.0092355153 0.036493059
0.55037183 0.010068166 0.037073914
0.55120999 0.010897631 0.037654787
0.55204809 0.01172391 0.038235683
0.55288607 0.012547005 0.038816631
0.55291057 0.013351296 0.038811728
0.55374837 0.01416961 0.039392672
0.55377275 0.014972308 0.039387781
0.55379719 0.015775008 0.03938289
0.55382156 0.016577706 0.039377999
0.55465919 0.017388057 0.039958987
0.55468351 0.018189162 0.039954107
0.55470788 0.018990267 0.039949223
0.5547322 0.019791372 0.039944343
0.55475658 0.020592477 0.039939463
0.5547809 0.021393584 0.039934579
0.55480528 0.022194687 0.039929699
0.5548296 0.022995792 0.039924815
0.55485398 0.023796897 0.039919935
0.55487829 0.024598002 0.039915051
0.55490267 0.025399107 0.039910171
0.55492699 0.026200213 0.039905291
0.55495137 0.027001318 0.039900407
0.55497569 0.027802423 0.039895527
0.55500007 0.02860353 0.039890643
0.55502439 0.029404635 0.039885763
0.55504876 0.03020574 0.039880883
0.55507308 0.031006845 0.039875999
0.55509746 0.031807948 0.039871119
0.55512184 0.032609053 0.039866235
0.55514616 0.033410158 0.039861355
0.55517054 0.034211263 0.039856471
0.55519485 0.035012368 0.039851591
0.55521923 0.035813473 0.039846711
0.55524355 0.036614578 0.039841827
0.55526793 0.037415687 0.039836947
0.55529225 0.038216792 0.039832063
0.55531663 0.039017897 0.039827183
0.55534095 0.039819002 0.039822299
0.55536532 0.040620107 0.039817419
0.55538964 0.041421212 0.039812539
0.55541402 0.042222317 0.039807655
0.55543834 0.043023422 0.039802775
0.55546272 0.043824527 0.039797891
0.55548704 0.044625632 0.039793011
0.55551142 0.045426738 0.039788127
0.55553573 0.046227843 0.039783247
0.55556011 0.047028948 0.039778367
0.55558443 0.047830053 0.039773483
0.55560881 0.048631158 0.039768603
0.55563319 0.049432263 0.039763719
0.55565751 0.050233368 0.039758839
0.55568188 0.051034473 0.039753955
0.5548951 0.051896404 0.039162777
0.55491948 0.052699104 0.039157882
0.55494392 0.0535018 0.039152991
0.55415732 0.054370105 0.038561773
0.55418175 0.055174395 0.03855687
0.55420619 0.055978686 0.038551968
0.55341977 0.056853365 0.037960675
0.55263352 0.057731226 0.037369397
0.55265808 0.058538701 0.037364475
0.5518719 0.059421338 0.036773168
0.55189651 0.060230404 0.036768239
0.55111051 0.061117824 0.036176905
0.55113518 0.061928485 0.036171965
0.5503493 0.06282068 0.035580561
0.55037397 0.063632935 0.035575613
0.55039865 0.06444519 0.035570662
0.55042332 0.065257445 0.035565712
0.550448 0.066069692 0.035560764
0.52451426 -0.0026965656 0.017736025
0.54741085 0.002621707 0.034144361
0.54743564 0.0034371484 0.034139391
0.54827338 0.0042857616 0.034721382
0.54829812 0.0050996072 0.03471642
0.54832286 0.0059134532 0.034711462
0.54916042 0.0067556989 0.035293493
0.5491851 0.007567951 0.035288543
0.55002254 0.0084054191 0.035870634
0.55085987 0.0092396988 0.036452714
0.55088449 0.010048768 0.036447782
0.55172163 0.010878271 0.037029888
0.55174619 0.011685746 0.037024967
0.55258322 0.012510473 0.037607107
0.55342019 0.013332013 0.038189296
0.55344462 0.014136302 0.038184397
0.55428141 0.014953063 0.038766582
0.55430579 0.015755763 0.03876169
0.55433017 0.016558461 0.038756799
0.55435461 0.017361157 0.038751908
0.55437899 0.018163856 0.038747016
0.55440336 0.018966552 0.038742125
0.5544278 0.019769249 0.038737234
0.55445218 0.020571947 0.038732339
0.55447656 0.021374647 0.038727447
0.554501 0.022177344 0.038722556
0.55452538 0.022980042 0.038717665
0.55454975 0.023782739 0.038712773
0.55538589 0.024578797 0.039295085
0.55541027 0.025379902 0.039290205
0.55543458 0.026181007 0.039285321
0.55545896 0.026982112 0.039280441
0.55548334 0.027783217 0.039275561
0.55550766 0.028584322 0.039270677
0.55553204 0.029385427 0.039265797
0.55555636 0.030186532 0.039260913
0.55558074 0.030987637 0.039256033
0.55560505 0.031788744 0.039251152
0.55562943 0.032589849 0.039246269
0.55565375 0.033390954 0.039241388
0.55567813 0.034192059 0.039236505
0.55570245 0.034993164 0.039231624
0.55572683 0.035794269 0.039226741
0.55575114 0.036595374 0.03922186
0.55577552 0.037396479 0.03921698
0.55579984 0.038197584 0.039212096
0.55582422 0.03899869 0.039207216
0.55584854 0.039799795 0.039202332
0.55587292 0.0406009 0.039197452
0.55589724 0.041402005 0.039192569
0.55592161 0.04220311 0.039187688
0.55594593 0.043004215 0.039182808
0.55597031 0.04380532 0.039177924
0.55599469 0.044606425 0.039173044
0.55601901 0.04540753 0.03916816
0.55604339 0.046208635 0.03916328
0.55606771 0.04700974 0.039158396
0.55609208 0.047810845 0.039153516
0.55530614 0.048666369 0.038561139
0.55533051 0.049469069 0.038556248
0.55535489 0.050271764 0.038551357
0.55537933 0.051074464 0.038546465
0.55540371 0.05187716 0.038541574
0.55542809 0.052679859 0.038536683
0.5546425 0.053546529 0.037944239
0.55466694 0.054350823 0.03793934
0.55469137 0.055155113 0.037934437
0.5539059 0.056028161 0.037341923
0.5539304 0.056834042 0.037337009
0.55314517 0.057711866 0.036744498
0.55316967 0.058519341 0.036739577
0.55319422 0.059326816 0.036734659
0.55240917 0.060211007 0.036142107
0.55243373 0.061020076 0.036137179
0.5516488 0.061909046 0.0355446
0.55167347 0.06271971 0.035539661
0.5508886 0.063613459 0.034947015
0.55172276 0.064341031 0.035529781
0.55174738 0.065151691 0.035524838
0.551772 0.065962352 0.035519898
0.55098736 0.066862471 0.034927219
0.52343458 -0.0028059115 0.015894173
0.54873961 0.0026385563 0.034101471
0.54876435 0.0034524037 0.034096513
0.54878908 0.0042662495 0.034091555
0.54962569 0.0051117153 0.034674797
0.54965037 0.0059239692 0.034669846
0.54967511 0.0067362254 0.034664895
0.5505116 0.0075753229 0.035248216
0.55053622 0.0083859833 0.035243273
0.55137253 0.0092203012 0.035826586
0.55139709 0.010029371 0.035821654
0.55223328 0.010858912 0.036404993
0.55225784 0.011666386 0.036400072
0.55309379 0.012491152 0.036983442
0.55311829 0.013297034 0.036978532
0.55395424 0.014117019 0.037561964
0.55397868 0.014921308 0.037557062
0.55400312 0.0157256 0.037552163
0.55402756 0.016529892 0.037547261
0.554052 0.01733418 0.037542362
0.55407643 0.018138472 0.037537459
0.55410093 0.018942762 0.037532557
0.55412537 0.019747052 0.037527658
0.55414981 0.020551343 0.037522756
0.55498517 0.021355402 0.038106252
0.5550096 0.022158099 0.03810136
0.55503398 0.022960797 0.038096469
0.55505836 0.023763495 0.038091578
0.5550828 0.024566192 0.038086683
0.55510718 0.02536889 0.038081791
0.55513155 0.026171587 0.0380769
0.55515599 0.026974285 0.038072009
0.55518037 0.027776983 0.038067117
0.55520475 0.02857968 0.038062226
0.55522919 0.029382378 0.038057335
0.55525357 0.030185077 0.038052443
0.55527794 0.030987775 0.038047552
0.55530238 0.031790473 0.038042661
0.55532676 0.032593168 0.038037769
0.55535114 0.033395868 0.038032878
0.55537558 0.034198564 0.038027987
0.55539995 0.035001263 0.038023096
0.55542433 0.035803962 0.038018204
0.55544877 0.036606658 0.038013313
0.55547315 0.037409358 0.038008422
0.55549753 0.038212053 0.03800353
0.55552197 0.039014753 0.037998639
0.55554634 0.039817449 0.037993748
0.55557072 0.040620148 0.037988856
0.55559516 0.041422844 0.037983965
0.55561954 0.042225543 0.037979074
0.55564392 0.043028239 0.037974183
0.55566835 0.043830939 0.037969291
0.55569273 0.044633634 0.0379644
0.55571711 0.045436334 0.037959509
0.55574155 0.04623903 0.037954617
0.55576593 0.047041729 0.037949726
0.55579031 0.047844429 0.037944835
0.55581474 0.048647124 0.037939943
0.55583912 0.049449824 0.037935052
0.5558635 0.05025252 0.037930161
0.55588794 0.051055219 0.037925266
0.55510324 0.051918667 0.037331611
0.55512768 0.052722957 0.037326712
0.55515212 0.053527247 0.03732181
0.55517656 0.054331541 0.037316907
0.55520099 0.055135831 0.037312008
0.55441654 0.056008838 0.036718257
0.55444103 0.056814723 0.036713347
0.55365676 0.057692505 0.036119603
0.55368131 0.058499981 0.036114682
0.55370587 0.059307456 0.03610976
0.55373043 0.060114931 0.036104839
0.55294639 0.061000679 0.03551105
0.55297101 0.061809748 0.035506118
0.55218714 0.062700272 0.034912299
0.55302018 0.063427888 0.035496257
0.55223638 0.064321592 0.03490242
0.55226105 0.06513226 0.034897476
0.55228567 0.065942913 0.034892537
0.55231029 0.066753574 0.034887597
0.52398151 -0.0028266073 0.015226138
0.55006629 0.0026554817 0.034061052
0.55009097 0.0034677356 0.034056101
0.5501157 0.0042799897 0.034051154
0.5509513 0.0051239044 0.034635674
0.55097592 0.0059345649 0.034630734
0.5510006 0.0067452267 0.034625795
0.55102521 0.0075558871 0.034620855
0.55186057 0.0083918367 0.035205387
0.55188519 0.0092009036 0.035200454
0.55272037 0.010032077 0.035785019
0.55274493 0.010839553 0.035780098
0.55276942 0.011647027 0.035775177
0.55279398 0.012454504 0.035770256
0.55362892 0.013277713 0.03635487
0.55365342 0.014083595 0.036349956
0.55367792 0.014889478 0.036345046
0.55370241 0.015695363 0.036340136
0.55372691 0.016501244 0.036335226
0.55375141 0.017307127 0.036330312
0.55377591 0.018113011 0.036325403
0.55461055 0.018923478 0.036910124
0.55463499 0.01972777 0.036905225
0.55465943 0.02053206 0.036900323
0.55468386 0.021336351 0.03689542
0.5547083 0.022140641 0.036890522
0.55473274 0.022944931 0.036885619
0.55475718 0.023749221 0.03688072
0.55478168 0.024553511 0.036875818
0.55480611 0.025357801 0.036870915
0.55483055 0.026162092 0.036866017
0.55485499 0.026966384 0.036861114
0.55487943 0.027770674 0.036856212
0.55490386 0.028574964 0.036851313
0.5549283 0.029379254 0.03684641
0.5549528 0.030183544 0.036841508
0.55497724 0.030987835 0.036836609
0.55500168 0.031792127 0.036831707
0.55502611 0.032596417 0.036826808
0.55505055 0.033400707 0.036821906
0.55588418 0.034179322 0.037406787
0.55590856 0.034982018 0.037401896
0.55593294 0.035784718 0.037397005
0.55595738 0.036587413 0.037392113
0.55598176 0.037390113 0.037387222
0.55600613 0.038192809 0.037382331
0.55603057 0.038995508 0.037377439
0.55605495 0.039798204 0.037372548
0.55607933 0.040600903 0.037367657
0.55610377 0.041403599 0.037362766
0.55612814 0.042206299 0.037357874
0.55615252 0.043008994 0.037352983
0.55617696 0.043811694 0.037348092
0.55620134 0.04461439 0.0373432
0.55622572 0.045417089 0.037338309
0.55625015 0.046219785 0.037333418
0.55627453 0.047022484 0.037328526
0.55629891 0.047825184 0.037323635
0.55551505 0.048682224 0.036728784
0.55553949 0.049486514 0.036723882
0.55556393 0.050290804 0.036718983
0.55558836 0.051095095 0.036714081
0.55561286 0.051899385 0.036709178
0.5556373 0.052703675 0.036704279
0.55566174 0.053507965 0.036699377
0.55487818 0.054377753 0.036104415
0.55490267 0.055183634 0.036099505
0.55492717 0.055989519 0.036094595
0.55495167 0.0567954 0.036089685
0.5541684 0.057673145 0.035494708
0.55419296 0.058480624 0.035489786
0.55421752 0.059288099 0.035484865
0.55424207 0.060095571 0.035479944
0.55345905 0.060981281 0.034884918
0.55348366 0.061790351 0.03487999
0.55350822 0.062599421 0.034875058
0.55272543 0.063491493 0.034279998
0.5535574 0.06421756 0.034865201
0.55277467 0.065112822 0.034270115
0.55279934 0.065923482 0.034265175
0.55201674 0.066823527 0.033670031
0.55058098 0.0026360077 0.033432458
0.55141568 0.0034831462 0.034018192
0.5514403 0.0042938064 0.034013253
0.55146497 0.0051044687 0.034008313
0.55148959 0.0059151291 0.034003373
0.55151427 0.0067257909 0.033998434
0.55234861 0.0075633707 0.034584187
0.55237323 0.0083724391 0.034579258
0.55239779 0.009181506 0.034574326
0.5524224 0.0099905757 0.034569398
0.55325651 0.010820193 0.035155203
0.55328107 0.011627668 0.035150282
0.55330563 0.012435145 0.035145361
0.55333018 0.013242621 0.03514044
0.55335474 0.014050096 0.035135519
0.55337924 0.014857571 0.035130598
0.55340379 0.015665047 0.035125677
0.55423754 0.016481923 0.03571156
0.55426204 0.017287808 0.03570665
0.55428654 0.01809369 0.035701741
0.55431104 0.018899573 0.035696827
0.55433553 0.019705456 0.035691917
0.55436003 0.020511338 0.035687007
0.55438453 0.021317223 0.035682097
0.55440903 0.022123106 0.035677183
0.55443352 0.022928989 0.035672273
0.55445802 0.023734871 0.035667364
0.5552913 0.024534229 0.036253385
0.55531573 0.025338519 0.036248486
0.55534017 0.02614281 0.036243584
0.55536461 0.0269471 0.036238682
0.55538905 0.02775139 0.036233783
0.55541348 0.02855568 0.03622888
0.55543792 0.02935997 0.036223982
0.55546242 0.03016426 0.036219079
0.55548686 0.030968552 0.036214177
0.5555113 0.031772841 0.036209278
0.55553573 0.032577131 0.036204375
0.55556017 0.033381425 0.036199473
0.55558461 0.034185715 0.036194574
0.55560911 0.034990005 0.036189672
0.55563354 0.035794295 0.036184769
0.55565798 0.036598586 0.03617987
0.55568242 0.037402876 0.036174968
0.55570686 0.038207166 0.036170069
0.5557313 0.039011456 0.036165167
0.55575573 0.039815746 0.036160264
0.55578023 0.040620036 0.036155365
0.55580467 0.041424327 0.036150463
0.55582911 0.042228617 0.03614556
0.55585355 0.043032907 0.036140662
0.55587798 0.043837197 0.036135759
0.55590242 0.044641487 0.036130857
0.55592686 0.045445777 0.036125958
0.55595136 0.046250068 0.036121055
0.55597579 0.047054358 0.036116157
0.55600023 0.047858652 0.036111254
0.55602467 0.048662942 0.036106352
0.55604911 0.049467232 0.036101453
0.55607355 0.050271519 0.036096551
0.55529082 0.051134899 0.035500396
0.55531532 0.05194078 0.035495482
0.55533981 0.052746665 0.035490572
0.55536431 0.053552546 0.035485663
0.55538881 0.05435843 0.035480753
0.55541331 0.055164315 0.035475839
0.5554378 0.055970196 0.035470929
0.55465549 0.056846309 0.03487473
0.55468005 0.057653788 0.034869809
0.55470461 0.058461264 0.034864891
0.55472916 0.059268739 0.03485997
0.55475366 0.060076214 0.034855049
0.55477822 0.06088369 0.034850128
0.55399626 0.061770953 0.034253862
0.55402088 0.062580019 0.034248933
0.55404544 0.063389093 0.034244001
0.55407006 0.064198159 0.034239072
0.55328834 0.065093383 0.033642754
0.55250669 0.065991797 0.033046383
0.55172515 0.066893399 0.032450031
0.52912188 -0.0026456127 0.016849246
0.55190468 0.0026530484 0.033395767
0.55192935 0.0034637104 0.033390827
0.55195397 0.0042743706 0.033385888
0.55197865 0.0050850329 0.033380948
0.55200326 0.0058956933 0.033376008
0.55283666 0.0067349048 0.033962987
0.55286127 0.0075439732 0.033958055
0.55288589 0.0083530415 0.033953127
0.55291045 0.0091621084 0.033948198
0.55293506 0.0099711781 0.033943266
0.55376816 0.010800834 0.034530304
0.55379272 0.011608308 0.034525383
0.55381727 0.012415785 0.034520462
0.55384183 0.013223262 0.034515541
0.55386633 0.014030737 0.03451062
0.55389088 0.014838211 0.034505699
0.55391544 0.015645688 0.034500778
0.55394 0.016453164 0.03449586
0.5539645 0.017260639 0.034490939
0.55398905 0.018068116 0.034486018
0.55401361 0.018875591 0.034481097
0.55403817 0.019683067 0.034476176
0.55406272 0.020490542 0.034471255
0.55408722 0.021298019 0.034466337
0.55491966 0.022103785 0.035053518
0.55494416 0.022909667 0.035048608
0.55496866 0.02371555 0.035043698
0.55499315 0.024521433 0.035038788
0.55501765 0.025327317 0.035033874
0.55504215 0.0261332 0.035028964
0.55506659 0.026939083 0.035024054
0.55509108 0.027744966 0.035019144
0.55511558 0.02855085 0.035014231
0.55514008 0.029356733 0.035009321
0.55516458 0.030162616 0.035004411
0.55518907 0.030968498 0.034999501
0.55521357 0.031774383 0.034994587
0.55523807 0.032580264 0.034989677
0.55526257 0.033386149 0.034984767
0.55528706 0.034192033 0.034979858
0.55531156 0.034997914 0.034974944
0.55533606 0.035803799 0.034970034
0.55536056 0.036609679 0.034965124
0.55538505 0.037415564 0.034960214
0.55540955 0.038221449 0.034955304
0.55543405 0.03902733 0.03495039
0.55545855 0.039833214 0.034945481
0.55548304 0.040639095 0.034940571
0.55550754 0.04144498 0.034935661
0.55553204 0.042250864 0.034930747
0.55555654 0.043056745 0.034925837
0.55558103 0.04386263 0.034920927
0.55560553 0.044668511 0.034916017
0.55563003 0.045474395 0.034911104
0.55565453 0.04628028 0.034906194
0.55567896 0.047086161 0.034901284
0.55570346 0.047892045 0.034896374
0.55572796 0.04869793 0.03489146
0.55575246 0.049503811 0.03488655
0.55577695 0.050309692 0.03488164
0.55580145 0.051115576 0.03487673
0.55582595 0.051921461 0.034871817
0.55585045 0.052727342 0.034866907
0.55506897 0.053597048 0.034269515
0.55509353 0.054404523 0.034264594
0.55511808 0.055212002 0.034259673
0.55514264 0.056019478 0.034254752
0.55516714 0.056826949 0.034249831
0.5551917 0.057634428 0.03424491
0.55521625 0.058441903 0.034239992
0.55524081 0.059249379 0.034235071
0.55526531 0.060056854 0.03423015
0.55448437 0.060942486 0.033632662
0.55450892 0.061751556 0.03362773
0.55453354 0.062560625 0.033622801
0.5545581 0.063369691 0.033617869
0.55377734 0.064263284 0.033020332
0.55299664 0.065160073 0.03242274
0.55221611 0.066060036 0.031825162
0.55143565 0.066963188 0.031227564
0.52966374 -0.0026661176 0.016187374
0.55241835 0.0026336126 0.032768406
0.55244297 0.0034442747 0.032763466
0.55246764 0.0042549348 0.032758527
0.55249226 0.0050655971 0.032753587
0.55251694 0.0058762575 0.032748647
0.55334932 0.0067155072 0.033336859
0.55337393 0.0075245756 0.033331927
0.55339849 0.0083336439 0.033326998
0.55342311 0.0091427108 0.033322066
0.55344772 0.0099517815 0.033317138
0.55347228 0.010760849 0.033312205
0.5534969 0.011569916 0.033307277
0.55352145 0.012378987 0.033302344
0.55354607 0.013188055 0.033297416
0.55357063 0.013997124 0.033292487
0.55359524 0.014806191 0.033287555
0.55442709 0.015626328 0.033875883
0.55445164 0.016433805 0.033870962
0.55447614 0.017241281 0.03386604
0.5545007 0.018048756 0.033861123
0.55452526 0.018856231 0.033856202
0.55454981 0.019663708 0.033851281
0.55457431 0.020471184 0.03384636
0.55459887 0.021278659 0.033841439
0.55462343 0.022086134 0.033836517
0.55464798 0.022893611 0.0338316
0.55467248 0.023701087 0.033826679
0.55469704 0.024508562 0.033821758
0.55472159 0.025316037 0.033816837
0.55474615 0.026123514 0.033811916
0.55477071 0.02693099 0.033806995
0.55479521 0.027738465 0.033802073
0.55481976 0.02854594 0.033797156
0.55484432 0.029353417 0.033792235
0.55486888 0.030160893 0.033787314
0.55489337 0.030968368 0.033782393
0.55491793 0.031775843 0.033777472
0.55494249 0.032583319 0.033772551
0.55496705 0.033390794 0.033767633
0.5549916 0.034198273 0.033762712
0.5550161 0.035005748 0.033757791
0.55504066 0.035813224 0.03375287
0.55587119 0.03659036 0.034341458
0.55589569 0.037396241 0.034336548
0.55592018 0.038202126 0.034331638
0.55594468 0.03900801 0.034326728
0.55596918 0.039813891 0.034321815
0.55599368 0.040619776 0.034316905
0.55601817 0.041425657 0.034311995
0.55604267 0.042231541 0.034307085
0.55606717 0.043037426 0.034302171
0.55609167 0.043843307 0.034297261
0.55611616 0.044649191 0.034292351
0.5561406 0.045455076 0.034287442
0.5561651 0.046260957 0.034282532
0.5561896 0.047066841 0.034277618
0.55621409 0.047872726 0.034272708
0.55623859 0.048678607 0.034267798
0.55545789 0.049540311 0.033669222
0.55548245 0.050347786 0.033664301
0.555507 0.051155262 0.03365938
0.55553156 0.051962737 0.033654459
0.55555606 0.052770212 0.033649538
0.55558062 0.053577688 0.033644617
0.55560517 0.054385167 0.033639699
0.55562973 0.055192642 0.033634778
0.55565423 0.056000117 0.033629857
0.55567878 0.056807593 0.033624936
0.55570334 0.057615068 0.033620015
0.55492324 0.058495883 0.033021323
0.55494779 0.059304953 0.033016391
0.55497241 0.060114019 0.033011463
0.55499697 0.060923088 0.03300653
0.55502158 0.061732158 0.033001602
0.55424172 0.062622532 0.032402851
0.55426639 0.063433193 0.032397911
0.55429101 0.064243853 0.032392971
0.55351132 0.065140598 0.031794146
0.55273175 0.066040531 0.031195335
0.55114812 0.067032903 0.030002637
0.54956466 0.068031661 0.028809864
0.54804003 0.00075420085 0.028584959
0.55129319 0.0017271501 0.030957298
0.55293202 0.0026141768 0.032141045
0.55295664 0.0034248391 0.032136105
0.55298132 0.0042354995 0.032131165
0.55300593 0.0050461614 0.032126226
0.55383736 0.0058870413 0.03271566
0.55386198 0.0066961097 0.032710731
0.55388659 0.007505178 0.032705799
0.55391115 0.0083142463 0.03270087
0.55393577 0.0091233132 0.032695938
0.55396032 0.0099323839 0.032691009
0.55398494 0.010741452 0.032686077
0.5540095 0.011550519 0.032681148
0.55403411 0.012359589 0.03267622
0.55405873 0.013168657 0.032671288
0.55408329 0.013977726 0.032666359
0.5541079 0.014786793 0.032661427
