# .PCD v0.7 - Point Cloud Data file format
VERSION 0.7
FIELDS x y z
SIZE 4 4 4
TYPE F F F
COUNT 1 1 1
WIDTH 1385
HEIGHT 1
VIEWPOINT 0 0 0 1 0 0 0
POINTS 1385
DATA ascii
0.52055562 -0.06564457 0.14053725
0.52153307 -0.064719923 0.14095113
0.52155548 -0.063982524 0.14094663
0.52157789 -0.063245125 0.14094214
0.52160031 -0.062507726 0.14093764
0.52257758 -0.06159104 0.14135158
0.52259994 -0.060855232 0.1413471
0.52262229 -0.060119428 0.14134261
0.52264464 -0.05938362 0.14133812
0.52266705 -0.058647819 0.14133364
0.5226894 -0.057912003 0.14132915
0.52271175 -0.057176195 0.14132467
0.52273411 -0.056440394 0.14132018
0.51434904 -0.051202357 0.13751265
0.51341784 -0.050604429 0.13708949
0.51344073 -0.049852699 0.13708492
0.51346356 -0.049100969 0.13708034
0.51348639 -0.048349239 0.13707575
0.51350927 -0.047597501 0.13707118
0.5135321 -0.046845764 0.13706659
0.51450866 -0.045951381 0.13748066
0.51548511 -0.045060176 0.13789473
0.51550788 -0.044311631 0.13789017
0.5164842 -0.043425202 0.13830429
0.51746041 -0.042541977 0.13871841
0.51748306 -0.041796606 0.13871387
0.51845908 -0.040918142 0.13912804
0.51848173 -0.040174372 0.13912351
0.51945764 -0.039300691 0.13953769
0.51948017 -0.038558517 0.13953316
0.52045596 -0.037689615 0.13994738
0.52143162 -0.036823899 0.14036162
0.5214541 -0.036084902 0.14035712
0.52242965 -0.035223968 0.14077139
0.52245206 -0.034486566 0.14076689
0.52342743 -0.033630393 0.14118119
0.52344984 -0.032894593 0.14117672
0.52442503 -0.032043207 0.14159103
0.52444738 -0.031309001 0.14158656
0.52542245 -0.030462382 0.14200091
0.52544475 -0.029729769 0.14199646
0.52546698 -0.028997144 0.14199199
0.52644187 -0.028156908 0.14240637
0.5264641 -0.027425883 0.14240192
0.52648634 -0.026694853 0.14239746
0.52746105 -0.025860991 0.14281188
0.52748322 -0.025131553 0.14280744
0.5275054 -0.024402119 0.142803
0.52752757 -0.023672681 0.14279856
0.52754974 -0.022943247 0.1427941
0.52852416 -0.022118937 0.14320861
0.52854627 -0.021391094 0.14320417
0.52856839 -0.020663248 0.14319973
0.5285905 -0.019935405 0.1431953
0.52861267 -0.019207561 0.14319086
0.52863479 -0.01847972 0.14318642
0.5286569 -0.017751876 0.14318199
0.52867901 -0.017024033 0.14317755
0.52870113 -0.016296193 0.14317311
0.52872324 -0.015568349 0.14316869
0.52874541 -0.014840504 0.14316425
0.52876753 -0.01411266 0.14315981
0.52878964 -0.013384816 0.14315538
0.52881175 -0.012656976 0.14315094
0.52883387 -0.011929132 0.14314651
0.52885598 -0.011201288 0.14314207
0.52887815 -0.010473448 0.14313763
0.52890027 -0.0097456034 0.14313321
0.52892238 -0.0090177627 0.14312877
0.52894449 -0.0082899155 0.14312433
0.52801532 -0.0076250969 0.14270076
0.52803749 -0.0068956595 0.14269632
0.52805966 -0.0061662253 0.14269187
0.52808183 -0.0054367878 0.14268743
0.52810401 -0.0047073537 0.14268298
0.52812618 -0.0039779199 0.14267854
0.52814835 -0.003248482 0.14267409
0.52817053 -0.0025190443 0.14266965
0.5281927 -0.0017896105 0.14266521
0.527264 -0.0011088598 0.14224155
0.52728623 -0.00037783218 0.1422371
0.52730846 0.00035319544 0.14223264
0.5273307 0.001084223 0.14222819
0.52735293 0.0018152507 0.14222373
0.5273751 0.0025462783 0.14221928
0.52644682 0.0032381786 0.14179556
0.52646905 0.0039708 0.14179109
0.52649134 0.0047034211 0.14178662
0.52651364 0.0054360405 0.14178216
0.52558553 0.006135901 0.14135838
0.52560782 0.0068701138 0.14135391
0.52563012 0.0076043289 0.14134943
0.52565247 0.0083385417 0.14134495
0.5247246 0.0090463655 0.14092113
0.52474701 0.0097821709 0.14091665
0.52476937 0.010517979 0.14091216
0.52384168 0.011232171 0.1404883
0.52386409 0.01196957 0.1404838
0.52293658 0.012688542 0.1400599
0.52295905 0.013427536 0.1400554
0.52203166 0.014151284 0.13963148
0.5220542 0.014891868 0.13962696
0.52112699 0.015620398 0.13920301
0.52114952 0.016362574 0.1391985
0.52022249 0.017095881 0.13877453
0.51929545 0.01783237 0.1383505
0.51931816 0.018577734 0.13834597
0.51839131 0.019319003 0.13792194
0.51746458 0.020063458 0.1374979
0.5165379 0.020811098 0.13707383
0.51656073 0.021561239 0.13706926
0.51563424 0.022313656 0.13664515
0.51470786 0.023069259 0.13622104
0.51378155 0.023828048 0.1357969
0.51285535 0.024590021 0.13537274
0.51192921 0.025355181 0.13494857
0.51195228 0.026113285 0.13494395
0.51102632 0.026883222 0.13451974
0.51010042 0.027656345 0.13409553
0.50917464 0.02843265 0.13367127
0.50824898 0.029212145 0.13324702
0.50732338 0.029994823 0.13282274
0.50639796 0.030780686 0.13239844
0.5054726 0.031569734 0.13197412
0.50549597 0.032338988 0.13196942
0.50457072 0.033132814 0.13154507
0.5210014 -0.066401273 0.13996987
0.5219779 -0.065475009 0.14038496
0.52200031 -0.064737603 0.14038046
0.52202272 -0.064000204 0.14037597
0.52204514 -0.063262805 0.14037147
0.52302146 -0.06234448 0.14078663
0.52304381 -0.06160868 0.14078215
0.52306616 -0.060872871 0.14077766
0.52308851 -0.060137071 0.14077318
0.52311087 -0.059401263 0.14076869
0.52313328 -0.058665462 0.14076421
0.52315563 -0.057929646 0.14075972
0.52317798 -0.057193838 0.14075524
0.51498395 -0.045969363 0.13690014
0.51595938 -0.045078121 0.13731544
0.51598215 -0.04432958 0.13731088
0.51695746 -0.04344311 0.13772623
0.51698017 -0.042696163 0.13772169
0.5179553 -0.041814476 0.13813704
0.51893038 -0.040935975 0.13855244
0.51895297 -0.040192205 0.13854791
0.51992792 -0.039318487 0.13896333
0.51995045 -0.038576312 0.13895881
0.52092522 -0.037707373 0.13937426
0.52094769 -0.03696679 0.13936974
0.52192235 -0.036102619 0.13978523
0.52194482 -0.035363629 0.13978073
0.5229193 -0.034504246 0.14019622
0.52294171 -0.033766843 0.14019173
0.52391607 -0.032912236 0.14060727
0.52393842 -0.032176428 0.1406028
0.5249126 -0.031326603 0.14101836
0.52493489 -0.030592382 0.14101388
0.52495718 -0.029858174 0.14100941
0.52593124 -0.029014708 0.14142501
0.52595347 -0.028282084 0.14142056
0.52692729 -0.027443411 0.1418362
0.52694952 -0.026712378 0.14183174
0.52697176 -0.025981355 0.14182729
0.52699399 -0.025250323 0.14182283
0.52796757 -0.024419608 0.1422385
0.52798975 -0.02369017 0.14223406
0.52801192 -0.022960735 0.1422296
0.52803409 -0.022231298 0.14222516
0.52805626 -0.021501863 0.14222072
0.52807844 -0.020772429 0.14221627
0.52810061 -0.020042989 0.14221182
0.52812278 -0.019313555 0.14220738
0.52814496 -0.018584121 0.14220293
0.52816713 -0.017854683 0.14219849
0.5281893 -0.017125249 0.14219405
0.52821147 -0.016395815 0.14218961
0.52823365 -0.015666377 0.14218515
0.52825582 -0.014936944 0.14218071
0.52827799 -0.014207506 0.14217627
0.52830017 -0.013478068 0.14217182
0.52832234 -0.012748634 0.14216737
0.52834451 -0.0120192 0.14216293
0.52836663 -0.011289762 0.14215848
0.5283888 -0.010560328 0.14215404
0.52841097 -0.0098308912 0.1421496
0.52843314 -0.009101457 0.14214516
0.52845532 -0.008372019 0.1421407
0.52847749 -0.0076425853 0.14213626
0.52849966 -0.0069131474 0.14213182
0.52852184 -0.0061837137 0.14212736
0.52854401 -0.0054542758 0.14212292
0.52856618 -0.004724842 0.14211848
0.52858835 -0.0039954078 0.14211404
0.52861053 -0.0032659704 0.14210959
0.52768278 -0.0025884416 0.14168473
0.52770501 -0.0018574139 0.14168027
0.52772725 -0.0011263863 0.14167581
0.52774942 -0.00039535869 0.14167136
0.52777165 0.00033566894 0.1416669
0.52779388 0.0010666966 0.14166246
0.5268665 0.0017553695 0.14123751
0.52688873 0.0024879908 0.14123306
0.52691102 0.0032206138 0.14122859
0.52693331 0.0039532352 0.14122412
0.5260061 0.004649872 0.14079912
0.52602839 0.0053840848 0.14079465
0.52605075 0.006118298 0.14079018
0.52607304 0.0068525109 0.14078571
0.52609533 0.007586726 0.14078122
0.52516848 0.0082929181 0.14035618
0.52519083 0.0090287244 0.1403517
0.52521324 0.0097645298 0.14034721
0.52428651 0.010477093 0.13992213
0.52430892 0.011214492 0.13991763
0.52338237 0.011931835 0.13949253
0.52340484 0.012670824 0.13948803
0.5224784 0.013392945 0.13906287
0.52250093 0.014133529 0.13905835
0.52157468 0.014860425 0.13863318
0.52159721 0.015602605 0.13862866
0.52067113 0.016334279 0.13820346
0.52069372 0.017078048 0.13819893
0.51976776 0.0178145 0.13777368
0.51884192 0.018554142 0.13734844
0.51886457 0.019301096 0.1373439
0.51793885 0.020045511 0.13691859
0.51701325 0.020793114 0.13649331
0.51608771 0.0215439 0.13606799
0.51611054 0.022295633 0.1360634
0.51518518 0.023051199 0.13563804
0.51425987 0.023809949 0.13521267
0.51333469 0.024571884 0.13478729
0.51240957 0.025337007 0.13436189
0.51243263 0.026095109 0.13435727
0.51150769 0.026865007 0.13393183
0.5105828 0.027638091 0.13350637
0.50965804 0.028414361 0.1330809
0.50873339 0.029193817 0.1326554
0.5078088 0.029976457 0.13222988
0.50688434 0.030762281 0.13180436
0.50595999 0.031551294 0.1313788
0.5050357 0.032343488 0.13095322
0.50505912 0.033114333 0.13094853
0.50413501 0.033911306 0.13052292
0.52253479 -0.062543087 0.13979632
0.52351004 -0.061626323 0.14021271
0.52353239 -0.060890511 0.14020823
0.52355474 -0.06015471 0.14020376
0.52357709 -0.059418902 0.14019927
0.51348722 -0.048532788 0.13549116
0.51446187 -0.047633547 0.13590766
0.5144847 -0.04688181 0.13590308
0.5154593 -0.045987349 0.13631962
0.51548207 -0.045237206 0.13631505
0.51645643 -0.044347525 0.13673159
0.51743078 -0.043461021 0.13714817
0.51745349 -0.042714071 0.13714363
0.51842761 -0.041832346 0.13756022
0.51845026 -0.041086983 0.13755569
0.51942426 -0.040210038 0.13797233
0.52039814 -0.039336279 0.13838898
0.52042073 -0.038594104 0.13838446
0.52044326 -0.03785193 0.13837993
0.52141696 -0.036984544 0.13879661
0.52143949 -0.036243957 0.1387921
0.52241307 -0.035381347 0.13920882
0.52243555 -0.03464235 0.13920432
0.52340889 -0.033784524 0.13962108
0.52343136 -0.033047128 0.13961658
0.52440464 -0.032194067 0.14003336
0.524427 -0.031458266 0.14002888
0.52444935 -0.030722458 0.14002439
0.52542239 -0.029875778 0.14044121
0.52544475 -0.029141562 0.14043674
0.52641767 -0.028299648 0.14085358
0.52643996 -0.027567035 0.14084913
0.5264622 -0.02683441 0.14084466
0.52743495 -0.025998881 0.14126155
0.52745718 -0.025267851 0.14125709
0.52747941 -0.024536822 0.14125264
0.52750158 -0.023805792 0.14124818
0.52752382 -0.023074763 0.14124373
0.52849627 -0.022248786 0.14166066
0.52851844 -0.021519352 0.14165622
0.52854061 -0.020789918 0.14165176
0.52856278 -0.020060478 0.14164732
0.52858496 -0.019331044 0.14164288
0.52860713 -0.018601609 0.14163843
0.5286293 -0.017872171 0.14163399
0.52865148 -0.017142737 0.14162955
0.52867365 -0.016413303 0.14162511
0.52869582 -0.015683865 0.14162065
0.52871799 -0.014954432 0.14161621
0.52874017 -0.014224994 0.14161177
0.52876234 -0.013495556 0.14160731
0.52878451 -0.012766123 0.14160287
0.52880669 -0.012036689 0.14159843
0.52882886 -0.011307251 0.14159398
0.52885103 -0.010577817 0.14158954
0.52887321 -0.0098483795 0.1415851
0.52889538 -0.0091189453 0.14158066
0.52891755 -0.0083895074 0.1415762
0.52893972 -0.0076600737 0.14157176
0.5289619 -0.0069306358 0.14156732
0.52898407 -0.006201202 0.14156286
0.52900624 -0.0054717641 0.14155842
0.52902836 -0.0047423304 0.14155398
0.52810156 -0.0040680268 0.1411279
0.52812374 -0.0033369993 0.14112344
0.52814597 -0.0026059679 0.14111899
0.5281682 -0.0018749404 0.14111455
0.52819043 -0.0011439128 0.14111009
0.52821267 -0.00041288516 0.14110564
0.52728617 0.00027256599 0.14067948
0.5273084 0.0010051836 0.14067501
0.5273307 0.0017378049 0.14067055
0.52735293 0.002470426 0.14066608
0.52737522 0.0032030493 0.14066161
0.52644897 0.0038980539 0.14023539
0.52647132 0.004632269 0.14023092
0.52649361 0.0053664818 0.14022645
0.52651596 0.0061006951 0.14022198
0.52558994 0.0068036639 0.13979572
0.52561235 0.0075394725 0.13979125
0.52563471 0.008275277 0.13978676
0.52565706 0.0090110842 0.13978228
0.52473134 0.009722014 0.13935596
0.52475375 0.010459415 0.13935146
0.52382815 0.011175125 0.13892512
0.52385062 0.011914117 0.13892062
0.52292514 0.012634603 0.13849425
0.52294767 0.013375189 0.13848974
0.52202237 0.014100456 0.13806334
0.52204496 0.014842632 0.13805883
0.52111977 0.015572677 0.1376324
0.52114242 0.016316447 0.13762787
0.52021736 0.017051268 0.1372014
0.51929247 0.017789276 0.13677493
0.51931518 0.018536232 0.13677038
0.51839042 0.019279018 0.13634387
0.51746577 0.020024989 0.13591735
0.51748854 0.020775128 0.13591278
0.51656401 0.021525877 0.13548623
0.5156396 0.022279812 0.13505965
0.51566249 0.023033137 0.13505507
0.5147382 0.02379185 0.13462846
0.51381403 0.024553746 0.13420184
0.51288992 0.025318831 0.1337752
0.51291299 0.026076933 0.13377059
0.511989 0.026846794 0.13334391
0.51106519 0.027619841 0.13291723
0.51014143 0.028396072 0.13249052
0.5092178 0.029175488 0.13206379
0.50829422 0.02995809 0.13163704
0.50737077 0.030743876 0.13121027
0.50644743 0.03153285 0.1307835
0.50552416 0.032325007 0.13035668
0.504601 0.033120349 0.12992986
0.50462449 0.033892788 0.12992515
0.51595736 -0.045255192 0.13573453
0.51598018 -0.044505052 0.13572995
0.51695353 -0.043616921 0.13614774
0.51792675 -0.042731978 0.13656557
0.51794946 -0.041985024 0.13656101
0.51892251 -0.041104853 0.13697886
0.51989555 -0.040227868 0.13739674
0.51991814 -0.039484099 0.13739221
0.51994073 -0.038740329 0.13738766
0.52091354 -0.037869722 0.13780557
0.52093607 -0.037127547 0.13780104
0.5219087 -0.036261711 0.13821898
0.52193123 -0.035521131 0.13821447
0.52195376 -0.034780547 0.13820995
0.52292621 -0.033921082 0.13862793
0.52294868 -0.033182092 0.13862343
0.52392095 -0.032327406 0.13904142
0.52394342 -0.031590011 0.13903692
0.52491558 -0.030740099 0.13945496
0.52493793 -0.030004296 0.13945048
0.52590996 -0.029159164 0.13986854
0.52593225 -0.028424947 0.13986407
0.5259546 -0.027690738 0.1398596
0.5269264 -0.026851974 0.1402777
0.52694869 -0.026119357 0.14027324
0.52697098 -0.025386732 0.14026877
0.5279426 -0.024554349 0.1406869
0.52796483 -0.023823317 0.14068244
0.527987 -0.02309229 0.14067799
0.52800924 -0.022361262 0.14067353
0.52803147 -0.021630235 0.14066908
0.5280537 -0.020899206 0.14066462
0.52807593 -0.020168176 0.14066017
0.52809811 -0.019437149 0.14065573
0.52812034 -0.018706121 0.14065127
0.52909148 -0.01788966 0.1410695
0.52911365 -0.017160226 0.14106505
0.52913582 -0.016430791 0.14106061
0.529158 -0.015701354 0.14105617
0.52918017 -0.01497192 0.14105171
0.52920234 -0.014242482 0.14104727
0.52922451 -0.013513044 0.14104283
0.52924669 -0.01278361 0.14103837
0.52926886 -0.012054177 0.14103393
0.52929103 -0.011324739 0.14102949
0.52931321 -0.010595305 0.14102505
0.52933538 -0.009865867 0.1410206
0.52935755 -0.0091364337 0.14101616
0.52937973 -0.0084069958 0.14101171
0.5294019 -0.0076775616 0.14100726
0.52942407 -0.0069481242 0.14100282
0.52849805 -0.0062786401 0.14057553
0.52852029 -0.0055476124 0.14057107
0.52854252 -0.0048165848 0.14056663
0.52856475 -0.0040855533 0.14056218
0.52858698 -0.0033545259 0.14055772
0.52860916 -0.0026234945 0.14055327
0.52863139 -0.0018924669 0.14054881
0.52865362 -0.0011614392 0.14054435
0.52772808 -0.00047761964 0.14011699
0.52775037 0.00025500162 0.14011252
0.52777261 0.00098761916 0.14010805
0.5277949 0.0017202405 0.14010359
0.52686954 0.0024120216 0.13967615
0.52689189 0.0031462384 0.13967168
0.52691418 0.0038804514 0.13966721
0.52693653 0.0046146661 0.13966274
0.52601147 0.0053144111 0.13923526
0.52603382 0.0060502179 0.13923077
0.52605617 0.0067860228 0.13922629
0.52607858 0.0075218314 0.1392218
0.5251537 0.0082295379 0.13879427
0.52517617 0.0089669358 0.13878979
0.52519858 0.0097043347 0.13878529
0.52427393 0.010418417 0.13835774
0.5242964 0.011157407 0.13835324
0.52337188 0.011876266 0.13792564
0.52339441 0.012616848 0.13792112
0.52247006 0.013340486 0.13749351
0.52249265 0.014082662 0.13748898
0.52156848 0.014811076 0.13706134
0.52159107 0.015554845 0.13705681
0.52066702 0.016288038 0.13662912
0.52068967 0.017033398 0.13662457
0.51976579 0.017771367 0.13619687
0.51884192 0.018512525 0.13576914
0.51886469 0.019261071 0.13576458
0.51794106 0.020007003 0.13533683
0.51701748 0.020756122 0.13490905
0.51704031 0.021507854 0.13490447
0.51611692 0.02226175 0.13447666
0.51519358 0.023018831 0.13404883
0.51521653 0.02377375 0.13404423
0.51429337 0.024535609 0.13361639
0.51337028 0.025300656 0.13318852
0.5124473 0.026068885 0.13276063
0.51247036 0.02682858 0.13275599
0.51154757 0.027601589 0.13232808
0.51062483 0.028377781 0.13190013
0.50970215 0.02915716 0.13147217
0.50877959 0.029939724 0.13104419
0.50785714 0.030725472 0.13061619
0.50693482 0.031514406 0.13018818
0.50601256 0.032306526 0.12976013
0.50603598 0.03307737 0.12975544
0.5051139 0.03387427 0.12932737
0.51448768 -0.047062255 0.134316
0.51546019 -0.046166126 0.13473497
0.51548308 -0.045414396 0.1347304
0.5164783 -0.043772895 0.13514484
0.51745057 -0.042886324 0.13556388
0.51842272 -0.042002931 0.13598295
0.51844543 -0.041255973 0.13597839
0.51941746 -0.040377367 0.13639748
0.51944011 -0.039631996 0.13639294
0.52041203 -0.038758162 0.13681208
0.52043462 -0.038014393 0.13680753
0.52045721 -0.037270624 0.136803
0.52142894 -0.036403164 0.13722216
0.52145147 -0.03566099 0.13721763
0.52242303 -0.034798302 0.13763681
0.5224455 -0.034057714 0.1376323
0.52341694 -0.033199809 0.13805151
0.52343941 -0.032460812 0.13804701
0.52441061 -0.031607691 0.13846625
0.52443302 -0.030870289 0.13846177
0.52445549 -0.030132893 0.13845727
0.52542657 -0.029286122 0.13887656
0.52544892 -0.028550318 0.13887207
0.52641982 -0.027708342 0.13929138
0.52644211 -0.026974123 0.13928691
0.52646446 -0.026239911 0.13928244
0.52743518 -0.025404297 0.1397018
0.52745742 -0.024671679 0.13969733
0.52747971 -0.023939058 0.13969287
0.527502 -0.023206437 0.1396884
0.52847242 -0.022378789 0.1401078
0.52849466 -0.021647761 0.14010334
0.52851689 -0.020916734 0.14009888
0.52853912 -0.020185703 0.14009443
0.52856135 -0.019454675 0.14008997
0.52858353 -0.018723648 0.14008552
0.52860576 -0.017992619 0.14008106
0.52862799 -0.017261593 0.14007661
0.52865022 -0.016530564 0.14007217
0.5286724 -0.015799537 0.14006771
0.52869463 -0.015068506 0.14006326
0.52871686 -0.014337474 0.1400588
0.52873909 -0.013606447 0.14005435
0.52876133 -0.012875419 0.14004989
0.5287835 -0.012144391 0.14004543
0.52880573 -0.011413364 0.14004098
0.52882797 -0.010682336 0.14003652
0.5288502 -0.0099513084 0.14003207
0.52887243 -0.0092202807 0.14002761
0.5288946 -0.0084892493 0.14002316
0.52891684 -0.0077582221 0.1400187
0.52893907 -0.0070271944 0.14001425
0.5289613 -0.0062961667 0.14000979
0.52898353 -0.005565139 0.14000534
0.52900571 -0.0048341113 0.14000088
0.52902794 -0.0041030804 0.13999642
0.52905017 -0.0033720525 0.13999197
0.5290724 -0.0026410213 0.13998751
0.52814776 -0.0019604273 0.13955894
0.52817005 -0.001227806 0.13955447
0.52819228 -0.00049518468 0.13955
0.52821457 0.00023743657 0.13954554
0.52823681 0.00097005413 0.13954107
0.52731246 0.0016602071 0.13911241
0.52733481 0.0023944182 0.13910794
0.5273571 0.003128635 0.13910347
0.52643299 0.0038251581 0.13867478
0.52645534 0.0045609646 0.13867031
0.52647769 0.0052967696 0.13866583
0.52650005 0.0060325763 0.13866134
0.52652246 0.0067683812 0.13865685
0.52559853 0.0074744597 0.1382281
0.52562094 0.0082118586 0.1382236
0.52564335 0.0089492565 0.13821912
0.52471972 0.0096617071 0.13779034
0.52474219 0.010400699 0.13778582
0.52381867 0.011117926 0.13735701
0.52384114 0.01185851 0.1373525
0.52291781 0.012580513 0.13692366
0.52294034 0.013322692 0.13691914
0.52201712 0.014049475 0.13649027
0.52203971 0.014793244 0.13648574
0.52111661 0.015524806 0.13605683
0.52113926 0.016270168 0.1360523
0.52021635 0.017006505 0.13562335
0.52023906 0.01775346 0.13561881
0.51931626 0.018494576 0.13518983
0.51839358 0.01923888 0.13476087
0.51841635 0.019989019 0.1347563
0.51749378 0.020738099 0.13432728
0.51657134 0.021490363 0.13389826
0.51659423 0.02224369 0.13389367
0.51567191 0.023000732 0.1334646
0.51474971 0.023760961 0.13303553
0.51477271 0.024517471 0.13303092
0.51385063 0.02528248 0.13260183
0.51292866 0.02605067 0.13217269
0.51295173 0.026810367 0.13216807
0.51202995 0.027583336 0.13173892
0.51110816 0.028359491 0.13130973
0.51018655 0.029138831 0.13088055
0.50926501 0.029921357 0.13045132
0.50834358 0.030707067 0.13002211
0.50742227 0.031495962 0.12959287
0.50650096 0.032288045 0.12916358
0.50652444 0.033058889 0.12915888
0.50560331 0.033855751 0.12872958
0.5046823 0.034655795 0.12830025
0.514965 -0.047080316 0.13373302
0.51498789 -0.046326991 0.13372843
0.51595938 -0.045432419 0.13414864
0.51598221 -0.044680685 0.13414405
0.51697642 -0.043040741 0.13455975
0.51794761 -0.04215572 0.13498002
0.51891875 -0.041273881 0.13540034
0.51894146 -0.040526927 0.13539578
0.51991242 -0.039649867 0.13581611
0.51993507 -0.03890451 0.13581158
0.51995772 -0.038159147 0.13580704
0.5209285 -0.037288457 0.1362274
0.52095109 -0.036544688 0.13622287
0.52192175 -0.035678782 0.13664328
0.52194428 -0.034936599 0.13663875
0.52196687 -0.034194425 0.13663423
0.5229373 -0.033334889 0.13705465
0.52295977 -0.032594305 0.13705014
0.52393007 -0.031739544 0.13747062
0.52395254 -0.031000547 0.13746612
0.52492267 -0.030150572 0.13788661
0.52494508 -0.029413169 0.13788211
0.52591515 -0.028567959 0.13830264
0.5259375 -0.027832154 0.13829817
0.52595985 -0.027096344 0.13829368
0.52692968 -0.026257515 0.13871424
0.52695197 -0.025523299 0.13870977
0.52697426 -0.024789089 0.1387053
0.52794391 -0.023956623 0.1391259
0.5279662 -0.023224002 0.13912144
0.52798843 -0.022491381 0.13911697
0.52801073 -0.021758759 0.13911252
0.52803302 -0.021026138 0.13910805
0.52805525 -0.020293517 0.13910358
0.52807754 -0.019560894 0.13909912
0.52904677 -0.018741174 0.1395198
0.52906895 -0.018010147 0.13951534
0.52909118 -0.017279118 0.13951088
0.52911341 -0.016548092 0.13950643
0.52913564 -0.015817063 0.13950197
0.52915782 -0.015086032 0.13949752
0.52918005 -0.014355001 0.13949306
0.52920228 -0.013623973 0.13948861
0.52922451 -0.012892946 0.13948415
0.52924675 -0.012161918 0.1394797
0.52926892 -0.01143089 0.13947524
0.52929115 -0.010699863 0.13947079
0.52931339 -0.0099688349 0.13946633
0.52933562 -0.0092378072 0.13946187
0.52935785 -0.0085067758 0.13945742
0.52938002 -0.0077757486 0.13945296
0.52940226 -0.0070447209 0.13944851
0.52942449 -0.0063136932 0.13944405
0.52944672 -0.0055826656 0.13943961
0.52946889 -0.0048516379 0.13943516
0.52949113 -0.0041206065 0.1394307
0.52856743 -0.0034432344 0.13900091
0.52858973 -0.002710613 0.13899644
0.52861196 -0.0019779918 0.13899197
0.52863425 -0.0012453705 0.13898751
0.52865648 -0.00051274925 0.13898304
0.52773303 0.00017417817 0.13855317
0.52775538 0.0009083894 0.1385487
0.52777767 0.0016426044 0.13854422
0.52780002 0.0023768155 0.13853975
0.52687681 0.0030717105 0.13810985
0.52689922 0.0038075172 0.13810536
0.52692157 0.004543324 0.13810088
0.52694392 0.0052791289 0.13809639
0.52602094 0.0059819818 0.13766643
0.52604336 0.0067193802 0.13766193
0.52606577 0.0074567809 0.13765745
0.52514303 0.0081660077 0.13722745
0.5251655 0.0089049973 0.13722295
0.52518797 0.0096439896 0.13721845
0.52426541 0.010359586 0.1367884
0.52428788 0.01110017 0.13678388
0.5233655 0.011820544 0.13635382
0.52338803 0.012562719 0.13634931
0.52246577 0.013287873 0.1359192
0.52248842 0.014031642 0.13591467
0.52156627 0.014761571 0.13548455
0.52158892 0.015506936 0.13548
0.52066696 0.016241642 0.13504985
0.52068967 0.016988598 0.1350453
0.51976782 0.017728083 0.13461511
0.51979053 0.018476631 0.13461055
0.51886886 0.019220894 0.13418035
0.51794726 0.019968344 0.13375011
0.51797009 0.020720076 0.13374552
0.51704866 0.021472303 0.13331528
0.51707155 0.02222563 0.13331069
0.51615024 0.022982633 0.13288039
0.51522905 0.023742823 0.13245009
0.51525205 0.024499334 0.13244547
0.51433098 0.025264304 0.13201514
0.51341003 0.026032455 0.13158476
0.51248914 0.026803795 0.1311544
0.51251233 0.027565084 0.13114977
0.51159155 0.0283412 0.13071935
0.51067096 0.029120503 0.13028893
0.50975043 0.029902991 0.12985848
0.50883001 0.030688664 0.12942803
0.50790966 0.031477522 0.12899753
0.50698942 0.032269564 0.12856704
0.50701284 0.033040408 0.12856235
0.50609279 0.033837229 0.12813181
0.50517273 0.034637239 0.12770125
0.51447165 -0.047997776 0.13272859
0.5144946 -0.047242854 0.13272399
0.51451755 -0.046487942 0.13271938
0.51548809 -0.045591727 0.13314085
0.51551104 -0.044838406 0.13313626
0.5164814 -0.04394697 0.13355772
0.51747453 -0.042308584 0.13397466
0.51844466 -0.041425116 0.13439618
0.51846743 -0.040676575 0.13439161
0.51943743 -0.039797876 0.13481317
0.51946014 -0.039050929 0.13480863
0.52042997 -0.038177017 0.1352302
0.52045268 -0.037431654 0.13522565
0.52047533 -0.03668629 0.13522112
0.52144498 -0.035818756 0.13564275
0.52146763 -0.035074979 0.13563822
0.5224371 -0.034212217 0.13605987
0.52245969 -0.033470042 0.13605535
0.52342904 -0.032612059 0.13647701
0.52345157 -0.031871479 0.13647251
0.52347404 -0.031130889 0.13646799
0.52444327 -0.030279275 0.13688973
0.52446574 -0.02954028 0.13688521
0.52543473 -0.028693447 0.13730696
0.52545714 -0.027956048 0.13730246
0.52642608 -0.027113985 0.13772425
0.52644843 -0.026378185 0.13771977
0.52647078 -0.025642376 0.13771528
0.52743948 -0.024806691 0.1381371
0.52746183 -0.024072476 0.13813262
0.52748412 -0.023338262 0.13812815
0.52750647 -0.02260405 0.13812368
0.52752876 -0.021869835 0.13811921
0.52849722 -0.021043703 0.13854107
0.52851945 -0.020311082 0.13853662
0.52854174 -0.019578459 0.13853215
0.52856398 -0.018845838 0.13852769
0.52858627 -0.018113216 0.13852322
0.52860856 -0.017380595 0.13851875
0.52863079 -0.016647978 0.1385143
0.52865309 -0.015915357 0.13850982
0.52867532 -0.015182735 0.13850537
0.52869761 -0.01445011 0.1385009
0.5287199 -0.013717493 0.13849643
0.52874213 -0.012984872 0.13849197
0.52876443 -0.012252251 0.1384875
0.52878666 -0.01151963 0.13848305
0.52880895 -0.010787008 0.13847858
0.52883124 -0.010054391 0.13847411
0.52885348 -0.0093217688 0.13846965
0.52982104 -0.0085243024 0.1388917
0.52984321 -0.0077932747 0.13888724
0.52986544 -0.007062247 0.13888279
0.52894258 -0.0063912841 0.13845178
0.52896482 -0.0056586629 0.13844733
0.52898711 -0.0049260417 0.13844286
0.52900934 -0.0041934205 0.1384384
0.52903163 -0.0034607991 0.13843393
0.52905393 -0.0027281777 0.13842946
0.52907616 -0.0019955565 0.13842501
0.52815366 -0.0013118507 0.13799393
0.52817595 -0.0005776395 0.13798945
0.52819824 0.00015657544 0.13798498
0.52822059 0.00089078664 0.13798051
0.52824289 0.0016250015 0.13797604
0.52732068 0.002318261 0.1375449
0.52734303 0.0030540696 0.13754041
0.52736539 0.0037898764 0.13753593
0.5273878 0.0045256829 0.13753144
0.52646577 0.0052269041 0.13710025
0.52648818 0.0059643025 0.13709576
0.5265106 0.0067017009 0.13709126
0.52558881 0.0074092979 0.13666005
0.52561128 0.0081482902 0.13665555
0.52563375 0.0088872807 0.13665105
0.52471215 0.0096012447 0.13621978
0.52473462 0.010341831 0.13621527
0.52381319 0.011060574 0.13578399
0.52383578 0.01180275 0.13577947
0.52291447 0.01252627 0.13534814
0.52293706 0.013270041 0.13534361
0.52201587 0.01399834 0.13491225
0.52203852 0.014743701 0.13490772
0.52111751 0.015476779 0.13447635
0.52114022 0.016223734 0.1344718
0.52021933 0.016961589 0.13404039
0.52024209 0.017710136 0.13403583
0.51932138 0.018452769 0.13360439
0.51934415 0.01920291 0.13359982
0.51842356 0.019950321 0.13316835
0.51750308 0.020700917 0.13273688
0.51752597 0.021454241 0.13273229
0.51660562 0.022209616 0.13230076
0.51568538 0.022968175 0.13186924
0.51570839 0.023724686 0.13186464
0.51478833 0.024488024 0.13143308
0.51481134 0.025246128 0.13142847
0.5138914 0.026014242 0.13099685
0.51297152 0.026785543 0.13056526
0.51205176 0.027560029 0.13013361
0.51207495 0.028322911 0.13012896
0.51115537 0.029102175 0.12969732
0.51023579 0.029884623 0.12926564
0.50931638 0.030670257 0.12883393
0.5083971 0.031459078 0.12840223
0.50747782 0.032251082 0.12797049
0.5075013 0.033021927 0.12796578
0.5065822 0.033818711 0.12753403
0.50566322 0.034618679 0.12710224
0.51402628 -0.047405466 0.1317125
0.51404929 -0.046648953 0.13170789
0.51407224 -0.045892444 0.13170327
0.51504177 -0.044996206 0.13212596
0.51601124 -0.044103134 0.13254866
0.51603413 -0.043349817 0.13254407
0.51797265 -0.04157643 0.13338955
0.51799542 -0.040826295 0.13338499
0.51896447 -0.039945971 0.13380776
0.51898724 -0.03919743 0.13380319
0.51995611 -0.038321879 0.13422601
0.51997882 -0.037574932 0.13422145
0.52000153 -0.036827974 0.1342169
0.52097023 -0.035958808 0.13463974
0.52099288 -0.035213437 0.1346352
0.52196151 -0.034349043 0.13505809
0.5219841 -0.033605274 0.13505355
0.5229525 -0.032745659 0.13547644
0.52297503 -0.032003485 0.13547193
0.52394331 -0.031148644 0.13589485
0.52396584 -0.030408062 0.13589033
0.52398837 -0.02966748 0.13588583
0.52495646 -0.028819006 0.1363088
0.52497888 -0.028080016 0.1363043
0.5259468 -0.027236326 0.1367273
0.52596921 -0.026498931 0.1367228
0.52599162 -0.025761528 0.13671832
0.52695942 -0.024924213 0.13714136
0.52698177 -0.024188405 0.13713688
0.52700412 -0.023452599 0.13713239
0.52797168 -0.022621654 0.13755547
0.52799398 -0.021887438 0.13755098
0.52801633 -0.021153226 0.13754651
0.52803862 -0.020419009 0.13754204
0.52806097 -0.019684797 0.13753757
0.52808326 -0.018950583 0.13753308
0.52810556 -0.018216372 0.13752861
0.52907276 -0.01739816 0.13795178
0.52909499 -0.016665542 0.13794732
0.52911729 -0.015932921 0.13794285
0.52913958 -0.0152003 0.1379384
0.52916181 -0.014467675 0.13793392
0.5291841 -0.013735058 0.13792945
0.52920634 -0.013002437 0.137925
0.52922863 -0.012269815 0.13792053
0.52925092 -0.011537194 0.13791607
0.52927315 -0.010804573 0.1379116
0.52929544 -0.010071956 0.13790713
0.52931768 -0.0093393344 0.13790268
0.52933997 -0.0086067095 0.13789821
0.52936226 -0.0078740874 0.13789375
0.52938449 -0.0071414667 0.13788928
0.52940679 -0.0064088488 0.13788481
0.52942902 -0.0056762276 0.13788036
0.52945131 -0.0049436064 0.13787588
0.5294736 -0.0042109853 0.13787143
0.52949584 -0.0034783639 0.13786696
0.52857423 -0.0027978839 0.13743466
0.52859652 -0.0020636688 0.13743019
0.52861887 -0.001329454 0.13742571
0.52864116 -0.00059524277 0.13742124
0.52866352 0.00013897216 0.13741677
0.52774221 0.00082900986 0.13698442
0.52776456 0.0015648147 0.13697994
0.52778691 0.0023006196 0.13697545
0.52780926 0.0030364282 0.13697097
0.52783167 0.003772235 0.1369665
0.5269106 0.0044718259 0.13653408
0.52693301 0.0052092248 0.13652958
0.52695543 0.0059466232 0.13652509
0.52603459 0.006652588 0.13609265
0.52605706 0.0073915799 0.13608815
0.52607954 0.0081305727 0.13608365
0.52515888 0.0088429051 0.13565116
0.52518141 0.009583489 0.13564664
0.52426088 0.010300602 0.13521414
0.52428347 0.01104278 0.13520961
0.52336311 0.011764669 0.13477708
0.5233857 0.012508438 0.13477255
0.52246553 0.013235108 0.13433997
0.52248818 0.01398047 0.13433543
0.52156812 0.014711916 0.13390283
0.52159083 0.015458871 0.13389829
0.52067089 0.016195096 0.13346565
0.52069366 0.016943643 0.13346109
0.5197739 0.017684644 0.13302843
0.51979667 0.018434785 0.13302386
0.51887703 0.019180564 0.13259116
0.51889992 0.019932296 0.13258658
0.51798046 0.020682856 0.13215387
0.51800334 0.021436181 0.13214928
0.517084 0.022191517 0.13171653
0.51616478 0.022950036 0.13128377
0.51618773 0.023706548 0.13127916
0.51526868 0.024469849 0.13084638
0.51434964 0.025236333 0.13041355
0.51437277 0.025996028 0.13040893
0.5134539 0.026767291 0.12997609
0.51253515 0.027541738 0.12954322
0.51161653 0.028319372 0.12911035
0.51163971 0.029083846 0.12910569
0.51072121 0.029866258 0.12867278
0.50980282 0.030651852 0.12823984
0.50888449 0.031440634 0.1278069
0.50796628 0.032232601 0.12737393
0.5079897 0.033003446 0.12736923
0.50707161 0.033800192 0.12693624
0.5070951 0.034572627 0.12693153
0.51452863 -0.046667092 0.13112244
0.51455158 -0.045910582 0.13111784
0.51457459 -0.045154076 0.13111323
0.51459759 -0.044397559 0.13110861
0.51556599 -0.043504469 0.13153253
0.51752543 -0.040976088 0.13237588
0.51754826 -0.040224351 0.13237131
0.51851636 -0.039343998 0.13279532
0.51853913 -0.038593855 0.13279074
0.51950699 -0.037718281 0.13321479
0.51952976 -0.036969732 0.13321023
0.52049756 -0.036098924 0.1336343
0.52052027 -0.035351969 0.13362974
0.52148783 -0.034485944 0.13405383
0.52151048 -0.033740588 0.1340493
0.52247798 -0.032879334 0.13447343
0.52250057 -0.032135565 0.1344689
0.5234679 -0.031279095 0.13489304
0.52349043 -0.030536925 0.13488853
0.52445757 -0.029685237 0.13531271
0.5244801 -0.028944647 0.13530819
0.52544713 -0.028097734 0.13573241
0.5254696 -0.027358742 0.1357279
0.52549207 -0.026619753 0.1357234
0.52645886 -0.025779208 0.13614765
0.52648127 -0.025041813 0.13614316
0.52650368 -0.02430441 0.13613866
0.52747035 -0.02347024 0.13656296
0.5274927 -0.022734435 0.13655847
0.52751511 -0.021998627 0.13655399
0.52753747 -0.021262823 0.13654952
0.52755982 -0.020527013 0.13654503
0.52852613 -0.019702401 0.13696937
0.52854848 -0.018968185 0.1369649
0.52857077 -0.018233974 0.13696042
0.52859312 -0.01749976 0.13695595
0.52861542 -0.016765548 0.13695148
0.52863777 -0.016031332 0.13694701
0.52866006 -0.015297121 0.13694252
0.52868235 -0.014562903 0.13693805
0.5287047 -0.013828692 0.13693358
0.52872699 -0.013094477 0.13692911
0.52874935 -0.012360262 0.13692462
0.52877164 -0.011626051 0.13692015
0.52879393 -0.010891836 0.13691568
0.52975965 -0.01008952 0.13734017
0.52978194 -0.0093568992 0.1373357
0.52980417 -0.0086242734 0.13733125
0.52982646 -0.0078916522 0.13732678
0.52984869 -0.0071590315 0.13732232
0.52987099 -0.0064264135 0.13731785
0.52989328 -0.0056937924 0.13731338
0.52991551 -0.0049611712 0.13730893
0.5289948 -0.0042839167 0.13687542
0.52901715 -0.0035497015 0.13687094
0.52903944 -0.0028154866 0.13686647
0.52906173 -0.0020812717 0.13686199
0.52908409 -0.0013470567 0.13685752
0.52910638 -0.00061284553 0.13685304
0.52818602 7.5560347e-05 0.13641948
0.52820843 0.00081136893 0.13641499
0.52823079 0.0015471738 0.13641052
0.52825314 0.0022829787 0.13640603
0.52827549 0.0030187874 0.13640155
0.52735543 0.0037167484 0.13596791
0.52737784 0.0044541471 0.13596343
0.52740026 0.0051915455 0.13595892
0.52648038 0.0058958782 0.13552526
0.52650285 0.0066348705 0.13552076
0.52652532 0.0073738629 0.13551626
0.52560562 0.0080845654 0.13508254
0.52562815 0.0088251494 0.13507803
0.52470863 0.0095406314 0.1346443
0.52473116 0.010282809 0.13463978
0.52381182 0.011003069 0.13420601
0.52383441 0.011746837 0.13420148
0.52291512 0.012471873 0.13376768
0.52293777 0.013217238 0.13376315
0.52296042 0.013962599 0.1337586
0.52204138 0.014694008 0.13332477
0.52206409 0.015440962 0.13332023
0.52114516 0.016177149 0.13288637
0.52116793 0.016925696 0.13288179
0.52024919 0.017666658 0.13244791
0.52027202 0.0184168 0.13244334
0.51935339 0.019162541 0.13200942
0.51843488 0.019911468 0.13157548
0.51845777 0.020664794 0.13157089
0.51753938 0.021418499 0.13113692
0.51662111 0.02217539 0.13070294
0.51664412 0.0229319 0.13069832
0.51572597 0.023693569 0.13026431
0.51574904 0.024451673 0.13025969
0.51483101 0.02521812 0.12982564
0.51485413 0.025977815 0.12982102
0.51393628 0.026749039 0.12938695
0.51301855 0.027523449 0.12895285
0.51210088 0.028301043 0.12851873
0.51212412 0.029065518 0.12851408
0.51120663 0.02984789 0.12807992
0.51028919 0.03063345 0.12764576
0.50937194 0.03142219 0.1272116
0.50845468 0.03221412 0.12677738
0.50847811 0.032984965 0.12677269
0.50758457 0.034554109 0.12633376
0.51500797 -0.04668523 0.13053699
0.51408637 -0.046070121 0.13010263
0.51410943 -0.045312025 0.13009802
0.5141325 -0.044553921 0.1300934
0.51415551 -0.043795813 0.13008878
0.51512295 -0.042902682 0.13051394
0.5151459 -0.042146161 0.13050933
0.51611316 -0.04125781 0.13093452
0.51613611 -0.040502891 0.13092992
0.51710325 -0.039619304 0.13135515
0.51807028 -0.038738914 0.13178039
0.51809317 -0.037987184 0.1317758
0.51906002 -0.037111558 0.13220108
0.5200268 -0.036239129 0.13262637
0.52004957 -0.035490576 0.13262181
0.52101624 -0.034622919 0.13304713
0.52103895 -0.033875972 0.13304259
0.52200544 -0.033013087 0.13346793
0.52297187 -0.032153398 0.1338933
0.52299446 -0.031409629 0.13388877
0.52396071 -0.030554719 0.13431416
0.52398324 -0.029812537 0.13430963
0.52400583 -0.029070357 0.13430512
0.52497184 -0.02822182 0.13473055
0.52499437 -0.027481234 0.13472603
0.5250169 -0.026740652 0.13472152
0.5259828 -0.025898475 0.13514701
0.52600521 -0.025159486 0.13514251
0.52697092 -0.024322089 0.13556801
0.52699333 -0.023584692 0.13556351
0.52701575 -0.022847293 0.13555902
0.52703816 -0.022109894 0.13555452
0.52706057 -0.021372495 0.13555002
0.52802604 -0.020544654 0.1359756
0.5280484 -0.019808849 0.13597111
0.52807075 -0.019073041 0.13596663
0.52809316 -0.018337237 0.13596214
0.52811551 -0.01760143 0.13595766
0.52813786 -0.016865626 0.13595317
0.52816021 -0.016129818 0.1359487
0.52912527 -0.015314724 0.13637432
0.52914757 -0.014580506 0.13636985
0.52916992 -0.013846295 0.13636538
0.52919221 -0.013112079 0.13636091
0.52921456 -0.012377865 0.13635643
0.52923685 -0.011643654 0.13635196
0.52925915 -0.010909439 0.13634749
0.5292815 -0.010175227 0.13634302
0.52930379 -0.0094410125 0.13633853
0.52932614 -0.0087067978 0.13633406
0.52934843 -0.0079725822 0.13632959
0.52937073 -0.0072383713 0.13632512
0.52939308 -0.0065041566 0.13632064
0.52941537 -0.0057699452 0.13631617
0.52943772 -0.0050357305 0.13631169
0.52946001 -0.0043015191 0.13630722
0.52948236 -0.0035673042 0.13630274
0.52950466 -0.0028330893 0.13629827
0.52952695 -0.0020988744 0.1362938
0.52860755 -0.0014136903 0.13585901
0.5286299 -0.00067788549 0.13585454
0.52865225 5.7919406e-05 0.13585006
0.5286746 0.00079372799 0.13584557
0.52869701 0.0015295328 0.13584109
0.52777785 0.0022242703 0.13540624
0.52780026 0.0029616707 0.13540174
0.52782267 0.0036990691 0.13539726
0.52784508 0.0044364678 0.13539276
0.52692616 0.0051391707 0.13495786
0.52694863 0.0058781612 0.13495336
0.5269711 0.0066171531 0.13494886
0.52605236 0.0073262262 0.13451393
0.52607489 0.0080668097 0.13450941
0.52515632 0.008780661 0.13407446
0.52517885 0.0095228376 0.13406993
0.52426046 0.010241468 0.13363495
0.52428305 0.010985237 0.13363042
0.52336478 0.011708641 0.1331954
0.52338743 0.012454003 0.13319086
0.52341008 0.013199368 0.13318633
0.52249199 0.013929144 0.13275127
0.5225147 0.0146761 0.13274673
0.52159673 0.015410654 0.13231163
0.5216195 0.016159203 0.13230707
0.52070171 0.016898533 0.13187195
0.52072448 0.017648675 0.13186738
0.5198068 0.018392786 0.13143224
0.51982969 0.01914452 0.13142766
0.5189122 0.019893408 0.13099249
0.51799476 0.020645482 0.1305573
0.51801771 0.0214004 0.13055269
0.51710045 0.022157252 0.13011748
0.51712346 0.022913763 0.13011287
0.51620632 0.023675393 0.12967762
0.51622939 0.024433497 0.129673
0.51531237 0.025199905 0.12923773
0.51439553 0.025969498 0.12880243
0.51441866 0.026730787 0.12879778
0.51350188 0.027505159 0.12836246
0.51258528 0.028282715 0.12792711
0.51166874 0.029063458 0.12749174
0.51169199 0.029829524 0.12748708
0.51077563 0.030615045 0.1270517
0.50985932 0.03140375 0.12661628
0.50894314 0.032195639 0.12618084
0.50896657 0.032966483 0.12617613
0.51362318 -0.046229746 0.12908496
0.51364625 -0.045470055 0.12908034
0.51272589 -0.04484861 0.12864472
0.51369244 -0.043950658 0.12907107
0.514705 -0.041539684 0.12948823
0.51567125 -0.040651284 0.12991466
0.51569426 -0.039894775 0.12991004
0.51666033 -0.039011154 0.13033649
0.5176264 -0.038130719 0.13076298
0.5185923 -0.037253469 0.13118947
0.51955813 -0.036379404 0.13161598
0.51958096 -0.035629261 0.13161142
0.52054662 -0.034759972 0.13203795
0.52056938 -0.034011431 0.13203339
0.52153492 -0.033146922 0.13245997
0.52250034 -0.032285601 0.13288656
0.52252299 -0.031540237 0.13288201
0.52348834 -0.030683691 0.13330865
0.52351093 -0.029939922 0.1333041
0.52447605 -0.029088151 0.13373075
0.52449864 -0.02834598 0.13372622
0.52452117 -0.027603799 0.13372171
0.52548611 -0.026758408 0.13414839
0.52550864 -0.026017822 0.13414387
0.52553117 -0.02527724 0.13413936
0.52649593 -0.024438212 0.1345661
0.5265184 -0.02369922 0.1345616
0.52654088 -0.022960227 0.1345571
0.52656335 -0.022221239 0.1345526
0.52752781 -0.021390175 0.13497937
0.52755022 -0.020652777 0.13497487
0.52757263 -0.019915378 0.13497038
0.52759504 -0.019177979 0.13496588
0.52761745 -0.01844058 0.13496138
0.52763993 -0.017703183 0.1349569
0.52860409 -0.016883267 0.13538374
0.52862644 -0.016147459 0.13537925
0.52864885 -0.015411654 0.13537478
0.52867121 -0.014675845 0.1353703
0.52869356 -0.01394004 0.13536581
0.52871591 -0.013204232 0.13536133
0.52873826 -0.012468426 0.13535684
0.52876067 -0.011732622 0.13535236
0.52972436 -0.010927041 0.13577929
0.52974671 -0.01019283 0.13577482
0.529769 -0.0094586154 0.13577034
0.52979136 -0.0087244008 0.13576587
0.52981365 -0.0079901852 0.1357614
0.52983594 -0.0072559742 0.13575692
0.52985829 -0.0065217591 0.13575244
0.52988058 -0.0057875481 0.13574797
0.52990294 -0.005053333 0.1357435
0.52992523 -0.0043191221 0.13573903
0.52900666 -0.0036387534 0.13530304
0.52902901 -0.0029029448 0.13529855
0.52905142 -0.0021671401 0.13529406
0.52907377 -0.0014313315 0.13528958
0.52909613 -0.0006955266 0.13528509
0.52911848 4.0278283e-05 0.13528062
0.52914083 0.00077608688 0.13527614
0.52822262 0.0014691906 0.13484006
0.52824509 0.002206591 0.13483557
0.5282675 0.0029439915 0.13483107
0.52828991 0.0036813898 0.13482659
0.52737194 0.0043824613 0.13439047
0.52739441 0.0051214532 0.13438597
0.52741688 0.0058604437 0.13438147
0.52649909 0.0065678847 0.13394532
0.52652162 0.0073084706 0.1339408
0.52560401 0.0080206897 0.13350463
0.52562654 0.0087628672 0.1335001
0.52470911 0.0094798645 0.1330639
0.5247317 0.010223635 0.13305937
0.52381438 0.01094541 0.13262312
0.52383703 0.011690771 0.13261858
0.52385968 0.012436133 0.13261403
0.5229426 0.013164281 0.13217776
0.52296525 0.013911236 0.13217321
0.52204829 0.014644159 0.1317369
0.522071 0.015392708 0.13173233
0.52209377 0.016141256 0.13172777
0.52117699 0.016880549 0.13129143
0.52119982 0.017630689 0.13128686
0.52028316 0.018374763 0.13085048
0.51936662 0.019122021 0.1304141
0.51938951 0.019875348 0.13040951
0.51847309 0.020627383 0.12997307
0.51755679 0.021382604 0.12953663
0.51757979 0.022139115 0.12953202
0.51666367 0.022899114 0.12909555
0.51668668 0.023657218 0.12909093
0.51577067 0.024421996 0.12865444
0.51579374 0.025181692 0.1286498
0.51487792 0.025951246 0.12821329
0.51396209 0.026723986 0.12777673
0.51398528 0.027486868 0.12777208
0.51306969 0.028264387 0.1273355
0.5121541 0.02904509 0.1268989
0.51123869 0.029828981 0.1264623
0.511262 0.03059664 0.12645762
0.51034677 0.031385306 0.12602097
0.51037014 0.03215456 0.12601629
0.50945497 0.032948002 0.1255796
0.50947839 0.033718847 0.1255749
0.50858688 0.035289507 0.1251335
0.51410455 -0.046247959 0.12849703
0.51318514 -0.045628157 0.12806019
0.5122658 -0.045005154 0.12762332
0.51325458 -0.043344285 0.12804627
0.51330084 -0.041821707 0.12803699
0.51426619 -0.040930085 0.12846462
0.51523143 -0.040041648 0.1288923
0.5152545 -0.039283544 0.12888768
0.51621962 -0.03839989 0.12931536
0.51812661 -0.037395447 0.1301754
0.51909149 -0.036519762 0.13060312
0.51911432 -0.035768025 0.13059855
0.52007908 -0.034897104 0.13102631
0.52010185 -0.034146965 0.13102174
0.52106643 -0.033280827 0.13144954
0.52203095 -0.032417875 0.13187735
0.52205366 -0.031670917 0.1318728
0.52301794 -0.030812746 0.13230065
0.52304059 -0.030067382 0.1322961
0.52400482 -0.029213984 0.13272397
0.52402741 -0.028470214 0.13271944
0.52499145 -0.027621593 0.13314734
0.52501404 -0.026879421 0.13314281
0.52503657 -0.026137242 0.1331383
0.5250591 -0.025395066 0.13313377
0.52602291 -0.024554409 0.13356172
0.52604544 -0.023813827 0.1335572
0.52606797 -0.023073241 0.1335527
0.52703154 -0.022238957 0.13398069
0.52705401 -0.021499963 0.13397619
0.52707648 -0.020760968 0.13397169
0.52709895 -0.020021977 0.13396718
0.52712142 -0.019282987 0.13396268
0.5280847 -0.01845826 0.13439073
0.52810711 -0.017720861 0.13438623
0.52812958 -0.016983462 0.13438173
0.52815199 -0.016246064 0.13437724
0.5281744 -0.015508666 0.13437274
0.52913743 -0.014693487 0.13480085
0.52915978 -0.013957681 0.13479637
0.52918214 -0.013221873 0.13479188
0.52920455 -0.012486069 0.1347874
0.5292269 -0.011750263 0.13478293
0.52924925 -0.011014459 0.13477844
0.5292716 -0.01027865 0.13477395
0.52929395 -0.0095428452 0.13476947
0.52931637 -0.0088070361 0.13476498
0.52933872 -0.0080712317 0.1347605
0.52936107 -0.007335423 0.13475601
0.52938342 -0.0065996181 0.13475153
0.52940583 -0.0058638132 0.13474704
0.52942818 -0.0051280083 0.13474256
0.52945054 -0.0043921997 0.13473809
0.52947289 -0.0036563948 0.1347336
0.52949524 -0.0029205862 0.13472912
0.52951765 -0.0021847812 0.13472463
0.52954 -0.0014489727 0.13472015
0.52956235 -0.00071316789 0.13471566
0.52864504 -2.3285778e-05 0.13427839
0.52866745 0.00071411277 0.13427389
0.52868986 0.0014515113 0.1342694
0.52871227 0.0021889117 0.1342649
0.52779526 0.0028867631 0.13382758
0.52781773 0.0036257533 0.13382308
0.5278402 0.0043647438 0.13381858
0.52692336 0.0050689611 0.1333812
0.52694583 0.0058095451 0.13337669
0.52696836 0.006550129 0.13337217
0.5260517 0.0072607202 0.13293478
0.52607429 0.0080028959 0.13293025
0.52515781 0.0087182624 0.13249283
0.5251804 0.0094620325 0.1324883
0.52520299 0.010205803 0.13248377
0.52428669 0.01092754 0.13204628
0.52430934 0.011672901 0.13204174
0.52339315 0.012399416 0.13160425
0.52341586 0.013146373 0.13159969
0.52343857 0.013893328 0.13159515
0.52252257 0.014626212 0.13115759
0.52254534 0.015374761 0.13115303
0.52162951 0.016112426 0.13071547
0.52165234 0.016862564 0.1307109
0.52073663 0.017605007 0.1302733
0.52075946 0.01835674 0.13026872
0.51984394 0.019103961 0.12983111
0.51892847 0.019854365 0.12939344
0.51801318 0.020607956 0.12895578
0.51803613 0.021364465 0.12895118
0.51712096 0.022122836 0.12851349
0.51714402 0.022880938 0.12850887
0.51622891 0.023644084 0.12807113
0.51625204 0.024403781 0.12806651
0.51533711 0.025171705 0.12762876
0.5153603 0.025932994 0.12762412
0.51444548 0.026705697 0.12718633
0.51353085 0.027481584 0.12674853
0.51355404 0.028246058 0.12674388
0.51263952 0.029026724 0.12630604
0.51172513 0.029810576 0.1258682
0.51174843 0.030578235 0.12586352
0.51083416 0.031366862 0.12542564
0.51085758 0.032136116 0.12542096
0.50994343 0.032929521 0.12498304
0.50996685 0.033700366 0.12497834
0.51272601 -0.045786332 0.12703758
0.5127492 -0.045023445 0.12703294
0.51279557 -0.043497689 0.12702364
0.51281875 -0.042734802 0.12701899
0.51284194 -0.041971922 0.12701434
0.51380634 -0.041078668 0.12744321
0.51382947 -0.040317383 0.12743858
0.51479369 -0.039428908 0.12786746
0.51575786 -0.038543623 0.12829638
0.5167219 -0.037661515 0.12872531
0.51768589 -0.0367826 0.12915424
0.51864976 -0.035906862 0.12958322
0.5196135 -0.035034318 0.1300122
0.51963633 -0.034282587 0.13000762
0.52059996 -0.033414807 0.13043664
0.52156347 -0.032550231 0.13086568
0.52158624 -0.031801678 0.13086112
0.52254963 -0.030941876 0.1312902
0.52257234 -0.03019492 0.13128564
0.52353555 -0.029339889 0.13171473
0.5235582 -0.028594529 0.13171019
0.52452129 -0.027744273 0.13213933
0.52454388 -0.027000507 0.1321348
0.52456653 -0.026256735 0.13213027
0.52552938 -0.025412859 0.13255942
0.52555197 -0.024670681 0.13255489
0.52557451 -0.023928504 0.13255037
0.52653718 -0.023090998 0.13297957
0.52655971 -0.022350416 0.13297506
0.52658224 -0.02160983 0.13297054
0.52660471 -0.020869244 0.13296603
0.52662724 -0.020128658 0.13296151
0.52758968 -0.019300705 0.13339078
0.52761209 -0.018561713 0.13338628
0.52763456 -0.01782272 0.13338177
0.52765703 -0.017083732 0.13337727
0.52861917 -0.016263744 0.13380657
0.52864158 -0.015526345 0.13380209
0.52866399 -0.014788943 0.13379759
0.52868646 -0.014051544 0.1337931
0.52870888 -0.013314146 0.1337886
0.52873129 -0.012576748 0.13378412
0.52969313 -0.011767904 0.13421349
0.52971548 -0.011032099 0.13420901
0.52973783 -0.010296291 0.13420452
0.52976018 -0.0095604863 0.13420004
0.52978259 -0.0088246772 0.13419555
0.52980494 -0.0080888728 0.13419107
0.5298273 -0.0073530637 0.13418658
0.52984965 -0.0066172588 0.13418211
0.529872 -0.0058814539 0.13417763
0.52989441 -0.0051456494 0.13417314
0.52991676 -0.0044098408 0.13416865
0.52993912 -0.0036740357 0.13416417
0.52996147 -0.0029382273 0.13415968
0.52998388 -0.0022024224 0.1341552
0.52906746 -0.0015157619 0.1337167
0.52908987 -0.00077836344 0.13371222
0.52911228 -4.0964933e-05 0.13370772
0.52913469 0.00069643359 0.13370323
0.5291571 0.0014338321 0.13369873
0.52824104 0.0021300497 0.13326019
0.52826351 0.0028690456 0.13325569
0.52828598 0.0036080359 0.13325118
0.5273701 0.0043106214 0.13281259
