# .PCD v0.7 - Point Cloud Data file format
VERSION 0.7
FIELDS x y z
SIZE 4 4 4
TYPE F F F
COUNT 1 1 1
WIDTH 1389
HEIGHT 1
VIEWPOINT 0 0 0 1 0 0 0
POINTS 1389
DATA ascii
0.52721614 0.038514473 0.033073649
0.52724171 0.039356984 0.033068515
0.52726734 0.0401995 0.033063378
0.52729297 0.041042015 0.033058245
0.52731854 0.041884527 0.033053111
0.52734417 0.042727042 0.033047978
0.5273698 0.043569557 0.033042844
0.52739537 0.044412069 0.033037711
0.527421 0.045254584 0.033032577
0.52744657 0.0460971 0.03302744
0.5274722 0.046939611 0.033022307
0.52832246 0.047731947 0.033587418
0.52834797 0.048572868 0.033582292
0.52837354 0.049413789 0.033577166
0.52757466 0.050309669 0.033001773
0.52760023 0.051152185 0.032996636
0.52762586 0.051994696 0.032991502
0.52765149 0.052837212 0.032986369
0.52767706 0.053679727 0.032981236
0.52770269 0.054522239 0.032976102
0.52772832 0.055364754 0.032970969
0.52775389 0.056207269 0.032965831
0.52777952 0.057049785 0.032960698
0.52780509 0.057892296 0.032955565
0.52783072 0.058734808 0.032950431
0.52785635 0.059577327 0.032945298
0.52788192 0.060419839 0.032940164
0.52790755 0.061262354 0.032935027
0.52793318 0.062104866 0.032929894
0.52795875 0.062947385 0.03292476
0.52798438 0.063789897 0.032919627
0.52801001 0.064632408 0.032914493
0.52803558 0.06547492 0.03290936
0.52806121 0.066317439 0.032904223
0.52808678 0.067159951 0.032899089
0.52811241 0.068002462 0.032893956
0.52896142 0.068754986 0.033459309
0.52898699 0.069595903 0.033454183
0.52901256 0.070436828 0.033449061
0.52903813 0.071277745 0.033443935
0.5290637 0.07211867 0.033438809
0.52908921 0.072959594 0.033433687
0.5282917 0.073900066 0.032858018
0.52831727 0.074742578 0.032852884
0.5283429 0.075585097 0.032847751
0.52836847 0.076427609 0.032842617
0.5283941 0.07727012 0.03283748
0.52841973 0.078112639 0.032832347
0.52762252 0.079064257 0.032256648
0.52764821 0.079908364 0.032251503
0.52767384 0.08075247 0.032246359
0.52769953 0.081596576 0.032241214
0.52772516 0.082440682 0.032236069
0.52775085 0.083284788 0.032230929
0.526954 0.084247559 0.031655159
0.52697968 0.08509326 0.031650003
0.52700543 0.085938953 0.031644851
0.52703112 0.086784653 0.031639699
0.52705681 0.087630354 0.031634543
0.5270825 0.088476054 0.031629391
0.52710825 0.089321755 0.031624239
0.52713394 0.090167448 0.031619083
0.52715963 0.091013156 0.031613931
0.52718532 0.091858849 0.031608775
0.52638906 0.092839137 0.031032901
0.52641481 0.093686424 0.031027738
0.52644056 0.094533719 0.031022575
0.52646631 0.095381014 0.031017412
0.52649206 0.096228302 0.031012248
0.52651781 0.097075589 0.031007085
0.52654356 0.097922891 0.031001922
0.52656931 0.098770179 0.030996758
0.52659506 0.099617466 0.030991595
0.52662081 0.10046477 0.030986432
0.52664661 0.10131206 0.030981269
0.52667236 0.10215934 0.030976105
0.52669811 0.10300665 0.030970942
0.52672386 0.10385393 0.030965779
0.52674961 0.10470123 0.030960616
0.52677536 0.10554852 0.030955452
0.52680111 0.10639581 0.030950289
0.52682686 0.1072431 0.030945128
0.52685261 0.10809039 0.030939965
0.52687836 0.10893769 0.030934801
0.52690411 0.10978498 0.030929638
0.52692986 0.11063227 0.030924475
0.5269556 0.11147957 0.030919312
0.52698135 0.11232685 0.030914148
0.52700716 0.11317414 0.030908985
0.52703291 0.11402144 0.030903822
0.52705866 0.11486873 0.030898659
0.52708441 0.11571602 0.030893495
0.52711016 0.11656332 0.030888332
0.52713591 0.1174106 0.030883169
0.52716166 0.1182579 0.030878006
0.52718741 0.11910519 0.030872842
0.52721316 0.11995248 0.030867679
0.52641845 0.12098692 0.030291438
0.52644426 0.12183581 0.030286266
0.52647007 0.1226847 0.030281093
0.52649587 0.12353358 0.03027592
0.52652168 0.12438247 0.030270746
0.52572733 0.12542646 0.029694479
0.52575314 0.12627694 0.029689297
0.52495897 0.1273257 0.029113004
0.52498484 0.12817778 0.029107811
0.52419078 0.12923132 0.028531488
0.52687454 0.036838677 0.03186059
0.52690023 0.037682783 0.031855445
0.52692586 0.038526893 0.031850301
0.52695149 0.039370999 0.031845156
0.52697718 0.040215105 0.031840015
0.52700281 0.041059211 0.031834871
0.52785242 0.041864328 0.0324011
0.52787799 0.042706843 0.032395966
0.52790362 0.043549355 0.032390833
0.52792925 0.04439187 0.032385699
0.52795482 0.045234386 0.032380562
0.52798045 0.046076898 0.032375429
0.52800602 0.046919413 0.032370295
0.52803165 0.047761928 0.032365162
0.52805728 0.04860444 0.032360028
0.52808285 0.049446955 0.032354895
0.52810848 0.050289471 0.032349758
0.52813411 0.051131986 0.032344624
0.52815968 0.051974498 0.032339491
0.52818531 0.052817013 0.032334358
0.52738768 0.053720813 0.031757712
0.52741337 0.054564919 0.031752571
0.527439 0.055409025 0.031747427
0.52746469 0.056253135 0.031742282
0.52749032 0.057097241 0.031737138
0.52751595 0.057941347 0.031731997
0.52754164 0.058785453 0.031726852
0.52756727 0.059629563 0.031721707
0.52759296 0.060473666 0.031716563
0.52761859 0.061317775 0.031711422
0.52764428 0.062161881 0.031706277
0.52766991 0.063005991 0.031701133
0.5276956 0.063850097 0.031695988
0.52772123 0.064694203 0.031690843
0.5285694 0.065454721 0.032257348
0.52859503 0.066297241 0.032252211
0.52862066 0.067139752 0.032247078
0.52864623 0.067982264 0.032241944
0.52867186 0.068824776 0.032236811
0.52869749 0.069667295 0.032231677
0.52872306 0.070509814 0.032226544
0.52874869 0.071352325 0.032221407
0.52877432 0.072194837 0.032216273
0.52879989 0.073037349 0.03221114
0.52882552 0.073879868 0.032206006
0.52885115 0.074722379 0.032200873
0.52805477 0.07566759 0.031623974
0.5280804 0.076511696 0.031618834
0.52810609 0.077355802 0.031613689
0.52813172 0.078199916 0.031608544
0.52815741 0.079044022 0.0316034
0.52736133 0.079998784 0.031026447
0.52738702 0.080844477 0.031021293
0.52741271 0.081690177 0.031016139
0.52743846 0.082535878 0.031010987
0.52746415 0.083381578 0.031005833
0.52748984 0.084227279 0.031000679
0.52751559 0.085072979 0.030995525
0.52754128 0.08591868 0.030990373
0.52674562 0.086887777 0.030413331
0.52677137 0.087735072 0.030408168
0.52679718 0.088582359 0.030403005
0.52682292 0.089429654 0.030397842
0.52684867 0.090276942 0.030392678
0.52687442 0.091124237 0.030387515
0.52690017 0.091971532 0.030382352
0.52692592 0.092818819 0.030377189
0.52695167 0.093666114 0.030372025
0.52697742 0.094513409 0.030366862
0.52700317 0.095360696 0.030361699
0.52702892 0.096207984 0.030356536
0.52623385 0.097197801 0.029779337
0.52625966 0.09804669 0.029774163
0.52628547 0.098895572 0.02976899
0.52631128 0.099744454 0.029763818
0.52633709 0.10059334 0.029758645
0.5263629 0.10144223 0.029753473
0.5263887 0.10229111 0.0297483
0.52641451 0.10314 0.029743126
0.52644032 0.10398888 0.029737953
0.52646607 0.10483777 0.029732781
0.52649188 0.10568665 0.029727608
0.52651769 0.10653553 0.029722435
0.5265435 0.10738441 0.029717263
0.52656931 0.1082333 0.02971209
0.52659512 0.10908219 0.029706916
0.52662092 0.10993107 0.029701743
0.52664673 0.11077996 0.029696571
0.52667254 0.11162885 0.029691398
0.52669829 0.11247773 0.029686226
0.5267241 0.11332661 0.029681053
0.52674991 0.1141755 0.029675879
0.52677572 0.11502439 0.029670706
0.52680153 0.11587326 0.029665533
0.52682734 0.11672215 0.029660361
0.52685314 0.11757104 0.029655188
0.52687895 0.11841992 0.029650016
0.52690476 0.1192688 0.029644841
0.52693051 0.12011769 0.029639669
0.52695632 0.12096658 0.029634496
0.52698213 0.12181546 0.029629324
0.52700794 0.12266435 0.029624151
0.52703375 0.12351323 0.029618979
0.52624035 0.1245556 0.02904149
0.52544701 0.12560113 0.028463982
0.52547294 0.12645321 0.028458791
0.52549881 0.12730527 0.028453598
0.52470571 0.12835719 0.027876051
0.52740937 0.036818437 0.031207344
0.52743506 0.037662547 0.031202201
0.52746069 0.038506653 0.031197056
0.52748638 0.039350759 0.031191913
0.52751201 0.040194865 0.031186769
0.5275377 0.041038971 0.031181626
0.52756333 0.041883081 0.031176481
0.52758902 0.042727187 0.031171337
0.52761465 0.043571293 0.031166194
0.52764028 0.044415399 0.031161049
0.52766597 0.045259506 0.031155907
0.5276916 0.046103615 0.031150762
0.52771729 0.046947721 0.031145619
0.52774292 0.047791827 0.031140475
0.52776861 0.048635934 0.031135332
0.52779424 0.04948004 0.031130187
0.52781993 0.050324149 0.031125044
0.52784556 0.051168256 0.0311199
0.52787125 0.052012362 0.031114757
0.52789688 0.052856471 0.031109612
0.52792251 0.053700577 0.03110447
0.5279482 0.05454468 0.031099325
0.5271517 0.055453222 0.030521423
0.52717745 0.056298923 0.030516269
0.52720314 0.057144623 0.030511115
0.52722883 0.05799032 0.030505961
0.52725458 0.058836021 0.030500809
0.52728027 0.059681721 0.030495655
0.52730596 0.060527422 0.030490501
0.52733165 0.061373118 0.030485347
0.5273574 0.062218819 0.030480195
0.52820474 0.062985748 0.031047888
0.52823043 0.063829854 0.031042743
0.52825606 0.064673968 0.031037601
0.52828175 0.065518074 0.031032456
0.52830738 0.06636218 0.031027313
0.52833307 0.067206286 0.031022169
0.5283587 0.068050392 0.031017024
0.52838439 0.068894498 0.031011881
0.52841002 0.069738604 0.031006737
0.52843565 0.070582718 0.031001594
0.52846134 0.071426824 0.030996449
0.52848697 0.07227093 0.030991307
0.52851266 0.073115036 0.030986162
0.52853829 0.073959135 0.030981019
0.52856398 0.074803241 0.030975875
0.52858961 0.075647354 0.030970732
0.5286153 0.07649146 0.030965587
0.52782005 0.077441409 0.030387431
0.5278458 0.07828711 0.030382279
0.52787149 0.07913281 0.030377125
0.52789718 0.079978511 0.030371971
0.52792287 0.080824204 0.030366817
0.52712798 0.081783712 0.029788602
0.52715373 0.082631007 0.029783439
0.52717948 0.083478294 0.029778276
0.52720523 0.084325589 0.029773112
0.52723098 0.085172884 0.029767949
0.52725673 0.086020172 0.029762786
0.52728248 0.086867467 0.029757623
0.52730829 0.087714754 0.029752459
0.52733403 0.088562049 0.029747296
0.52653956 0.089537486 0.02916895
0.52656531 0.090386368 0.029163778
0.52659112 0.091235258 0.029158605
0.52661693 0.092084147 0.029153431
0.52664274 0.092933029 0.029148258
0.52666855 0.093781911 0.029143086
0.52669436 0.094630793 0.029137913
0.52672017 0.095479675 0.029132741
0.52674598 0.096328564 0.029127568
0.52677172 0.097177453 0.029122395
0.52679753 0.098026335 0.029117221
0.52682334 0.098875217 0.029112048
0.52602959 0.099871352 0.02853361
0.5260554 0.10072183 0.028528426
0.52608126 0.10157231 0.028523244
0.52610713 0.10242279 0.028518062
0.52613294 0.10327327 0.028512878
0.52615881 0.10412374 0.028507696
0.52618468 0.10497422 0.028502513
0.52621049 0.10582469 0.028497331
0.52623636 0.10667518 0.028492149
0.52626222 0.10752565 0.028486965
0.52628809 0.10837613 0.028481783
0.5263139 0.10922661 0.028476601
0.5271588 0.10991072 0.029044801
0.52718461 0.11075961 0.029039629
0.52721041 0.11160849 0.029034456
0.52723616 0.11245737 0.029029284
0.52726197 0.11330626 0.029024109
0.52728778 0.11415514 0.029018937
0.52731359 0.11500403 0.029013764
0.5273394 0.11585291 0.029008592
0.52736521 0.1167018 0.029003419
0.52739102 0.11755069 0.028998246
0.52741683 0.11839957 0.028993072
0.52744263 0.11924846 0.028987899
0.52746838 0.12009734 0.028982727
0.52749419 0.12094622 0.028977554
0.52670169 0.12198377 0.028398862
0.5267275 0.12283425 0.02839368
0.52675337 0.12368472 0.028388496
0.52596104 0.12472864 0.027809765
0.52598691 0.12558071 0.027804574
0.52601284 0.12643278 0.027799381
0.52522069 0.12748305 0.027220611
0.52524662 0.12833673 0.02721541
0.52712208 0.036827561 0.02998032
0.52714777 0.037673257 0.029975167
0.52717346 0.038518958 0.029970013
0.52719921 0.039364658 0.029964859
0.52804685 0.04017463 0.030533524
0.52807254 0.041018736 0.03052838
0.52809817 0.041862842 0.030523237
0.52812386 0.042706948 0.030518092
0.52814949 0.043551058 0.030512949
0.52817518 0.044395164 0.030507805
0.52820081 0.04523927 0.030502662
0.52822649 0.046083376 0.030497517
0.52825212 0.046927486 0.030492375
0.52827781 0.047771592 0.03048723
0.52830344 0.048615698 0.030482085
0.52832907 0.049459804 0.030476943
0.52835476 0.05030391 0.030471798
0.52838039 0.051148016 0.030466655
0.52758479 0.052050147 0.029887557
0.52761048 0.052895848 0.029882403
0.52763617 0.053741548 0.029877251
0.52766186 0.054587249 0.029872097
0.52768761 0.055432945 0.029866943
0.5277133 0.056278646 0.029861789
0.52773899 0.057124346 0.029856637
0.52776468 0.057970047 0.029851483
0.52779043 0.058815744 0.029846329
0.52781612 0.059661444 0.029841175
0.52784181 0.060507145 0.029836023
0.52786756 0.061352842 0.029830869
0.52789325 0.062198542 0.029825715
0.52791893 0.063044243 0.029820563
0.52794462 0.063889943 0.029815409
0.52797037 0.064735644 0.029810255
0.52799606 0.065581337 0.029805101
0.52802175 0.066427037 0.029799949
0.5288679 0.06718605 0.030368924
0.52889353 0.068030156 0.03036378
0.52891922 0.068874262 0.030358637
0.52894485 0.069718368 0.030353492
0.52897054 0.070562474 0.030348349
0.52817601 0.07150124 0.029769028
0.5282017 0.072346941 0.029763874
0.52822739 0.073192641 0.029758722
0.52825308 0.074038334 0.029753568
0.52827883 0.074884035 0.029748414
0.52830452 0.075729728 0.02974326
0.52833021 0.076575428 0.029738108
0.52835596 0.077421136 0.029732954
0.52756184 0.078374229 0.029153544
0.52758759 0.079221524 0.029148383
0.52761334 0.080068812 0.02914322
0.52763909 0.080916107 0.029138057
0.52766484 0.081763394 0.029132893
0.52769059 0.082610689 0.02912773
0.52771634 0.083457977 0.029122567
0.52692258 0.084423825 0.028543042
0.52694839 0.085272714 0.028537869
0.5269742 0.086121596 0.028532697
0.52700001 0.086970478 0.028527524
0.52702582 0.087819368 0.028522352
0.52705163 0.08866825 0.028517179
0.52707744 0.089517131 0.028512005
0.52710319 0.090366013 0.028506832
0.52712899 0.091214903 0.02850166
0.5271548 0.092063792 0.028496487
0.52718061 0.092912674 0.028491315
0.52720642 0.093761556 0.028486142
0.52641332 0.094748102 0.02790653
0.52643919 0.095598578 0.027901346
0.52646506 0.096449055 0.027896164
0.52649087 0.097299531 0.027890982
0.52651674 0.098150007 0.027885798
0.5265426 0.099000484 0.027880616
0.52656847 0.099850968 0.027875433
0.52659428 0.10070144 0.027870251
0.52662015 0.10155192 0.027865069
0.52664602 0.1024024 0.027859885
0.52667183 0.10325287 0.027854703
0.5266977 0.10410335 0.027849521
0.52672356 0.10495383 0.027844338
0.52674937 0.1058043 0.027839156
0.52677524 0.10665479 0.027833972
0.52680111 0.10750525 0.02782879
0.52682698 0.10835574 0.027823608
0.52685279 0.10920621 0.027818425
0.52687865 0.1100567 0.027813243
0.52690452 0.11090717 0.027808061
0.52693033 0.11175764 0.027802877
0.5269562 0.11260813 0.027797695
0.52698207 0.1134586 0.027792512
0.52700788 0.11430908 0.02778733
0.52785146 0.11498369 0.028356818
0.52705961 0.11601004 0.027776964
0.52790308 0.11668145 0.028346473
0.52711129 0.11771099 0.0277666
0.52713716 0.11856147 0.027761417
0.52798051 0.1192281 0.028330956
0.52718884 0.12026243 0.027751051
0.52721471 0.1211129 0.027745869
0.52724057 0.12196338 0.027740687
0.52726638 0.12281386 0.027735503
0.52729225 0.12366433 0.027730322
0.52650094 0.12470821 0.027150361
0.52652681 0.12556028 0.027145168
0.52765793 0.036807284 0.029325839
0.52768362 0.037652984 0.029320685
0.52770936 0.038498681 0.029315531
0.52773505 0.039344382 0.029310377
0.52776074 0.040190082 0.029305225
0.52778643 0.041035779 0.029300071
0.52781218 0.041881479 0.029294917
0.52783787 0.04272718 0.029289763
0.52786356 0.04357288 0.029284611
0.52788925 0.044418577 0.029279457
0.527915 0.045264278 0.029274303
0.52794069 0.046109978 0.02926915
0.52796638 0.046955679 0.029263997
0.52799213 0.047801375 0.029258844
0.52801782 0.048647076 0.02925369
0.52804351 0.049492776 0.029248536
0.5280692 0.050338473 0.029243384
0.52809495 0.051184174 0.02923823
0.52812064 0.052029874 0.029233076
0.52814633 0.052875575 0.029227922
0.52735186 0.053782444 0.028647562
0.52737761 0.054629736 0.028642399
0.52740335 0.055477027 0.028637236
0.5274291 0.056324322 0.028632073
0.52745485 0.057171613 0.028626909
0.5274806 0.058018904 0.028621746
0.52750635 0.058866195 0.028616583
0.5275321 0.05971349 0.02861142
0.52755785 0.060560782 0.028606256
0.5275836 0.061408073 0.028601093
0.52760941 0.062255364 0.028595932
0.52763516 0.063102655 0.028590769
0.52766091 0.06394995 0.028585605
0.52850622 0.064715363 0.029155774
0.52853191 0.065561064 0.02915062
0.5285576 0.066406764 0.029145468
0.52858335 0.067252465 0.029140314
0.52860904 0.068098165 0.02913516
0.52863473 0.068943858 0.029130006
0.52866042 0.069789559 0.029124854
0.52868617 0.070635267 0.0291197
0.52871186 0.07148096 0.029114546
0.52873755 0.07232666 0.029109392
0.52876323 0.073172361 0.02910424
0.52878898 0.074018061 0.029099086
0.52799571 0.074964747 0.028518483
0.52802145 0.075812042 0.02851332
0.5280472 0.076659329 0.028508157
0.52807295 0.077506624 0.028502993
0.5280987 0.078353919 0.02849783
0.52730566 0.079310164 0.027917136
0.52733147 0.080159053 0.027911961
0.52735728 0.081007935 0.027906789
0.52738309 0.081856817 0.027901616
0.5274089 0.082705699 0.027896443
0.52743465 0.083554588 0.027891271
0.52746046 0.08440347 0.027886098
0.52748626 0.08525236 0.027880924
0.52751207 0.086101241 0.027875751
0.52753788 0.086950131 0.027870579
0.52674544 0.087923892 0.027289812
0.52677125 0.088774368 0.02728463
0.52679712 0.089624844 0.027279446
0.52682298 0.090475321 0.027274264
0.52684885 0.091325805 0.02726908
0.52687466 0.092176273 0.027263898
0.52690053 0.093026757 0.027258717
0.5269264 0.093877234 0.027253533
0.52695221 0.09472771 0.027248351
0.52697808 0.095578186 0.027243169
0.52700394 0.096428663 0.027237985
0.52702975 0.097279139 0.027232803
0.52623796 0.098273605 0.02665191
0.52626383 0.099125676 0.026646717
0.52628976 0.099977739 0.026641525
0.52631563 0.10082982 0.026636332
0.52634156 0.1016819 0.026631139
0.52636743 0.10253396 0.026625948
0.52639335 0.10338603 0.026620755
0.52641922 0.1042381 0.026615564
0.52644515 0.10509017 0.026610371
0.52647102 0.10594223 0.026605178
0.52649695 0.10679431 0.026599986
0.52652282 0.10764638 0.026594793
0.52654874 0.10849845 0.026589602
0.52739167 0.10918583 0.027160248
0.52741754 0.11003631 0.027155064
0.52744341 0.11088678 0.027149882
0.52746922 0.11173725 0.027144698
0.52749509 0.11258774 0.027139517
0.52752095 0.1134382 0.027134335
0.52754676 0.1142887 0.027129151
0.52757263 0.11513917 0.027123969
0.5275985 0.11598965 0.027118787
0.52762437 0.11684012 0.027113603
0.52765018 0.11769059 0.027108422
0.52767605 0.11854108 0.027103238
0.52770191 0.11939155 0.027098056
0.52772772 0.12024204 0.027092874
0.52775359 0.12109251 0.02708769
0.52777946 0.12194299 0.027082508
0.52780527 0.12279347 0.027077327
0.52783114 0.12364393 0.027072143
0.52704084 0.12468778 0.026490949
0.52821952 0.037632708 0.028666209
0.52824521 0.038478408 0.028661055
0.5282709 0.039324105 0.028655903
0.52829659 0.040169805 0.028650749
0.52832234 0.041015506 0.028645596
0.52834803 0.041861206 0.028640442
0.52837372 0.042706903 0.02863529
0.52839941 0.043552604 0.028630136
0.52842516 0.0443983 0.028624982
0.52845085 0.045244001 0.028619828
0.52847654 0.046089701 0.028614676
0.52850223 0.046935402 0.028609522
0.52852798 0.047781099 0.028604368
0.52855366 0.048626799 0.028599214
0.52775991 0.049525671 0.02801767
0.52778572 0.050372962 0.028012507
0.52781147 0.051220253 0.028007343
0.52783722 0.052067544 0.02800218
0.52786297 0.052914839 0.027997017
0.52788872 0.05376213 0.027991854
0.52791446 0.054609422 0.02798669
0.52794021 0.055456713 0.027981527
0.52714688 0.056369923 0.02739986
0.52717268 0.057218805 0.027394688
0.52719849 0.058067691 0.027389515
0.5272243 0.058916576 0.027384341
0.52725011 0.059765462 0.027379168
0.52727586 0.060614347 0.027373996
0.52812052 0.061387759 0.027945384
0.52814627 0.06223505 0.027940223
0.52817202 0.063082345 0.02793506
0.52819777 0.063929632 0.027929896
0.52822351 0.064776927 0.027924733
0.52824926 0.065624222 0.02791957
0.52827501 0.066471517 0.027914407
0.52830076 0.067318805 0.027909243
0.52832651 0.068166092 0.02790408
0.52835226 0.069013387 0.027898917
0.52837801 0.069860674 0.027893754
0.52840376 0.070707969 0.02788859
0.52842951 0.071555264 0.027883427
0.52845532 0.072402559 0.027878264
0.52848107 0.073249847 0.027873101
0.52850682 0.074097142 0.027867937
0.52853256 0.074944429 0.027862774
0.5277403 0.075894274 0.027280884
0.52776611 0.076743156 0.027275711
0.52779192 0.077592045 0.027270539
0.52781773 0.078440927 0.027265366
0.52784353 0.079289816 0.027260194
0.52786934 0.080138698 0.027255019
0.5270775 0.081099674 0.026673097
0.52710336 0.081950158 0.026667913
0.52712923 0.082800634 0.026662732
0.52715504 0.083651111 0.02665755
0.52718091 0.084501594 0.026652366
0.52720678 0.085352071 0.026647184
0.52723259 0.086202547 0.026642
0.52725846 0.087053023 0.026636818
0.52728432 0.0879035 0.026631637
0.52731013 0.088753976 0.026626453
0.527336 0.089604452 0.026621271
0.52736187 0.090454929 0.026616089
0.52738774 0.091305412 0.026610905
0.52741355 0.092155889 0.026605723
0.52662247 0.093140759 0.026023654
0.52664834 0.093992829 0.026018461
0.52667427 0.0948449 0.02601327
0.52670014 0.095696963 0.026008077
0.52672607 0.096549034 0.026002886
0.52675194 0.097401105 0.025997693
0.52677786 0.098253176 0.0259925
0.52680373 0.099105254 0.025987308
0.52682966 0.099957317 0.025982115
0.526039 0.10095812 0.025399953
0.52606499 0.10181178 0.025394751
0.52609092 0.10266544 0.025389548
0.52611685 0.10351911 0.025384346
0.52614284 0.10437277 0.025379146
0.52616876 0.10522643 0.025373943
0.52619469 0.10608009 0.025368741
0.52703685 0.10677388 0.025940578
0.52706271 0.10762595 0.025935385
0.52708864 0.10847802 0.025930192
0.52711451 0.10933009 0.025925001
0.52714044 0.11018216 0.025919808
0.52716631 0.11103423 0.025914617
0.52719223 0.11188629 0.025909424
0.5272181 0.11273837 0.025904231
0.52724403 0.11359044 0.02589904
0.52808565 0.1142683 0.026470976
0.52811152 0.11511878 0.026465794
0.5273217 0.11614665 0.025883462
0.52816325 0.11681973 0.026455428
0.52818906 0.11767021 0.026450247
0.52821493 0.11852069 0.026445063
0.5282408 0.11937116 0.026439881
0.52826661 0.12022164 0.026434697
0.52829248 0.12107211 0.026429515
0.52831835 0.1219226 0.026424333
0.52834415 0.12277307 0.02641915
0.52837002 0.12362355 0.026413968
0.52758074 0.12466735 0.025831539
0.52875537 0.037612431 0.028011732
0.52878106 0.038458131 0.028006578
0.52880675 0.039303832 0.028001424
0.52883244 0.040149529 0.02799627
0.52885818 0.040995229 0.027991118
0.52888387 0.04184093 0.027985964
0.52890956 0.042686626 0.02798081
0.52893531 0.043532327 0.027975656
0.52814227 0.044421602 0.027392937
0.52816802 0.045268897 0.027387774
0.52819377 0.046116188 0.02738261
0.52821952 0.046963479 0.027377447
0.52824527 0.047810771 0.027372284
0.52827108 0.048658065 0.027367121
0.52829683 0.049505357 0.027361957
0.52750415 0.050407376 0.026779128
0.52752995 0.051256262 0.026773956
0.52755576 0.052105147 0.026768783
0.52758157 0.052954033 0.026763611
0.52760732 0.053802915 0.026758436
0.52763313 0.054651801 0.026753264
0.52765894 0.055500686 0.026748091
0.52768475 0.056349572 0.026742918
0.52771056 0.057198454 0.026737746
0.52773637 0.058047339 0.026732573
0.52776217 0.058896225 0.026727399
0.52778798 0.059745111 0.026722226
0.52781379 0.060593992 0.026717054
0.52783954 0.061442878 0.026711881
0.52786535 0.06229176 0.026706709
0.52789116 0.063140646 0.026701536
0.52791697 0.063989535 0.026696362
0.52794278 0.064838417 0.026691189
0.52796859 0.065687299 0.026686016
0.52799439 0.066536188 0.026680844
0.5280202 0.06738507 0.026675671
0.52804601 0.068233959 0.026670499
0.52807176 0.069082841 0.026665324
0.52809757 0.069931723 0.026660152
0.52812338 0.070780613 0.026654979
0.52814919 0.071629502 0.026649807
0.528175 0.072478384 0.026644634
0.52820081 0.073327266 0.026639462
0.52822661 0.074176148 0.026634287
0.52825242 0.075025037 0.026629115
0.52827823 0.075873919 0.026623942
0.52830398 0.076722801 0.026618769
0.52751297 0.077677384 0.026035652
0.52753884 0.07852786 0.02603047
0.5275647 0.079378337 0.026025286
0.52759051 0.080228813 0.026020104
0.52761638 0.081079289 0.02601492
0.52764225 0.081929766 0.026009738
0.52766812 0.082780242 0.026004557
0.52769393 0.083630718 0.025999373
0.5277198 0.084481202 0.025994191
0.52774566 0.085331678 0.025989009
0.52777147 0.086182155 0.025983825
0.52698106 0.087155841 0.025400594
0.52700692 0.088007912 0.025395403
0.52703285 0.088859975 0.02539021
0.52705872 0.089712046 0.025385017
0.52708465 0.090564117 0.025379825
0.52711058 0.091416195 0.025374632
0.52713645 0.092268258 0.025369441
0.52716237 0.093120329 0.025364248
0.52718824 0.0939724 0.025359055
0.52721417 0.094824471 0.025353864
0.52724004 0.095676534 0.025348671
0.52645016 0.096669331 0.02476532
0.52647614 0.097522996 0.024760118
0.52650207 0.098376662 0.024754917
0.526528 0.099230327 0.024749715
0.52655399 0.10008398 0.024744513
0.52657992 0.10093765 0.02473931
0.52579039 0.1019416 0.024155894
0.52581638 0.10279685 0.024150683
0.52584237 0.10365211 0.024145471
0.52586842 0.10450736 0.024140259
0.5258944 0.10536262 0.024135048
0.5267356 0.10605963 0.024708098
0.52676153 0.10691329 0.024702897
0.52678752 0.10776695 0.024697695
0.52681345 0.10862062 0.024692493
0.52683938 0.10947429 0.02468729
0.52768034 0.11016173 0.025260402
0.52770621 0.11101381 0.025255211
0.52773213 0.11186587 0.025250018
0.52694321 0.11288892 0.024666483
0.52778393 0.11357001 0.025239633
0.5278098 0.11442208 0.02523444
0.52783573 0.11527415 0.025229249
0.5278616 0.11612622 0.025224056
0.52788752 0.1169783 0.025218865
0.52791339 0.11783036 0.025213672
0.52793932 0.11868244 0.025208479
0.52796519 0.1195345 0.025203288
0.52799112 0.12038657 0.025198095
0.52883136 0.12105172 0.02577134
0.52885723 0.12190221 0.025766157
0.52888304 0.12275269 0.025760975
0.52809471 0.12379485 0.025177326
0.5293169 0.038437854 0.027352098
0.52852464 0.039317537 0.026768208
0.52936834 0.040129256 0.027341792
0.52857614 0.04101212 0.026757881
0.52860188 0.041859414 0.026752718
0.52862763 0.042706706 0.026747555
0.52865338 0.043553997 0.026742391
0.52867913 0.044401288 0.026737228
0.52870488 0.045248583 0.026732065
0.52873063 0.046095874 0.026726902
0.52793878 0.046991486 0.026142878
0.52796459 0.047840368 0.026137704
0.5279904 0.048689254 0.026132531
0.52801621 0.049538139 0.026127359
0.52804202 0.050387025 0.026122186
0.52806783 0.051235907 0.026117014
0.52809364 0.052084792 0.026111841
0.52730221 0.052993145 0.025527773
0.52732807 0.053843621 0.025522592
0.52735388 0.054694097 0.025517408
0.52737975 0.055544574 0.025512226
0.52740562 0.056395054 0.025507044
0.52743143 0.05724553 0.02550186
0.5274573 0.058096007 0.025496678
0.52748317 0.058946483 0.025491495
0.52750903 0.059796963 0.025486313
0.52753484 0.060647439 0.025481131
0.52756071 0.061497916 0.025475947
0.52758658 0.062348396 0.025470765
0.52761239 0.063198872 0.025465583
0.52763826 0.064049348 0.0254604
0.52766412 0.064899825 0.025455218
0.52850646 0.065666951 0.026029075
0.52853227 0.066515833 0.026023902
0.52855808 0.067364722 0.026018729
0.52858388 0.068213604 0.026013555
0.52860963 0.069062486 0.026008382
0.52863544 0.069911376 0.02600321
0.52866125 0.070760258 0.025998037
0.52868706 0.071609147 0.025992865
0.52789676 0.072554126 0.025408573
0.52792263 0.073404603 0.025403392
0.52794844 0.074255079 0.02539821
0.52797431 0.075105555 0.025393026
0.52800018 0.075956032 0.025387844
0.52802604 0.076806508 0.025382662
0.52805185 0.077656992 0.025377478
0.52807772 0.078507468 0.025372297
0.52810359 0.079357944 0.025367113
0.5281294 0.080208421 0.025361931
0.52733964 0.081170924 0.024777532
0.52736557 0.082022995 0.024772339
0.52739143 0.082875058 0.024767147
0.52741736 0.083727129 0.024761954
0.52744323 0.0845792 0.024756763
0.52746916 0.08543127 0.02475157
0.52749503 0.086283341 0.024746377
0.52752095 0.087135412 0.024741186
0.52754682 0.087987483 0.024735993
0.52757275 0.088839553 0.024730802
0.52759862 0.089691624 0.024725609
0.52762455 0.090543687 0.024720415
0.52765042 0.091395766 0.024715224
0.52686137 0.092380553 0.024130691
0.5268873 0.093234219 0.024125488
0.52691323 0.094087884 0.024120288
0.52693921 0.094941542 0.024115086
0.52696514 0.095795207 0.024109883
0.52699107 0.096648864 0.024104681
0.52620232 0.097644813 0.02352008
0.52622831 0.098500073 0.023514869
0.52625436 0.099355333 0.023509657
0.52628034 0.10021058 0.023504445
0.52630633 0.10106584 0.023499234
0.52633232 0.1019211 0.023494022
0.52635831 0.10277635 0.02348881
0.52638429 0.10363161 0.023483599
0.52641028 0.10448686 0.023478387
0.52643627 0.10534211 0.023473175
0.52646232 0.10619736 0.023467964
0.5264883 0.10705262 0.023462752
0.52651429 0.10790788 0.02345754
0.52654028 0.10876314 0.023452329
0.52656627 0.1096184 0.023447117
0.52740628 0.11030748 0.02402145
0.5274322 0.11116114 0.024016248
0.52664429 0.11218415 0.023431482
0.52667028 0.11303941 0.02342627
0.52669626 0.11389466 0.023421058
0.52753597 0.11457579 0.02399544
0.5275619 0.11542945 0.023990238
0.52758789 0.11628311 0.023985036
0.52761382 0.11713678 0.023979833
0.52908725 0.040144514 0.026107335
0.52911299 0.040991805 0.026102172
0.52913874 0.0418391 0.026097009
0.52916449 0.042686392 0.026091846
0.52919024 0.043533683 0.026086682
0.52839929 0.044424478 0.025501454
0.5284251 0.045273364 0.025496282
0.52845091 0.046122249 0.025491109
0.52847666 0.046971131 0.025485935
0.527686 0.047869887 0.024900693
0.52771181 0.048720367 0.024895512
0.52773768 0.049570844 0.024890328
0.52776355 0.05042132 0.024885146
0.52778941 0.0512718 0.024879964
0.52781522 0.052122273 0.02487478
0.52784109 0.052972753 0.024869598
0.52786696 0.053823233 0.024864415
0.52789277 0.054673709 0.024859233
0.52791864 0.055524185 0.024854051
0.52794451 0.056374665 0.024848867
0.52797031 0.057225142 0.024843685
0.52799618 0.058075618 0.024838503
0.52802205 0.058926094 0.02483332
0.52804792 0.059776574 0.024828138
0.52807373 0.060627051 0.024822954
0.5280996 0.061477527 0.024817772
0.52812546 0.062328003 0.02481259
0.52815127 0.06317848 0.024807407
0.52817714 0.064028956 0.024802225
0.52820301 0.06487944 0.024797043
0.52822882 0.065729916 0.024791859
0.52825469 0.066580392 0.024786677
0.52828056 0.067430869 0.024781493
0.52830642 0.068281345 0.024776312
0.52833223 0.069131821 0.02477113
0.5283581 0.069982298 0.024765946
0.52838397 0.070832781 0.024760764
0.52840978 0.071683258 0.024755582
0.52843565 0.072533734 0.024750398
0.52846152 0.07338421 0.024745217
0.52848732 0.074234687 0.024740033
0.52851319 0.075085171 0.024734851
0.52772415 0.07603807 0.02414928
0.52775007 0.076890141 0.024144087
0.52777594 0.077742212 0.024138894
0.52780187 0.078594282 0.024133703
0.52782774 0.079446353 0.02412851
0.52785367 0.080298424 0.024123318
0.52787954 0.081150495 0.024118125
0.52790546 0.082002565 0.024112932
0.52793133 0.082854629 0.024107741
0.52795726 0.083706699 0.024102548
0.52798313 0.08455877 0.024097357
0.52719468 0.085530788 0.023511669
0.52722061 0.086384453 0.023506466
0.52724659 0.087238118 0.023501264
0.52727252 0.088091776 0.023496062
0.52729845 0.088945441 0.023490859
0.52732444 0.089799106 0.023485659
0.52735037 0.090652764 0.023480456
0.52737629 0.091506429 0.023475254
0.52740228 0.092360087 0.023470052
0.52661425 0.093348034 0.022884266
0.52664024 0.094203286 0.022879055
0.52666628 0.095058545 0.022873843
0.52669227 0.095913798 0.022868631
0.52671826 0.096769057 0.02286342
0.52674425 0.097624309 0.022858208
0.52677023 0.098479569 0.022852996
0.52598262 0.099480264 0.022267098
0.52600867 0.10033711 0.022261877
0.52603471 0.10119395 0.022256656
0.5260607 0.1020508 0.022251435
0.52608675 0.10290765 0.022246214
0.52611279 0.1037645 0.022240991
0.52613884 0.10462134 0.02223577
0.52616489 0.1054782 0.022230549
0.52619094 0.10633504 0.022225328
0.52621698 0.1071919 0.022220107
0.52705622 0.10788737 0.022795668
0.5270822 0.10874263 0.022790456
0.52710819 0.10959789 0.022785245
0.52713418 0.11045314 0.022780033
0.52716017 0.1113084 0.022774821
0.52718616 0.11216365 0.022769609
0.52721214 0.11301891 0.022764398
0.52642536 0.11404668 0.022178335
0.52645141 0.11490352 0.022173114
0.52647746 0.11576037 0.022167891
0.5265035 0.11661722 0.02216267
0.5296756 0.041818786 0.025441296
0.52970135 0.042666078 0.025436133
0.52891135 0.043555241 0.024849685
0.52893716 0.044404127 0.024844512
0.52819902 0.046999022 0.0242477
0.52822489 0.047849499 0.024242518
0.5274353 0.048751399 0.023656024
0.52746117 0.049603473 0.023650831
0.5274871 0.05045554 0.023645639
0.52751297 0.051307611 0.023640446
0.5275389 0.052159678 0.023635255
0.52756476 0.053011753 0.023630062
0.52759069 0.053863823 0.023624869
0.52761656 0.05471589 0.023619678
0.52764249 0.055567961 0.023614485
0.52766836 0.056420032 0.023609294
0.52769428 0.057272103 0.023604101
0.52772015 0.05812417 0.023598908
0.52774608 0.05897624 0.023593716
0.52777195 0.059828311 0.023588523
0.52779788 0.060680382 0.023583332
0.52782375 0.061532453 0.023578139
0.52784967 0.06238452 0.023572948
0.52787554 0.063236594 0.023567755
0.52790147 0.064088665 0.023562562
0.52792734 0.064940736 0.023557371
0.52795327 0.065792799 0.023552177
0.52797914 0.06664487 0.023546986
0.52800506 0.06749694 0.023541793
0.52803093 0.068349011 0.0235366
0.52805686 0.069201082 0.023531409
0.52808273 0.070053153 0.023526216
0.52810866 0.070905223 0.023521025
0.52813452 0.071757294 0.023515832
0.52816045 0.072609365 0.02351064
0.52818632 0.073461436 0.023505447
0.52821225 0.074313499 0.023500254
0.52823818 0.07516557 0.023495063
0.52826405 0.076017641 0.02348987
0.52828997 0.076869711 0.023484679
0.52831584 0.077721789 0.023479486
0.52752799 0.078681022 0.022892641
0.52755398 0.079534687 0.02288744
0.5275799 0.080388345 0.022882238
0.52760583 0.08124201 0.022877036
0.52763176 0.082095668 0.022871833
0.52765775 0.082949333 0.022866633
0.52768368 0.083802991 0.02286143
0.5277096 0.084656663 0.022856228
0.52692223 0.085630231 0.022269299
0.52694821 0.086485483 0.022264088
0.5269742 0.087340742 0.022258876
0.52700019 0.088195994 0.022253664
0.52702618 0.089051254 0.022248453
0.52705222 0.089906506 0.022243241
0.52707821 0.090761758 0.022238029
0.5271042 0.091617018 0.022232817
0.52713019 0.09247227 0.022227606
0.52715617 0.09332753 0.022222394
0.52718216 0.094182782 0.022217182
0.52720815 0.095038034 0.022211971
0.52642137 0.096032329 0.021624878
0.52644736 0.096889168 0.021619657
0.5264734 0.097746015 0.021614436
0.52649945 0.098602869 0.021609213
0.5265255 0.099459723 0.021603992
0.52655154 0.10031656 0.021598771
0.52657759 0.10117341 0.02159355
0.52660364 0.10203026 0.021588329
0.52662969 0.10288711 0.021583106
0.52584338 0.10389731 0.020995952
0.52668178 0.1046008 0.021572664
0.52670783 0.10545766 0.021567443
0.52673388 0.1063145 0.021562222
0.52675992 0.10717135 0.021557
0.52678597 0.10802819 0.021551779
0.52681202 0.10888504 0.021546558
0.52683806 0.1097419 0.021541337
0.52686411 0.11059874 0.021536114
0.52689016 0.11145559 0.021530893
0.52691621 0.11231244 0.021525672
0.52694225 0.11316929 0.021520451
0.52615649 0.1141986 0.020933179
0.52618259 0.11505704 0.020927949
0.5262087 0.11591548 0.020922717
0.52623481 0.11677392 0.020917486
0.53021246 0.041798472 0.024785588
0.53023821 0.042645764 0.024780424
0.52944922 0.04353489 0.024192743
0.52866036 0.044427197 0.023605073
0.52792335 0.047026832 0.023007002
0.52794927 0.047878902 0.023001811
0.52797514 0.048730973 0.022996617
0.52800107 0.049583044 0.022991424
0.52721262 0.050489686 0.022403669
0.52723861 0.051343344 0.022398466
0.52807879 0.052139252 0.022975849
0.52810466 0.052991323 0.022970656
0.52813059 0.053843394 0.022965465
0.52815646 0.054695465 0.022960272
0.52818239 0.055547532 0.022955079
0.52820826 0.056399602 0.022949887
0.52823418 0.057251673 0.022944694
0.52826005 0.058103744 0.022939503
0.52828598 0.058955811 0.02293431
0.52831185 0.059807885 0.022929117
0.52833778 0.060659952 0.022923926
0.52836365 0.061512023 0.022918733
0.52838957 0.062364094 0.022913542
0.52841544 0.063216165 0.022908349
0.52844137 0.064068235 0.022903157
0.52846724 0.064920306 0.022897964
0.52849317 0.06577237 0.022892771
0.52851903 0.06662444 0.02288758
0.52854496 0.067476511 0.022882387
0.52857083 0.068328582 0.022877196
0.52778345 0.069270261 0.022289224
0.52780944 0.070123926 0.022284023
0.52783537 0.070977591 0.022278821
0.5278613 0.071831249 0.022273619
0.52788728 0.072684914 0.022268416
0.52791321 0.073538579 0.022263214
0.52793914 0.074392237 0.022258013
0.52796513 0.075245902 0.022252811
0.52799106 0.076099567 0.022247609
0.52801698 0.076953225 0.022242406
0.52804297 0.07780689 0.022237204
0.52725619 0.078767687 0.02164912
0.52728218 0.079622939 0.021643909
0.52730817 0.080478191 0.021638697
0.52733415 0.081333451 0.021633485
0.52736014 0.082188703 0.021628274
0.52738613 0.083043955 0.021623062
0.52741212 0.083899215 0.02161785
0.5274381 0.084754474 0.021612639
0.52746415 0.085609727 0.021607427
0.52749014 0.086464979 0.021602215
0.52751613 0.087320238 0.021597004
0.52672988 0.088300146 0.021008765
0.52675593 0.089156993 0.021003544
0.52678198 0.090013847 0.020998321
0.52680802 0.090870693 0.0209931
0.52683407 0.09172754 0.020987879
0.52686006 0.092584386 0.020982658
0.52688611 0.09344124 0.020977437
0.52691215 0.094298087 0.020972215
0.5269382 0.095154934 0.020966994
0.52696425 0.09601178 0.020961773
0.52699029 0.096868627 0.020956552
0.52701634 0.097725473 0.020951329
0.52623075 0.098726086 0.020363003
0.52625686 0.099584527 0.020357771
0.52628297 0.10044296 0.020352541
0.52630907 0.10130141 0.02034731
0.52633512 0.10215985 0.020342078
0.52636123 0.10301829 0.020336848
0.52638733 0.10387673 0.020331616
0.52641344 0.10473517 0.020326385
0.52643949 0.10559361 0.020321153
0.52646559 0.10645204 0.020315923
0.5264917 0.10731049 0.020310692
0.52651781 0.10816893 0.02030546
0.52654386 0.10902737 0.02030023
0.52656996 0.10988582 0.020294998
0.52659607 0.11074425 0.020289768
0.52662218 0.11160269 0.020284537
0.52664822 0.11246113 0.020279305
0.52667433 0.11331958 0.020274075
0.52588969 0.11435045 0.019685561
0.5259158 0.11521047 0.019680319
0.52594197 0.11607052 0.019675078
0.52596813 0.11693054 0.019669838
0.52599424 0.11779058 0.019664597
0.52917337 0.043556329 0.02295208
0.52838558 0.044450194 0.022363171
0.52764976 0.047054566 0.021763837
0.52767569 0.047908228 0.021758635
0.52770162 0.048761893 0.021753432
0.5277276 0.049615555 0.021748232
0.52694023 0.050523754 0.021159234
0.52696621 0.051379006 0.021154022
0.5269922 0.052234262 0.02114881
0.52701819 0.053089518 0.021143598
0.52704418 0.053944774 0.021138387
0.52707016 0.05480003 0.021133175
0.52709621 0.055655282 0.021127963
0.5271222 0.056510542 0.021122752
0.52796113 0.057298519 0.021701412
0.52798706 0.05815218 0.021696212
0.52801299 0.059005845 0.021691009
0.52803898 0.059859507 0.021685807
0.52806491 0.060713172 0.021680605
0.52809083 0.061566833 0.021675404
0.52811682 0.062420495 0.021670202
0.52814275 0.06327416 0.021664999
0.52816868 0.064127818 0.021659797
0.52819467 0.064981483 0.021654595
0.52822059 0.065835148 0.021649394
0.52824652 0.066688813 0.021644192
0.52827251 0.067542471 0.021638989
0.52748615 0.068484113 0.021049788
0.52751213 0.069339372 0.021044577
0.52753812 0.070194624 0.021039365
0.52756411 0.071049884 0.021034153
0.5275901 0.071905136 0.021028941
0.52761608 0.072760396 0.02102373
0.52764207 0.073615648 0.021018518
0.52766812 0.0744709 0.021013306
0.52769411 0.07532616 0.021008095
0.52772009 0.076181412 0.021002883
0.52774608 0.077036664 0.020997671
0.52777207 0.077891923 0.02099246
0.52779806 0.078747183 0.020987248
0.52782404 0.079602435 0.020982036
0.52785009 0.080457687 0.020976825
0.52706444 0.081424817 0.02038743
0.52709049 0.082281664 0.020382209
0.52711654 0.083138518 0.020376988
0.52714258 0.083995357 0.020371767
0.52716863 0.084852211 0.020366546
0.52719468 0.085709065 0.020361323
0.52722073 0.086565912 0.020356102
0.52724671 0.087422758 0.020350881
0.52727276 0.088279605 0.02034566
0.52729881 0.089136451 0.020340437
0.52732486 0.089993298 0.020335216
0.5273509 0.090850152 0.020329995
0.52737695 0.091706999 0.020324774
0.527403 0.092563845 0.020319553
0.52661812 0.093554862 0.01973005
0.52664423 0.094413303 0.01972482
0.52667034 0.095271744 0.019719588
0.52669644 0.096130177 0.019714357
0.52672249 0.096988618 0.019709125
0.5267486 0.097847067 0.019703895
0.5267747 0.0987055 0.019698665
0.52680081 0.099563949 0.019693432
0.52601635 0.10056929 0.019103844
0.52604252 0.10142933 0.019098602
0.52606863 0.10228936 0.019093363
0.52609479 0.10314939 0.019088121
0.52612096 0.10400943 0.01908288
0.52614707 0.10486946 0.01907764
0.52617323 0.1057295 0.019072399
0.52619934 0.10658952 0.019067157
0.52622551 0.10744956 0.019061917
0.52625161 0.10830958 0.019056676
0.52627778 0.10916962 0.019051434
0.52630395 0.11002966 0.019046195
0.52633005 0.11088969 0.019040953
0.52635622 0.11174972 0.019035714
0.52638233 0.11260976 0.019030472
0.52640849 0.11346979 0.019025231
0.5264346 0.11432982 0.019019991
0.5256511 0.11536384 0.018430227
0.52567726 0.11622547 0.018424977
0.52570343 0.1170871 0.018419726
0.52492005 0.1181275 0.017829888
0.52737814 0.047082227 0.020518206
0.52740413 0.047937479 0.020512994
0.52743012 0.048792735 0.020507783
0.5274561 0.049647994 0.020502571
0.52748215 0.050503246 0.020497359
0.52750814 0.051358502 0.020492148
0.52753413 0.052213758 0.020486936
0.52756011 0.053069014 0.020481722
0.5275861 0.05392427 0.020476511
0.52761209 0.054779522 0.020471299
0.52763808 0.055634778 0.020466087
0.52766412 0.056490034 0.020460876
0.52769011 0.05734529 0.020455664
0.5277161 0.058200546 0.020450452
0.52774209 0.059055798 0.020445241
0.52776808 0.059911057 0.020440029
0.52779406 0.060766309 0.020434817
0.52782005 0.061621565 0.020429606
0.52784604 0.062476821 0.020424394
0.52787209 0.063332073 0.020419182
0.52789807 0.064187333 0.020413971
0.52792406 0.065042585 0.020408759
0.52795005 0.065897845 0.020403547
0.52797604 0.066753097 0.020398336
0.52800202 0.067608356 0.020393124
0.52802801 0.068463609 0.020387912
0.52805406 0.069318861 0.0203827
0.52808005 0.07017412 0.020377489
0.52810603 0.07102938 0.020372277
0.52813202 0.071884632 0.020367065
0.52734691 0.072835796 0.019776538
0.52737296 0.073692642 0.019771317
0.527399 0.074549489 0.019766096
0.52742505 0.075406343 0.019760875
0.5274511 0.076263182 0.019755652
0.52747715 0.077120036 0.019750431
0.52750319 0.077976882 0.01974521
0.52752924 0.078833736 0.019739989
0.52755529 0.079690583 0.019734768
0.52758133 0.08054743 0.019729545
0.52760738 0.081404276 0.019724324
0.52763337 0.082261123 0.019719103
0.52765942 0.083117977 0.019713882
0.52687508 0.084091425 0.019123252
0.52690113 0.084949873 0.019118022
0.52692723 0.085808314 0.019112792
0.52695334 0.086666755 0.01910756
0.52697945 0.087525189 0.019102329
0.52700549 0.088383637 0.019097097
0.5270316 0.089242071 0.019091867
0.52705771 0.090100512 0.019086635
0.52708381 0.090958953 0.019081404
0.52710992 0.091817401 0.019076174
0.52713597 0.092675835 0.019070942
0.52716208 0.093534276 0.019065712
0.52718818 0.094392717 0.019060479
0.52721429 0.095251158 0.019055249
0.52724034 0.096109599 0.019050019
0.52645677 0.097108543 0.018459234
0.52648288 0.097968571 0.018453993
0.52650905 0.098828606 0.018448753
0.52653515 0.099688634 0.018443512
0.52656132 0.10054867 0.01843827
0.52658743 0.10140871 0.018433031
0.52661359 0.10226874 0.018427789
0.52663976 0.10312877 0.018422548
0.52666587 0.10398881 0.018417308
0.52669203 0.10484884 0.018412067
0.52671814 0.10570887 0.018406825
0.52674431 0.1065689 0.018401586
0.52677041 0.10742894 0.018396344
0.52679658 0.10828897 0.018391104
0.52682275 0.109149 0.018385863
0.52684885 0.11000904 0.018380621
0.52687502 0.11086906 0.018375382
0.52690113 0.11172911 0.01837014
0.52611846 0.1127583 0.017779171
0.52614462 0.11361993 0.017773923
0.52536207 0.11465392 0.01718289
0.5253883 0.11551713 0.01717763
0.52541453 0.11638036 0.017172368
0.52544075 0.11724357 0.017167108
0.52546698 0.1181068 0.017161848
0.52710849 0.047109812 0.019270075
0.52713454 0.047966659 0.019264853
0.52716058 0.048823506 0.019259632
0.52718663 0.049680356 0.019254411
0.52721268 0.050537203 0.01924919
0.52723873 0.051394049 0.019243969
0.52726477 0.052250899 0.019238746
0.52729082 0.053107746 0.019233525
0.52731687 0.053964596 0.019228304
0.52734292 0.054821443 0.019223083
0.52736896 0.055678289 0.01921786
0.52739501 0.05653514 0.019212639
0.52742106 0.057391986 0.019207418
0.5274471 0.058248837 0.019202197
0.52747315 0.059105683 0.019196976
0.5274992 0.059962533 0.019191753
0.52752519 0.06081938 0.019186532
0.52755123 0.061676227 0.019181311
0.52757728 0.062533073 0.01917609
0.52760333 0.063389927 0.019170867
0.52762938 0.064246774 0.019165646
0.52765542 0.06510362 0.019160425
0.52768147 0.065960467 0.019155204
0.52770752 0.066817313 0.019149983
0.52773356 0.067674167 0.01914476
0.52775961 0.068531014 0.019139539
0.52778566 0.069387861 0.019134318
0.52781171 0.070244707 0.019129097
0.52783775 0.071101561 0.019123876
0.5278638 0.071958408 0.019118654
0.52788985 0.072815254 0.019113433
0.52791589 0.073672101 0.019108212
0.52794194 0.074528947 0.019102991
0.52796799 0.075385794 0.019097768
0.52799404 0.076242641 0.019092547
0.52721024 0.077203318 0.018500766
0.52723634 0.078061767 0.018495535
0.52726245 0.078920208 0.018490303
0.5272885 0.079778649 0.018485073
0.5273146 0.080637082 0.018479841
0.52734071 0.081495531 0.018474611
0.52736682 0.082353964 0.01846938
0.52739292 0.083212405 0.018464148
0.52741897 0.084070846 0.018458918
0.52744508 0.084929295 0.018453686
0.52747118 0.085787728 0.018448455
0.52749729 0.086646169 0.018443223
0.52752334 0.08750461 0.018437993
0.52674025 0.088487588 0.017846072
0.52676642 0.089347616 0.017840832
0.52679259 0.090207651 0.017835591
0.52681869 0.091067687 0.01783035
0.52684486 0.091927722 0.01782511
0.52687097 0.09278775 0.017819868
0.52689713 0.093647785 0.017814629
0.52692324 0.094507821 0.017809387
0.52694941 0.095367849 0.017804146
0.52697557 0.096227884 0.017798906
0.52700168 0.09708792 0.017793665
0.52702785 0.097947955 0.017788423
0.52705395 0.098807983 0.017783184
0.52708012 0.099668019 0.017777942
0.52629775 0.10067488 0.017185876
0.52632391 0.1015365 0.017180625
0.52635014 0.10239814 0.017175376
0.52637631 0.10325976 0.017170126
0.52640253 0.10412139 0.017164875
0.5264287 0.10498301 0.017159624
0.52645487 0.10584464 0.017154373
0.52648109 0.10670626 0.017149122
0.52650726 0.10756789 0.017143872
0.52653348 0.10842951 0.017138623
0.52655965 0.10929114 0.017133372
0.52658582 0.11015277 0.017128121
0.52661204 0.11101439 0.01712287
0.52663821 0.11187603 0.01711762
0.52585655 0.11290678 0.016525377
0.52588278 0.11377001 0.016520116
0.52590901 0.11463322 0.016514856
0.52593523 0.11549643 0.016509596
0.52515388 0.11653516 0.015917337
0.52518016 0.11739997 0.015912067
0.52439892 0.11844347 0.015319778
0.52603042 0.047185365 0.017432058
0.52686703 0.047995757 0.018014284
0.52689314 0.048854198 0.018009054
0.52691919 0.049712639 0.018003821
0.52694529 0.05057108 0.017998591
0.5269714 0.051429521 0.017993361
0.52699751 0.052287962 0.017988129
0.52702361 0.053146403 0.017982898
0.52704966 0.054004844 0.017977666
0.52707577 0.054863282 0.017972436
0.52710187 0.055721723 0.017967204
0.52712798 0.056580167 0.017961973
0.52715403 0.057438605 0.017956743
0.52718014 0.058297046 0.017951511
0.52720624 0.059155487 0.017946281
0.52723235 0.060013928 0.017941048
0.5272584 0.060872369 0.017935818
0.5272845 0.06173081 0.017930586
0.52731061 0.062589251 0.017925356
0.52733672 0.063447692 0.017920125
0.52736276 0.064306132 0.017914893
0.52738887 0.065164573 0.017909663
0.52741498 0.066023007 0.017904431
0.52744108 0.066881455 0.0178992
0.52746713 0.067739896 0.017893968
0.52749324 0.06859833 0.017888738
0.52751935 0.069456778 0.017883508
0.52754545 0.070315212 0.017878275
0.52757156 0.07117366 0.017873045
0.52759761 0.072032094 0.017867813
0.52762371 0.072890542 0.017862583
0.52764982 0.073748976 0.01785735
0.52767593 0.074607417 0.01785212
0.52770197 0.075465858 0.01784689
0.52772808 0.076324299 0.017841658
0.52775419 0.07718274 0.017836427
0.52778029 0.078041188 0.017831195
0.52780634 0.078899622 0.017825965
0.52783245 0.079758063 0.017820733
0.52785856 0.080616504 0.017815502
0.52707607 0.081586696 0.017222427
0.52710223 0.082446732 0.017217185
0.5271284 0.083306767 0.017211946
0.52715451 0.084166795 0.017206704
0.52718067 0.08502683 0.017201463
