# .PCD v0.7 - Point Cloud Data file format
VERSION 0.7
FIELDS x y z
SIZE 4 4 4
TYPE F F F
COUNT 1 1 1
WIDTH 1410
HEIGHT 1
VIEWPOINT 0 0 0 1 0 0 0
POINTS 1410
DATA ascii
0.56737751 0.096625373 0.033207752
0.56740165 0.097420111 0.033202909
0.56742585 0.098214842 0.033198066
0.56744999 0.099009581 0.033193223
0.56826818 0.099646859 0.033792529
0.56829226 0.10044001 0.033787694
0.5683164 0.10123315 0.033782862
0.56834048 0.10202629 0.033778027
0.56836462 0.10281944 0.033773195
0.56918252 0.10344716 0.034372576
0.5692066 0.10423872 0.034367751
0.56923062 0.10503026 0.034362927
0.5692547 0.10582181 0.034358107
0.57007235 0.10644158 0.034957517
0.57009637 0.10723154 0.034952704
0.57012039 0.1080215 0.034947887
0.57014441 0.10881145 0.034943074
0.57016838 0.10960141 0.034938261
0.57098579 0.11021162 0.035537731
0.57100976 0.11099999 0.035532925
0.57103372 0.11178835 0.03552812
0.57105768 0.11257672 0.035523318
0.5718748 0.11317896 0.036122851
0.5718987 0.11396573 0.03611806
0.57192266 0.1147525 0.036113266
0.57194656 0.11553928 0.036108471
0.57197046 0.11632605 0.036103677
0.57278728 0.11691874 0.036703251
0.57281119 0.11770392 0.036698468
0.57283503 0.11848909 0.036693681
0.57365167 0.11907542 0.037293315
0.57367551 0.11985901 0.037288539
0.5736993 0.12064259 0.037283767
0.57451576 0.12122256 0.03788342
0.57453954 0.12200454 0.037878655
0.57456332 0.12278654 0.03787389
0.57537961 0.1233601 0.038473599
0.57540333 0.12414052 0.038468845
0.575427 0.12492092 0.038464088
0.5762431 0.12548813 0.039063819
0.57626677 0.12626694 0.039059073
0.57629043 0.12704574 0.039054327
0.57631409 0.12782456 0.039049581
0.5771299 0.1283838 0.03964936
0.57715356 0.12916102 0.039644625
0.57717717 0.12993823 0.03963989
0.57720077 0.13071544 0.039635152
0.5780164 0.13126674 0.040234998
0.57803994 0.13204235 0.040230274
0.57806355 0.13281798 0.040225547
0.57808709 0.1335936 0.040220819
0.57890242 0.13413692 0.040820695
0.57892597 0.13491094 0.040815979
0.57894951 0.13568498 0.040811263
0.578973 0.13645902 0.040806547
0.57978815 0.13699436 0.04140649
0.57981163 0.13776681 0.041401781
0.57983512 0.13853924 0.041397076
0.5798586 0.13931167 0.041392367
0.57988203 0.14008412 0.041387662
0.57990551 0.14085655 0.041382954
0.57992899 0.14162898 0.041378248
0.57995248 0.14240143 0.04137354
0.57997596 0.14317386 0.041368835
0.57920831 0.14419931 0.040759377
0.57844073 0.14522794 0.040149923
0.57767326 0.14625975 0.039540429
0.57690591 0.14729476 0.038930934
0.57613862 0.14833292 0.038321421
0.57537144 0.14937431 0.03771187
0.57460439 0.15041886 0.037102316
0.5738374 0.15146659 0.036492728
0.57386124 0.15225178 0.036487941
0.57309443 0.15330429 0.035878342
0.57311833 0.15409106 0.035873547
0.57314223 0.15487784 0.035868753
0.55327761 0.088620767 0.021761667
0.55409646 0.089312248 0.022361875
0.55491519 0.09000054 0.022962101
0.55652755 0.090550527 0.024167625
0.55813968 0.091094159 0.025373153
0.55975169 0.091631405 0.026578756
0.56215698 0.092022404 0.028389635
0.56376857 0.092545316 0.029595325
0.56537986 0.093061872 0.030801019
0.56619757 0.093716726 0.031401448
0.56622183 0.094514638 0.031396586
0.56703943 0.095164701 0.031997081
0.56706363 0.095961034 0.031992227
0.56708789 0.096757352 0.031987377
0.56790525 0.09740106 0.032587875
0.56792939 0.098195784 0.032583032
0.56795353 0.098990522 0.032578189
0.56797773 0.099785253 0.032573346
0.56800187 0.10057999 0.032568503
0.56881893 0.10121413 0.033169057
0.56884307 0.10200728 0.033164226
0.56886715 0.10280042 0.03315939
0.56889129 0.10359356 0.033154558
0.56891537 0.1043867 0.033149727
0.56973219 0.10501128 0.033750359
0.56975627 0.10580283 0.033745535
0.56978029 0.10659438 0.03374071
0.56980437 0.10738593 0.033735886
0.57062089 0.10800256 0.034336552
0.57064492 0.10879251 0.034331735
0.57066894 0.10958247 0.034326922
0.57069296 0.11037242 0.034322109
0.57071698 0.11116238 0.034317296
0.570741 0.11195233 0.034312483
0.57155716 0.11255781 0.034913212
0.57158113 0.11334617 0.034908406
0.57160509 0.11413454 0.034903605
0.57162905 0.11492291 0.034898799
0.57244503 0.11552041 0.035499595
0.572469 0.11630718 0.035494801
0.5724929 0.11709395 0.035490006
0.5725168 0.11788073 0.035485215
0.57333255 0.11847027 0.036086041
0.57335639 0.11925545 0.036081258
0.57338029 0.12004063 0.036076471
0.5741958 0.1206238 0.036677357
0.57421964 0.12140739 0.036672581
0.57503504 0.12198579 0.037273478
0.57505882 0.12276778 0.037268713
0.57508254 0.12354977 0.037263948
0.57510632 0.12433178 0.037259184
0.57592154 0.12490221 0.037860144
0.5759452 0.12568261 0.03785539
0.57676023 0.12624827 0.038456362
0.5767839 0.12702706 0.038451616
0.57680756 0.12780589 0.03844687
0.57683122 0.12858468 0.038442124
0.57685494 0.12936349 0.038437378
0.57766962 0.12991959 0.039038409
0.57769322 0.13069682 0.039033674
0.57771689 0.13147403 0.039028939
0.57774049 0.13225125 0.0390242
0.57855499 0.13279939 0.039625302
0.57857859 0.13357501 0.039620575
0.57860214 0.13435063 0.039615847
0.57862574 0.13512625 0.03961112
0.57943994 0.13566643 0.040212251
0.57946348 0.13644046 0.040207535
0.57948703 0.13721448 0.040202815
0.57951051 0.13798852 0.040198099
0.57953405 0.13876255 0.040193383
0.5795576 0.13953657 0.040188666
0.5803715 0.1400656 0.04078988
0.58039498 0.14083803 0.040785175
0.58041847 0.14161046 0.040780466
0.57965171 0.14263269 0.040169798
0.5796752 0.14340673 0.040165082
0.57969874 0.14418076 0.040160365
0.57893217 0.14520934 0.039549679
0.57816571 0.14624111 0.038938951
0.57739937 0.14727607 0.038328223
0.5766331 0.14831422 0.037717476
0.57586694 0.14935556 0.037106693
0.5751009 0.15040007 0.036495909
0.57512468 0.15118366 0.036491133
0.57435876 0.15223296 0.035880301
0.5743826 0.15301813 0.035875518
0.57361686 0.15407221 0.035264671
0.57443035 0.15458849 0.035865948
0.55459219 0.088470735 0.02173089
0.55461717 0.089292541 0.021725882
0.55622768 0.089847386 0.022933844
0.55783796 0.090395868 0.024141807
0.56266761 0.092003077 0.027765969
0.56427717 0.092526071 0.028974125
0.56588644 0.093042709 0.030182283
0.56670314 0.093697593 0.030783946
0.5667274 0.094495505 0.030779084
0.56675166 0.095293432 0.030774221
0.56756824 0.095941938 0.03137596
0.56759244 0.096738264 0.031371105
0.56761664 0.097534589 0.031366251
0.56764084 0.098330915 0.031361401
0.56766504 0.099127248 0.031356547
0.56848127 0.099766202 0.031958308
0.56850541 0.10056093 0.031953465
0.56852961 0.10135566 0.031948622
0.56855375 0.10215041 0.031943779
0.56857789 0.10294515 0.031938937
0.56939381 0.10357454 0.032540753
0.56941795 0.10436769 0.032535922
0.56944203 0.10516082 0.032531086
0.56946617 0.10595398 0.032526255
0.56949025 0.10674711 0.032521419
0.57030594 0.10736696 0.033123314
0.57032996 0.10815851 0.03311849
0.57035404 0.10895005 0.033113666
0.57037807 0.1097416 0.033108845
0.57119352 0.11035348 0.033710767
0.57121748 0.11114344 0.033705954
0.5712415 0.1119334 0.03370114
0.57126552 0.11272336 0.033696327
0.57128954 0.11351331 0.033691514
0.57131356 0.11430327 0.033686697
0.57212859 0.11490401 0.034288693
0.57215255 0.11569237 0.034283888
0.57217652 0.11648074 0.034279086
0.57220048 0.11726909 0.03427428
0.57301533 0.11786187 0.034876339
0.57303923 0.11864863 0.034871545
0.57306314 0.11943541 0.03486675
0.57387775 0.12002181 0.035468828
0.57390165 0.12080698 0.035464045
0.57471615 0.12138861 0.036066171
0.57473993 0.12217219 0.036061399
0.57476377 0.12295578 0.036056623
0.57557803 0.12353103 0.036658771
0.57560182 0.12431303 0.036654007
0.5756256 0.12509502 0.036649238
0.57643974 0.12566389 0.037251446
0.5764634 0.1264443 0.037246689
0.57648712 0.1272247 0.037241932
0.57730103 0.12778722 0.037844159
0.57732469 0.12856601 0.037839413
0.57734841 0.12934482 0.037834667
0.57737207 0.13012363 0.037829921
0.57739574 0.13090244 0.037825175
0.57820934 0.13145539 0.038427457
0.57823294 0.13223261 0.038422722
0.57825661 0.13300984 0.038417988
0.57828021 0.13378704 0.038413249
0.57909358 0.13433203 0.039015602
0.57911718 0.13510765 0.039010875
0.57914072 0.13588327 0.039006148
0.57916433 0.13665891 0.03900142
0.57918787 0.13743453 0.038996696
0.580001 0.13796996 0.039599083
0.58002448 0.13874398 0.039594367
0.58004802 0.13951802 0.039589651
0.58007157 0.14029205 0.039584935
0.58009505 0.14106607 0.039580218
0.5801186 0.1418401 0.039575502
0.58014214 0.14261414 0.039570786
0.58016568 0.14338817 0.039566066
0.57940006 0.14441513 0.038954157
0.57942367 0.14519075 0.03894943
0.57865816 0.14622249 0.038337473
0.57789284 0.1472574 0.037725512
0.57712758 0.14829551 0.037113532
0.57636243 0.14933681 0.036501516
0.57638621 0.15011881 0.036496751
0.57562119 0.15116487 0.035884723
0.57564503 0.15194847 0.035879947
0.57488012 0.15299931 0.035267875
0.57490402 0.15378448 0.035263088
0.57492787 0.15456967 0.035258304
0.55347914 0.087061547 0.019889597
0.55429608 0.087757878 0.020492239
0.5551129 0.088451028 0.021094901
0.55513787 0.089272842 0.021089893
0.55674636 0.089827761 0.02230032
0.55835462 0.090376318 0.023510749
0.56317824 0.091983758 0.027142305
0.56478578 0.092506826 0.028352926
0.56560159 0.09316653 0.028955791
0.56641734 0.093823053 0.029558677
0.56723303 0.094476379 0.030161582
0.56725729 0.095274299 0.030156719
0.56728148 0.096072227 0.030151857
0.56730574 0.096870132 0.030146994
0.56733 0.097668059 0.030142132
0.56814539 0.098311827 0.030745132
0.56816959 0.099108152 0.03074028
0.56819385 0.099904478 0.030735426
0.56821805 0.10070081 0.030730573
0.56824225 0.10149713 0.030725721
0.56905729 0.10213135 0.031328741
0.56908149 0.10292609 0.031323899
0.56910563 0.10372082 0.031319056
0.56912977 0.10451556 0.031314213
0.5691539 0.10531029 0.03130937
0.5699687 0.10593496 0.03191245
0.56999278 0.10672809 0.031907618
0.57001692 0.10752124 0.031902783
0.570041 0.10831438 0.031897951
0.57006514 0.10910752 0.031893119
0.57087964 0.10972262 0.032496274
0.57090372 0.11051417 0.032491449
0.57092774 0.11130572 0.032486625
0.57095182 0.11209727 0.032481801
0.5709759 0.11288882 0.03247698
0.57179004 0.11349437 0.033080176
0.57181406 0.11428433 0.033075362
0.57183808 0.11507428 0.033070546
0.5718621 0.11586425 0.033065733
0.57188612 0.1166542 0.033060919
0.57270002 0.11725019 0.033664174
0.57272398 0.11803856 0.033659369
0.57274795 0.11882693 0.033654567
0.57356167 0.11941654 0.034257878
0.57358557 0.12020332 0.034253083
0.57360953 0.12099008 0.034248289
0.57442302 0.12157334 0.034851622
0.57444686 0.12235852 0.034846835
0.57526028 0.12293699 0.035450213
0.57528412 0.12372058 0.035445441
0.57530791 0.12450416 0.035440665
0.57612109 0.12507628 0.036044065
0.57614487 0.12585826 0.0360393
0.5761686 0.12664026 0.036034532
0.5769816 0.12720598 0.036637988
0.57700533 0.12798639 0.036633234
0.57702905 0.12876679 0.036628477
0.57705277 0.12954719 0.036623724
0.57786554 0.13010496 0.03722721
0.5778892 0.13088377 0.037222464
0.57791287 0.13166258 0.037217718
0.57793653 0.13244139 0.037212972
0.57874906 0.13299119 0.037816506
0.57877266 0.13376841 0.037811771
0.57879627 0.13454562 0.037807036
0.57881993 0.13532284 0.037802298
0.57963222 0.13586468 0.038405903
0.57965577 0.13664031 0.038401175
0.57967937 0.13741593 0.038396448
0.57970291 0.13819155 0.038391724
0.57972652 0.13896717 0.038386997
0.58053845 0.13949947 0.038990639
0.580562 0.14027348 0.038985923
0.58058554 0.14104752 0.038981207
0.58060902 0.14182155 0.03897649
0.58063257 0.14259557 0.038971771
0.57986796 0.14362091 0.038358636
0.5798915 0.14439653 0.038353913
0.57991511 0.14517215 0.038349185
0.57915068 0.14620385 0.037735995
0.57838631 0.14723873 0.037122801
0.57840997 0.14801754 0.037118055
0.57764578 0.14905721 0.036504835
0.57688171 0.15010005 0.035891574
0.57690549 0.15088205 0.035886809
0.57614154 0.15192968 0.035273541
0.57616532 0.15271325 0.035268765
0.57618916 0.15349685 0.035263989
0.57621294 0.15428044 0.035259217
0.57623678 0.15506402 0.035254441
0.55397677 0.086216778 0.019256171
0.55400187 0.087041765 0.019251144
0.5548178 0.087738141 0.019855017
0.5556336 0.088431329 0.020458912
0.55565864 0.089253135 0.020453906
0.5572651 0.089808136 0.021666795
0.55887133 0.090356767 0.02287969
0.55968672 0.091035619 0.023483673
0.56289834 0.092104211 0.025909672
0.56450391 0.092628948 0.027122747
0.56610924 0.09314733 0.028335826
0.56692398 0.093803883 0.028939944
0.56694824 0.09460339 0.028935071
0.56697255 0.095402904 0.028930198
0.56778711 0.096053094 0.029534357
0.56781137 0.096851006 0.029529493
0.56783557 0.097648926 0.029524632
0.56785983 0.098446846 0.02951977
0.56788409 0.099244773 0.029514907
0.56790835 0.10004269 0.029510045
0.56872261 0.10068171 0.030114304
0.56874681 0.10147804 0.030109452
0.568771 0.10227437 0.0301046
0.5687952 0.1030707 0.030099748
0.5688194 0.10386702 0.030094896
0.56963331 0.1044965 0.030699177
0.5696575 0.10529123 0.030694334
0.56968164 0.10608597 0.030689491
0.56970578 0.1068807 0.030684648
0.57051945 0.10750222 0.031288981
0.57054359 0.10829537 0.031284146
0.57056767 0.10908851 0.031279314
0.57059181 0.10988165 0.031274483
0.57061589 0.11067478 0.031269647
0.57142931 0.11128674 0.031874057
0.57145333 0.11207829 0.031869233
0.57147741 0.11286984 0.031864408
0.57150149 0.11366139 0.031859584
0.57152551 0.11445294 0.03185476
0.57233864 0.11505534 0.032459211
0.57236266 0.11584531 0.032454394
0.57238662 0.11663526 0.032449581
0.57241064 0.11742522 0.032444768
0.57243466 0.11821517 0.032439955
0.57324749 0.11880802 0.033044461
0.57327145 0.11959638 0.033039656
0.57329541 0.12038475 0.033034854
0.574108 0.12097123 0.033639412
0.57413191 0.121758 0.033634618
0.57494438 0.1223397 0.034239195
0.57496828 0.12312488 0.034234408
0.57499212 0.12391005 0.034229625
0.57580441 0.12448538 0.034834255
0.57582825 0.12526897 0.034829482
0.57585204 0.12605254 0.034824707
0.57666409 0.12662151 0.035429358
0.57668787 0.1274035 0.035424594
0.57671165 0.1281855 0.035419825
0.57752353 0.12874807 0.036024537
0.57754725 0.12952848 0.03601978
0.57757097 0.13030887 0.036015026
0.57838267 0.1308651 0.036619753
0.57840633 0.13164391 0.036615007
0.57843 0.13242272 0.036610261
0.57845372 0.13320152 0.036605515
0.57847738 0.13398033 0.036600769
0.57928878 0.134527 0.037205558
0.57931238 0.1353042 0.037200823
0.57933599 0.13608143 0.037196085
0.57935965 0.13685864 0.03719135
0.58017081 0.13739733 0.037796203
0.58019435 0.13817295 0.037791476
0.58021796 0.13894857 0.037786752
0.58024156 0.1397242 0.037782025
0.5802651 0.14049982 0.037777297
0.58028871 0.14127544 0.037772574
0.58031225 0.14205106 0.037767846
0.58033586 0.14282669 0.037763119
0.5803594 0.14360231 0.037758391
0.580383 0.14437793 0.037753668
0.57961947 0.145408 0.037139252
0.57964313 0.14618522 0.037134517
0.57887977 0.14722006 0.03652009
0.57890344 0.14799887 0.036515344
0.57814032 0.14903849 0.035900891
0.57816398 0.1498189 0.035896137
0.57740098 0.1508633 0.035281636
0.57742471 0.15164529 0.035276867
0.57744849 0.15242729 0.035272103
0.57747227 0.15320928 0.035267338
0.57749605 0.15399128 0.035262574
0.57751977 0.15477327 0.035257809
0.54960746 0.081942111 0.014987462
0.55205393 0.084083885 0.016802501
0.55365926 0.084669232 0.018017638
0.55447441 0.085372001 0.018622743
0.55449951 0.086196996 0.018617716
0.55531448 0.086894996 0.019222813
0.55533952 0.087718397 0.019217795
0.55615437 0.088411622 0.019822923
0.55617934 0.089233436 0.019817915
0.55778378 0.089788504 0.021033272
0.55938798 0.090337217 0.022248631
0.56340998 0.092084855 0.025284775
0.56501353 0.092609666 0.026500316
0.56661683 0.093128122 0.027715858
0.56664115 0.093929224 0.027710976
0.56666553 0.094730325 0.027706096
0.56747913 0.095383734 0.028311465
0.56750345 0.096183255 0.028306592
0.56752777 0.096982762 0.028301721
0.56755203 0.097782277 0.028296849
0.56836545 0.098427713 0.028902268
0.56838971 0.09922564 0.028897405
0.56841391 0.10002355 0.028892543
0.56843817 0.10082148 0.02888768
0.56846243 0.1016194 0.028882818
0.56848669 0.10241732 0.028877957
0.56929982 0.1030516 0.029483479
0.56932402 0.10384793 0.029478626
0.56934822 0.10464426 0.029473774
0.56937242 0.10544058 0.02946892
0.56939662 0.10623691 0.029464068
0.57020938 0.10686164 0.030069614
0.57023352 0.10765639 0.030064771
0.57025766 0.10845113 0.030059928
0.57028186 0.10924586 0.030055085
0.57109433 0.10986263 0.030660676
0.57111847 0.11065577 0.030655844
0.57114255 0.11144892 0.030651011
0.57116669 0.11224206 0.030646177
0.57119077 0.1130352 0.030641343
0.57200301 0.11364241 0.031247014
0.57202709 0.11443397 0.03124219
0.57205117 0.11522552 0.031237366
0.57207519 0.11601707 0.031232543
0.57209927 0.11680862 0.031227719
0.5729112 0.11740628 0.031833429
0.57293522 0.11819623 0.031828616
0.57295924 0.11898619 0.031823803
0.57298321 0.11977614 0.03181899
0.5737949 0.12036585 0.032424744
0.57381886 0.12115421 0.032419942
0.57463044 0.12173913 0.033025745
0.57465434 0.1225259 0.033020951
0.5746783 0.12331267 0.033016156
0.57548964 0.12389123 0.033621985
0.57551348 0.12467641 0.033617198
0.5763247 0.12525018 0.034223072
0.57634854 0.12603377 0.034218296
0.57637239 0.12681735 0.034213524
0.57718337 0.12738475 0.034819417
0.57720715 0.12816675 0.034814652
0.57723093 0.12894873 0.034809887
0.57725471 0.12973073 0.034805119
0.57806545 0.13029017 0.035411082
0.57808918 0.13107057 0.035406325
0.5781129 0.13185097 0.035401572
0.57892352 0.13240404 0.03600755
0.57894719 0.13318285 0.036002804
0.57897085 0.13396166 0.035998061
0.57899451 0.13474046 0.035993315
0.57980484 0.13528557 0.036599346
0.57982844 0.13606279 0.036594607
0.5798521 0.13684 0.036589872
0.57987571 0.13761722 0.036585134
0.57989937 0.13839443 0.036580399
0.5807094 0.13892998 0.037186503
0.580733 0.1397056 0.03718178
0.58075655 0.14048122 0.037177052
0.58078015 0.14125684 0.037172325
0.58080369 0.14203246 0.037167598
0.5808273 0.14280809 0.037162874
0.58085084 0.14358371 0.037158147
0.58087444 0.14435934 0.037153419
0.58011198 0.14538938 0.036537774
0.58013558 0.14616658 0.036533039
0.57937324 0.14720139 0.035917379
0.57939696 0.1479802 0.035912633
0.57942063 0.14875901 0.035907887
0.57944429 0.14953782 0.035903141
0.57868218 0.15058059 0.035287436
0.57870591 0.15136099 0.035282683
0.57794398 0.15240853 0.034666929
0.57796776 0.15319054 0.034662161
0.57799155 0.15397254 0.034657396
0.57801527 0.15475452 0.034652632
0.54932165 0.081201762 0.013735418
0.55013627 0.081922099 0.014341612
0.55095088 0.082639247 0.014947862
0.55176532 0.083353214 0.015554097
0.55336881 0.083943412 0.016771669
0.55418301 0.084649414 0.01737795
0.55578613 0.085228451 0.018595627
0.55581117 0.086051852 0.018590609
0.5558362 0.086875252 0.018585591
0.5566501 0.087570108 0.019191941
0.55746388 0.088261783 0.01979831
0.5574888 0.089081995 0.019793311
0.55830246 0.089768879 0.020399747
0.55990469 0.090317667 0.021617571
0.56150669 0.090860084 0.022835433
0.56392163 0.092065491 0.024659878
0.56473464 0.092731684 0.025266401
0.56633604 0.093251795 0.026484437
0.56636041 0.094054498 0.026479546
0.56717312 0.094711117 0.027086129
0.56719744 0.095512226 0.027081247
0.56722182 0.096313335 0.027076365
0.56803435 0.096963592 0.027682988
0.56805867 0.097763106 0.027678115
0.56808293 0.098562613 0.027673243
0.56810725 0.099362135 0.027668372
0.56813157 0.10016164 0.027663499
0.5689438 0.10080235 0.028270179
0.56896806 0.10160027 0.028265316
0.56899226 0.10239819 0.028260455
0.56901652 0.10319611 0.028255591
0.56904078 0.10399403 0.02825073
0.56906503 0.10479195 0.028245866
0.56987697 0.10542149 0.028852651
0.56990117 0.10621782 0.028847799
0.56992537 0.10701414 0.028842947
0.56994957 0.10781047 0.028838094
0.57076126 0.10843207 0.02944489
0.5707854 0.1092268 0.029440047
0.57080954 0.11002154 0.029435204
0.57083368 0.11081627 0.029430361
0.57164514 0.11142991 0.030037206
0.57166922 0.11222304 0.030032372
0.57169336 0.11301618 0.03002754
0.57171744 0.11380932 0.030022707
0.57174158 0.11460247 0.030017873
0.57255268 0.11520654 0.030624796
0.57257676 0.11599809 0.030619971
0.57260078 0.11678964 0.030615147
0.57262486 0.11758118 0.030610325
0.57343572 0.11817729 0.031217277
0.57345974 0.11896725 0.031212462
0.57348377 0.11975721 0.031207649
0.57350779 0.12054717 0.031202836
0.57431841 0.12113532 0.031809837
0.57434237 0.12192368 0.031805031
0.57436633 0.12271204 0.031800225
0.57517678 0.12329381 0.032407284
0.57520074 0.12408058 0.032402489
0.57522464 0.12486735 0.032397695
0.5760349 0.12544276 0.033004772
0.57605875 0.12622795 0.032999989
0.57686889 0.12679857 0.033607114
0.57689267 0.12758215 0.033602338
0.57691652 0.12836573 0.033597562
0.57772642 0.12892999 0.03420471
0.57775015 0.12971199 0.034199946
0.57777393 0.13049397 0.034195177
0.57858366 0.13105185 0.034802381
0.57860738 0.13183226 0.034797627
0.5786311 0.13261266 0.03479287
0.57865483 0.13339306 0.034788113
0.57946432 0.13394299 0.035395347
0.57948798 0.13472179 0.035390601
0.57951164 0.13550059 0.035385855
0.57953531 0.1362794 0.035381112
0.58034456 0.13682137 0.035988394
0.58036816 0.13759857 0.035983656
0.58039182 0.1383758 0.035978921
0.58041543 0.13915302 0.035974182
0.58043903 0.13993023 0.035969447
0.58046269 0.14070745 0.035964713
0.58127159 0.14123824 0.03657208
0.58129519 0.14201386 0.036567353
0.58131874 0.1427895 0.036562625
0.58134234 0.14356512 0.036557898
0.58136588 0.14434074 0.036553174
0.58060443 0.14537074 0.035936296
0.58062804 0.14614795 0.035931557
0.58065164 0.14692517 0.035926823
0.5806753 0.14770238 0.035922088
0.57991409 0.14874034 0.035305176
0.57993776 0.14951915 0.03530043
0.57996142 0.15029795 0.035295684
0.57920039 0.15134227 0.034678739
0.57922411 0.15212268 0.034673981
0.57924783 0.15290307 0.034669228
0.57927155 0.15368348 0.034664471
0.57929528 0.15446387 0.034659714
0.54982603 0.080345571 0.01309343
0.55063969 0.08106754 0.013700848
0.55145335 0.081786312 0.01430832
0.55226684 0.082501918 0.014915777
0.5546816 0.083803006 0.016743299
0.55549484 0.08450745 0.01735086
0.55630791 0.085208714 0.017958403
0.55633295 0.086032115 0.017953387
0.55714583 0.086728595 0.018560959
0.55717081 0.087550402 0.01855595
0.55798358 0.088242121 0.019163553
0.55800849 0.089062333 0.019158555
0.5588212 0.089749254 0.019766223
0.56042135 0.090298116 0.02098651
0.56123376 0.09097708 0.021594191
0.56283361 0.091514789 0.022814585
0.56364578 0.092185795 0.023422312
0.56524527 0.092712358 0.024642738
0.56605721 0.093375392 0.02525055
0.56686902 0.094035253 0.025858346
0.5668934 0.094837941 0.025853455
0.56770509 0.095493019 0.026461279
0.56772941 0.096294127 0.026456399
0.56775379 0.097095229 0.026451517
0.56777811 0.097896338 0.026446635
0.56780249 0.098697439 0.026441753
0.56861383 0.099342965 0.027049636
0.56863815 0.10014247 0.027044764
0.56866246 0.10094199 0.027039893
0.56868672 0.10174149 0.02703502
0.56871104 0.10254101 0.027030149
0.56952214 0.10317697 0.027638089
0.56954634 0.10397489 0.027633227
0.5695706 0.10477282 0.027628366
0.56959486 0.10557073 0.027623503
0.56961912 0.10636866 0.027618641
0.57042998 0.10699505 0.028226677
0.57045418 0.10779138 0.028221825
0.57047838 0.10858771 0.028216971
0.57050258 0.10938404 0.028212119
0.57131314 0.11000249 0.028820168
0.57133728 0.11079721 0.028815325
0.57136142 0.11159195 0.028810482
0.57138556 0.11238668 0.02880564
0.57219589 0.11299717 0.029413735
0.57222003 0.1137903 0.029408902
0.57224411 0.11458346 0.029404068
0.57226819 0.1153766 0.029399237
0.57229233 0.11616974 0.029394403
0.57310236 0.11677066 0.030002577
0.57312644 0.1175622 0.029997753
0.57315046 0.11835375 0.029992929
0.57317454 0.1191453 0.029988106
0.57398432 0.11973827 0.030596308
0.57400829 0.12052823 0.030591495
0.57403231 0.12131818 0.030586682
0.57484192 0.12190478 0.031194923
0.57486588 0.12269314 0.03119012
0.57488984 0.1234815 0.031185316
0.57569921 0.12406171 0.031793617
0.57572317 0.12484849 0.031788822
0.57574707 0.12563527 0.031784028
0.57655627 0.12620911 0.032392345
0.57658011 0.1269943 0.032387562
0.57738918 0.12756336 0.032995928
0.57741302 0.12834695 0.032991156
0.5774368 0.12913053 0.03298638
0.57746065 0.12991412 0.032981604
0.57826942 0.13047522 0.033590004
0.5782932 0.13125722 0.033585235
0.57831699 0.13203922 0.033580471
0.57912558 0.13259394 0.034188926
0.57914931 0.13337435 0.034184173
0.57917303 0.13415475 0.034179416
0.57998145 0.13470311 0.03478789
0.58000511 0.13548192 0.034783144
0.58002883 0.13626073 0.034778398
0.5800525 0.13703956 0.034773652
0.58007616 0.13781835 0.034768905
0.58088428 0.13835716 0.035377443
0.58090788 0.13913438 0.035372704
0.58093154 0.13991159 0.035367969
0.58095515 0.14068881 0.035363235
0.58097875 0.14146602 0.035358496
0.58100241 0.14224324 0.035353761
0.58102602 0.14302047 0.035349023
0.58183378 0.14354652 0.035957653
0.58185732 0.14432214 0.035952926
0.58109689 0.14535211 0.035334814
0.58112049 0.14612931 0.035330079
0.58114415 0.14690654 0.035325345
0.58116776 0.14768374 0.035320606
0.58119136 0.14846097 0.035315871
0.58043122 0.14950047 0.034697719
0.58045489 0.15027928 0.034692973
0.58047855 0.15105809 0.034688227
0.58050227 0.15183689 0.034683481
0.58052593 0.1526157 0.034678735
0.5805496 0.15339452 0.034673989
0.58057326 0.15417331 0.034669243
0.55114311 0.080212981 0.013060083
0.55195582 0.080933392 0.013668779
0.55276835 0.081650615 0.014277458
0.55358076 0.082364663 0.014886158
0.55439311 0.083075516 0.015494875
0.55520535 0.083783187 0.016103612
0.5568046 0.084365569 0.0173262
0.55761659 0.085065275 0.017934985
0.55764157 0.085887082 0.017929977
0.55766654 0.086708896 0.01792497
0.55847836 0.087402232 0.018533794
0.55850327 0.088222452 0.018528797
0.55852824 0.089042671 0.018523797
0.5601266 0.089596383 0.019746561
0.56093806 0.090278566 0.020355452
0.5617494 0.090957567 0.020964364
0.56256068 0.091633387 0.021573296
0.56415844 0.092166394 0.022796184
0.56496942 0.092834249 0.023405164
0.5657804 0.093498923 0.024014162
0.56659126 0.0941604 0.024623219
0.5666157 0.094964691 0.024618316
0.56742644 0.095621392 0.025227364
0.56745082 0.096424095 0.025222473
0.5674752 0.097226791 0.025217582
0.5682857 0.097877137 0.025826668
0.56831008 0.098678231 0.025821786
0.5683344 0.09947934 0.025816904
0.56835878 0.10028044 0.025812022
0.5683831 0.10108155 0.025807142
0.5691933 0.10172233 0.026416287
0.56921762 0.10252184 0.026411414
0.56924194 0.10332136 0.026406543
0.56926626 0.10412087 0.026401671
0.57007623 0.10475369 0.027010864
0.57010049 0.1055516 0.027006002
0.57012469 0.10634953 0.027001139
0.57014894 0.10714745 0.026996277
0.5701732 0.10794537 0.026991414
0.57098293 0.10856862 0.027600704
0.57100713 0.10936494 0.02759585
0.57103133 0.11016127 0.027590998
0.57105553 0.1109576 0.027586145
0.57186502 0.1115729 0.028195444
0.57188916 0.11236762 0.028190602
0.5719133 0.11316237 0.028185759
0.57193744 0.1139571 0.028180916
0.57274663 0.11456444 0.028790265
0.57277077 0.11535759 0.028785432
0.57279485 0.11615071 0.0287806
0.57281899 0.11694386 0.028775766
0.57362795 0.11754322 0.029385181
0.57365203 0.11833478 0.029380359
0.57367611 0.11912632 0.029375535
0.57370013 0.11991788 0.02937071
0.57450885 0.12050929 0.029980157
0.57453287 0.12129924 0.029975343
0.57455689 0.1220892 0.02997053
0.57536536 0.12267423 0.030580014
0.57538933 0.1234626 0.03057521
0.57541335 0.12425096 0.030570406
0.57622164 0.12482963 0.031179948
0.57624561 0.1256164 0.031175153
0.57626951 0.12640317 0.031170359
0.57707763 0.12697548 0.031779923
0.57710147 0.12776065 0.031775136
0.57712537 0.12854584 0.031770352
0.57793331 0.12911174 0.03237997
0.57795715 0.12989533 0.032375198
0.57798094 0.13067891 0.032370422
0.5787887 0.13123848 0.032980062
0.57881248 0.13202047 0.032975297
0.57883626 0.13280246 0.032970529
0.57964379 0.13335565 0.033580229
0.57966751 0.13413604 0.033575471
0.57969123 0.13491644 0.033570718
0.58049858 0.13546325 0.034180433
0.5805223 0.13624206 0.034175687
0.58054596 0.13702087 0.034170941
0.58056962 0.13779968 0.034166198
0.58059329 0.13857849 0.034161452
0.58061695 0.1393573 0.034156706
0.581424 0.13989297 0.034766492
0.5814476 0.14067018 0.034761753
0.5814712 0.1414474 0.034757018
0.58149487 0.14222461 0.034752283
0.58151847 0.14300182 0.034747545
0.58154207 0.14377904 0.03474281
0.58156574 0.14455625 0.034738075
0.58158934 0.14533347 0.034733336
0.58161294 0.14611068 0.034728602
0.58163661 0.1468879 0.034723867
0.58166021 0.14766511 0.034719128
0.58168381 0.14844233 0.034714393
0.58170748 0.14921956 0.034709658
0.58173108 0.14999676 0.03470492
0.58097208 0.15103942 0.034085516
0.58099574 0.15181822 0.03408077
0.5810194 0.15259703 0.034076024
0.58104306 0.15337585 0.034071278
0.58106673 0.15415464 0.034066536
0.55086023 0.079469338 0.01180436
0.55167192 0.080192976 0.012414233
0.55326986 0.080799319 0.01363914
0.55408132 0.081514992 0.01424906
0.55410653 0.082344763 0.014244004
0.555704 0.082936786 0.015468962
0.55651522 0.083642893 0.016078979
0.55732632 0.084345825 0.016688976
0.5581373 0.085045569 0.017298995
0.55894822 0.085742131 0.017909033
0.55897313 0.08656235 0.017904036
0.55899805 0.08738257 0.017899036
0.55980885 0.088072754 0.01850915
0.55983371 0.08889138 0.018504161
0.56064427 0.089576788 0.019114267
0.56145471 0.090259016 0.019724391
0.5622651 0.090938061 0.020334536
0.56307536 0.091613911 0.020944702
0.56388557 0.092286579 0.021554921
0.56469566 0.092956066 0.022165123
0.56550562 0.093622372 0.022775346
0.56631553 0.094285481 0.023385586
0.56712532 0.094945408 0.023995886
0.56714982 0.095749699 0.023990983
0.56717426 0.096553989 0.023986083
0.56798381 0.097207546 0.024596382
0.56800824 0.098010249 0.024591491
0.56803262 0.098812938 0.024586599
0.56884199 0.099460132 0.025196938
0.56886637 0.10026123 0.025192058
0.56889069 0.10106234 0.025187176
0.56891507 0.10186344 0.025182294
0.56893945 0.10266455 0.025177412
0.56974852 0.1033022 0.025787808
0.56977284 0.1041017 0.025782937
0.56979716 0.10490122 0.025778065
0.56982142 0.10570072 0.025773192
0.57063031 0.10633039 0.026383637
0.57065457 0.10712831 0.026378775
0.57067883 0.10792623 0.026373914
0.57070303 0.10872416 0.02636905
0.57072729 0.10952207 0.026364189
0.57153594 0.11014218 0.026974728
0.57156014 0.1109385 0.026969876
0.57158434 0.11173484 0.026965024
0.57160854 0.11253116 0.026960172
0.5724169 0.11314332 0.027570723
0.57244104 0.11393805 0.02756588
0.57246518 0.11473278 0.027561037
0.57248932 0.11552752 0.027556194
0.57329744 0.1161317 0.028166795
0.57332152 0.11692484 0.028161962
0.57334566 0.11771799 0.028157128
0.57336974 0.11851113 0.028152296
0.57417762 0.11910734 0.028762963
0.5742017 0.1198989 0.02875814
0.57422572 0.12069045 0.028753316
0.57503343 0.12128031 0.029364003
0.57505739 0.12207026 0.02935919
0.57508141 0.12286022 0.029354377
0.57510543 0.12365017 0.029349562
0.57591283 0.12423206 0.029960299
0.57593679 0.12502043 0.029955495
0.57596076 0.12580879 0.029950691
0.57676804 0.1263843 0.030561484
0.57679194 0.12717108 0.03055669
0.57681584 0.12795785 0.030551895
0.57762289 0.128527 0.031162711
0.57764673 0.12931217 0.031157926
0.57845366 0.12987654 0.031768788
0.57847744 0.13066012 0.031764012
0.57850128 0.13144372 0.031759236
0.57930797 0.13200173 0.03237012
0.5793317 0.13278371 0.032365356
0.57935548 0.13356571 0.032360587
0.57937926 0.13434769 0.032355823
0.58018571 0.13489772 0.032966774
0.58020943 0.13567813 0.032962017
0.58023316 0.13645853 0.032957263
0.58103943 0.1370022 0.03356823
0.58106309 0.13778101 0.033563484
0.58108675 0.13855982 0.033558737
0.58111042 0.13933863 0.033553991
0.58113408 0.14011744 0.033549249
0.5811578 0.14089623 0.033544503
0.58196372 0.14142875 0.03415554
0.58198732 0.14220597 0.034150802
0.58201092 0.1429832 0.034146067
0.58203459 0.14376041 0.034141332
0.58205819 0.14453761 0.034136593
0.58208179 0.14531484 0.034131858
0.58210546 0.14609204 0.034127124
0.58212906 0.14686927 0.034122385
0.58215266 0.14764647 0.03411765
0.58217633 0.1484237 0.034112915
0.58219993 0.14920092 0.034108177
0.58222353 0.14997813 0.034103442
0.5822472 0.15075535 0.034098707
0.5822708 0.15153256 0.034093969
0.5822944 0.15230978 0.034089234
0.58231807 0.15308699 0.034084499
0.58234167 0.1538642 0.03407976
0.55298609 0.080060489 0.01238462
0.55458188 0.080665328 0.013611965
0.55539227 0.081379443 0.014223129
0.55620259 0.082090378 0.014834312
0.55701292 0.082798123 0.015445551
0.557823 0.083502688 0.016056772
0.55863303 0.084204063 0.016668014
0.559443 0.084902249 0.017279275
0.55946791 0.085722469 0.017274277
0.55949283 0.086542688 0.017269278
0.56030262 0.087234497 0.017880615
0.56032753 0.08805313 0.017875627
0.56113714 0.08874017 0.018486954
0.56116194 0.089557201 0.018481975
0.56197143 0.090239465 0.019093333
0.56278074 0.090918548 0.019704711
0.56359005 0.091594443 0.020316107
0.56439924 0.092267141 0.02092756
0.56520832 0.092936665 0.021538995
0.56523287 0.093745738 0.021534065
0.56604183 0.094410487 0.022145528
0.56685066 0.095072046 0.022757012
0.56687516 0.095877931 0.022752102
0.56768388 0.096534707 0.023363652
0.56770831 0.097338997 0.023358749
0.56773275 0.098143287 0.023353849
0.56854123 0.098793693 0.023965402
0.56856561 0.099596396 0.02396051
0.56859004 0.10039909 0.023955619
0.56939834 0.10104313 0.024567209
0.56942266 0.10184424 0.024562327
0.56944704 0.10264535 0.024557445
0.56947136 0.10344645 0.024552563
0.56949574 0.10424756 0.024547681
0.57030374 0.10488205 0.025159331
0.570328 0.10568155 0.025154458
0.57035232 0.10648108 0.025149586
0.57037663 0.10728057 0.025144715
0.5711844 0.10790711 0.025756411
0.57120866 0.10870503 0.02575155
0.57123291 0.10950294 0.025746686
0.57125711 0.11030087 0.025741825
0.57128137 0.11109878 0.025736962
0.5720889 0.11171574 0.026348755
0.5721131 0.11251207 0.026343903
0.5721373 0.1133084 0.02633905
0.5721615 0.11410472 0.026334196
0.57296872 0.11471373 0.026946001
0.57299292 0.11550847 0.026941158
0.57301706 0.1163032 0.026936315
0.5730412 0.11709793 0.026931472
0.57384819 0.11769897 0.027543325
0.57387233 0.11849211 0.027538491
0.57389641 0.11928525 0.027533658
0.57392055 0.1200784 0.027528824
0.5747273 0.12067147 0.028140744
0.57475138 0.12146302 0.028135922
0.57555795 0.12205132 0.028747851
0.57558197 0.12284128 0.028743038
0.57560599 0.12363123 0.028738225
0.57563001 0.12442119 0.02873341
0.57643634 0.12500152 0.029345389
0.5764603 0.1257899 0.029340586
0.57648426 0.12657826 0.02933578
0.57729042 0.12715222 0.029947817
0.57731438 0.12793899 0.029943023
0.57733828 0.12872575 0.029938228
0.57736218 0.12951253 0.029933434
0.57816809 0.13007852 0.030545499
0.578192 0.13086371 0.030540716
0.57899779 0.13142493 0.031152828
0.57902157 0.13220853 0.031148054
0.57904541 0.1329921 0.031143278
0.57985097 0.13354696 0.031755414
0.57987475 0.13432895 0.031750649
0.57989854 0.13511094 0.031745885
0.57992232 0.13589293 0.031741116
0.58072764 0.13643982 0.032353319
0.58075136 0.13722022 0.032348562
0.58077508 0.13800062 0.032343809
0.58158022 0.13854115 0.032956026
0.58160388 0.13931996 0.032951284
0.58162761 0.14009877 0.032946538
0.58165127 0.14087756 0.032941792
0.58167493 0.14165638 0.032937046
0.5816986 0.14243518 0.0329323
0.58250338 0.14296456 0.033544589
0.58252704 0.14374177 0.033539854
0.58255064 0.14451899 0.033535115
0.58257425 0.1452962 0.033530381
0.58259791 0.14607342 0.033525646
0.58262151 0.14685063 0.033520907
0.58264512 0.14762785 0.033516172
0.58266878 0.14840506 0.033511437
0.58347315 0.1489201 0.03412383
0.58271599 0.14995949 0.033501964
0.58273965 0.1507367 0.033497229
0.58276325 0.15151392 0.033492491
0.58278692 0.15229113 0.033487756
0.58281052 0.15306836 0.033483021
0.58283412 0.15384556 0.033478282
0.58285779 0.15462278 0.033473548
0.55348855 0.079207562 0.011745078
0.55670124 0.08124397 0.014199661
0.55751055 0.081953347 0.014812123
0.55831975 0.082659535 0.015424568
0.55912882 0.08336255 0.016037032
0.55993778 0.084062368 0.016649514
0.55996269 0.084882587 0.016644517
0.56077158 0.085577622 0.017257066
0.56079644 0.086396247 0.017252078
0.56082135 0.087214872 0.01724709
0.56163001 0.087903552 0.017859641
0.56165481 0.088720582 0.017854663
0.56246328 0.089404479 0.018467242
0.56248808 0.090219915 0.018462274
0.56329644 0.090899035 0.019074883
0.56410468 0.091574967 0.019687511
0.56412935 0.092387222 0.019682562
0.56493753 0.09305837 0.020295257
0.56574553 0.093726344 0.020907935
0.56577015 0.09453541 0.020903004
0.56657797 0.095198594 0.02151571
0.56660253 0.096006073 0.021510791
0.56741023 0.096664496 0.022123527
0.56743473 0.097470373 0.022118615
0.56824237 0.098124005 0.022731418
0.56826681 0.098928288 0.022726515
0.56829125 0.099732585 0.022721615
0.56909865 0.10037985 0.023334419
0.56912303 0.10118255 0.023329526
0.56914741 0.10198524 0.023324635
0.56995463 0.10262614 0.023937479
0.56997895 0.10342725 0.023932597
0.57000333 0.10422835 0.023927715
0.57002765 0.10502946 0.023922833
0.57083464 0.10566239 0.024535723
0.5708589 0.1064619 0.024530852
0.57088321 0.1072614 0.02452598
0.57090753 0.10806093 0.024521109
0.57093179 0.10886044 0.024516236
0.57173848 0.10948381 0.025129184
0.57176274 0.11028174 0.025124323
0.571787 0.11107965 0.025119461
0.57181126 0.11187758 0.025114598
0.57183546 0.1126755 0.025109736
0.57264191 0.1132893 0.025722781
0.57266611 0.11408563 0.025717927
0.57269031 0.11488196 0.025713075
0.57271451 0.11567829 0.025708223
0.5735206 0.11628414 0.026321279
0.5735448 0.11707888 0.026316436
0.57356894 0.11787361 0.026311593
0.57437485 0.1184731 0.026924687
0.57439899 0.11926623 0.026919855
0.57442307 0.12005939 0.026915021
0.57444721 0.12085253 0.026910188
0.57525289 0.12144404 0.02752335
0.57527697 0.1222356 0.027518526
0.57530099 0.12302714 0.027513703
0.57610649 0.12361229 0.028126884
0.57613051 0.12440225 0.028122071
0.57615453 0.12519221 0.028117258
0.57617855 0.12598217 0.028112443
0.57698381 0.12655935 0.028725674
0.57700777 0.12734772 0.028720871
0.57703173 0.12813608 0.028716067
0.57783681 0.1287069 0.029329354
0.57786071 0.12949367 0.029324559
0.57788461 0.13028044 0.029319765
0.57868946 0.13084488 0.029933073
0.57871336 0.13163006 0.029928289
0.5787372 0.13241525 0.029923504
0.57954192 0.13297331 0.03053687
0.5795657 0.13375691 0.030532096
0.57958955 0.13454048 0.03052732
0.58039403 0.1350922 0.031140706
0.58041775 0.13587418 0.031135941
0.58044153 0.13665618 0.031131176
0.58046532 0.13743818 0.03112641
0.58126956 0.13798191 0.031739864
0.58129328 0.13876231 0.031735107
0.58131701 0.13954271 0.03173035
0.58212107 0.14008009 0.032343823
0.58214474 0.14085889 0.032339077
0.5821684 0.14163771 0.032334335
0.58219206 0.14241651 0.032329589
0.58221573 0.14319532 0.032324843
0.5830195 0.14372315 0.032938372
0.5830431 0.14450034 0.032933637
0.58306676 0.14527757 0.032928903
0.58309036 0.14605477 0.032924164
0.58311397 0.146832 0.032919429
0.58313763 0.1476092 0.032914694
0.58316123 0.14838643 0.032909956
0.58318484 0.14916365 0.032905221
0.5832085 0.14994086 0.032900486
0.5832321 0.15071808 0.032895748
0.58325571 0.15149529 0.032891013
0.58327937 0.15227251 0.032886278
0.58330297 0.15304972 0.032881539
0.58332658 0.15382694 0.032876804
0.58335024 0.15460415 0.03287207
0.55479962 0.079076789 0.011719118
0.55800819 0.08110857 0.014178696
0.55881643 0.081816398 0.014792363
0.55962455 0.082521036 0.015406051
0.56043255 0.083222486 0.016019756
0.56045747 0.084042706 0.016014758
0.56126541 0.084739372 0.01662853
0.56129026 0.085557997 0.016623542
0.56209803 0.086249895 0.017237308
0.56212282 0.087066926 0.017232329
0.56214768 0.087883964 0.01722735
0.56217253 0.088700995 0.017222371
0.56298 0.089384928 0.017836183
0.56300479 0.090200365 0.017831214
0.56381214 0.090879522 0.018445056
0.56461936 0.091555491 0.019058919
0.56464404 0.092367746 0.019053968
0.5654512 0.093038931 0.019667896
0.56547582 0.093849592 0.019662956
0.56628275 0.094516009 0.020276876
0.56630737 0.095325075 0.020271946
0.56711417 0.095986716 0.020885894
0.56713873 0.096794195 0.020880973
0.56716329 0.097601667 0.020876054
0.56796986 0.098256938 0.021490041
0.56799436 0.099062823 0.021485129
0.56880087 0.099713303 0.022099184
0.5688253 0.10051759 0.022094281
0.56963164 0.10116331 0.022708328
0.56965607 0.10196599 0.022703437
0.56968045 0.1027687 0.022698546
0.56970483 0.1035714 0.022693655
0.57051092 0.10420914 0.023307748
0.5705353 0.10501025 0.023302866
0.57055962 0.10581136 0.023297984
0.570584 0.10661246 0.023293102
0.57138979 0.10724224 0.023907246
0.57141411 0.10804176 0.023902373
0.57143843 0.10884128 0.023897503
0.57146269 0.10964078 0.02389263
0.57226831 0.1102626 0.024506822
0.57229257 0.11106052 0.024501959
0.57231683 0.11185844 0.024497097
0.57234108 0.11265636 0.024492234
0.57236534 0.11345429 0.024487372
0.5723896 0.1142522 0.024482509
0.57319486 0.11486287 0.025096806
0.57321906 0.1156592 0.025091954
0.57324326 0.11645552 0.025087101
0.57326752 0.11725185 0.025082249
0.57407248 0.11785455 0.025696557
0.57409668 0.1186493 0.025691714
0.57412082 0.11944403 0.025686871
0.57414496 0.12023877 0.025682028
0.57494974 0.12083352 0.026296385
0.57497388 0.12162665 0.026291551
0.57499796 0.12241979 0.026286718
0.57580256 0.12300816 0.026901131
0.57582664 0.12379972 0.026896307
0.57585067 0.12459126 0.026891485
0.57665509 0.12517327 0.027505919
0.57667905 0.12596323 0.027501104
0.57670307 0.12675318 0.027496291
0.57672709 0.12754314 0.027491476
0.57753122 0.12811717 0.028105959
0.57755518 0.12890555 0.028101156
0.57757914 0.12969391 0.028096352
0.57838315 0.13026157 0.028710892
0.57840705 0.13104835 0.028706098
0.57843095 0.13183512 0.028701304
0.57923472 0.13239641 0.029315863
0.57925856 0.13318159 0.02931108
0.57928246 0.13396677 0.029306294
0.58008605 0.13452169 0.029920911
0.58010983 0.13530529 0.029916137
0.58013368 0.13608886 0.029911362
0.58093703 0.13663743 0.030525999
0.58096081 0.13741943 0.030521234
0.58098459 0.13820142 0.03051647
0.58100837 0.13898341 0.030511703
0.58181149 0.139524 0.031126408
0.58183521 0.1403044 0.031121653
0.58185893 0.14108481 0.031116897
0.58266187 0.14161904 0.031731624
0.58268553 0.14239784 0.031726878
0.58270919 0.14317665 0.031722132
0.58273292 0.14395545 0.031717386
0.58275658 0.14473426 0.03171264
0.58278024 0.14551307 0.031707894
0.58358282 0.14603615 0.032322686
0.58360642 0.14681336 0.032317951
0.58363008 0.14759058 0.032313216
0.58365369 0.14836779 0.032308478
0.58367729 0.14914502 0.032303743
0.58370095 0.14992222 0.032299008
0.58372456 0.15069945 0.03229427
0.58374822 0.15147665 0.032289535
0.58377182 0.15225387 0.0322848
0.58379543 0.1530311 0.032280061
0.58381909 0.1538083 0.032275327
0.58384269 0.15458551 0.032270588
0.55689102 0.078835338 0.012315509
0.55850589 0.080263793 0.013545268
0.55931312 0.080973245 0.014160158
0.56012028 0.081679523 0.014775068
0.56092733 0.082382604 0.015389998
0.56095225 0.083202824 0.015384999
0.56175923 0.083901122 0.015999995
0.56178409 0.084719747 0.015995005
0.56259084 0.085413277 0.016609993
0.56261569 0.086230308 0.016605014
0.56264055 0.087047338 0.016600035
0.56344712 0.087734498 0.017215062
0.56347191 0.088549942 0.017210092
0.56349665 0.089365378 0.017205123
0.56352144 0.090180814 0.017200155
0.56432778 0.090860009 0.017815229
0.56435251 0.091673858 0.01781027
0.56515872 0.092348278 0.018425373
0.5651834 0.093160525 0.018420424
0.56520808 0.093972787 0.018415475
0.56601411 0.094640821 0.019030653
0.56603879 0.095451482 0.019025713
0.56684458 0.096114755 0.019640885
0.5668692 0.096923821 0.019635955
0.56767488 0.097582303 0.020251155
0.56769943 0.098389789 0.020246236
0.56850499 0.099043503 0.020861465
0.56852949 0.099849388 0.020856554
0.56933492 0.1004983 0.021471851
0.56935942 0.10130259 0.02146695
0.56938386 0.10210688 0.021462047
0.57018906 0.10274945 0.022077346
0.57021344 0.10355216 0.022072455
0.57023787 0.10435485 0.022067564
0.57026225 0.10515755 0.022062672
0.57106721 0.10579215 0.022678018
0.57109159 0.10659325 0.022673136
0.57111591 0.10739435 0.022668254
0.57114029 0.10819546 0.022663372
0.57194501 0.10882211 0.023278767
0.57196933 0.10962161 0.023273895
0.57199359 0.11042113 0.023269024
0.57201791 0.11122064 0.023264151
0.57204223 0.11202016 0.02325928
0.57284665 0.11263723 0.023874732
0.57287091 0.11343516 0.02386987
0.57289517 0.11423307 0.023865009
0.57291943 0.115031 0.023860145
0.57294369 0.11582892 0.023855284
0.57296789 0.11662683 0.02385042
0.57377207 0.11723275 0.02446598
0.57379627 0.11802908 0.024461126
0.57382047 0.11882541 0.024456274
0.57384467 0.11962173 0.024451422
0.57464856 0.12021971 0.02506699
0.5746727 0.12101445 0.025062148
0.57547641 0.12160763 0.025677746
0.57550049 0.12240078 0.025672914
0.57552463 0.12319392 0.025668081
0.57632816 0.12378073 0.026283737
0.57635224 0.12457228 0.026278913
0.57637626 0.12536384 0.026274089
0.57717961 0.12594429 0.026889766
0.57720363 0.12673424 0.026884953
0.57722765 0.1275242 0.026880138
0.57725167 0.12831415 0.026875325
0.57805473 0.12888664 0.02749105
0.57807869 0.129675 0.027486246
0.57810265 0.13046338 0.02748144
0.57890558 0.13102949 0.028097223
0.57892948 0.13181625 0.028092429
0.57895339 0.13260302 0.028087635
0.57897729 0.1333898 0.02808284
0.57977998 0.13394795 0.028698653
0.57980382 0.13473313 0.028693868
0.57982767 0.13551831 0.028689083
0.58063018 0.13607009 0.029304953
0.58065397 0.13685367 0.029300177
0.58067781 0.13763726 0.029295402
0.58148009 0.13818267 0.029911293
0.58150387 0.13896467 0.029906526
0.58152759 0.13974665 0.029901762
0.58155137 0.14052865 0.029896997
0.58235341 0.14106609 0.030512953
0.58237714 0.14184649 0.030508198
0.58240086 0.1426269 0.030503443
0.58320266 0.14315797 0.031119419
0.58322638 0.14393678 0.031114675
0.58325005 0.14471559 0.031109929
0.58327371 0.1454944 0.031105183
0.58329737 0.1462732 0.031100437
0.58332103 0.14705202 0.031095691
0.58412254 0.14757194 0.031711735
0.58414614 0.14834917 0.031707
0.58416981 0.14912638 0.031702265
0.58419341 0.1499036 0.031697527
0.58421701 0.15068081 0.031692792
0.58424067 0.15145802 0.031688057
0.58426428 0.15223524 0.031683318
0.58428788 0.15301245 0.031678583
0.58353412 0.15406129 0.031052979
0.58355778 0.1548401 0.031048233
0.56061602 0.08083801 0.014144086
0.56064099 0.081659816 0.014139079
0.56144702 0.082362942 0.014755241
0.561472 0.083183162 0.014750242
0.56227791 0.083881497 0.01536647
0.56230283 0.084700122 0.015361481
0.56310856 0.08539369 0.015977701
0.56313342 0.08621072 0.015972722
0.56315821 0.087027751 0.015967743
0.56396377 0.087714948 0.016584003
0.56398857 0.088530391 0.016579034
0.56401336 0.089345828 0.016574064
0.56403816 0.090161264 0.016569095
0.56484348 0.090840496 0.017185401
0.56486821 0.091654345 0.017180443
0.56489295 0.092468187 0.017175483
0.56569809 0.093141049 0.01779183
0.56572276 0.093953311 0.017786879
0.56574744 0.094765566 0.01778193
0.5665524 0.095432043 0.018398352
0.56657708 0.096242711 0.018393412
0.56738186 0.096904427 0.019009827
0.56740642 0.097713493 0.019004896
0.56821108 0.098370433 0.019621339
0.56823564 0.099177904 0.019616419
0.56826019 0.099985383 0.019611498
0.56906462 0.10063594 0.02022798
0.56908911 0.10144183 0.020223068
0.56989348 0.1020876 0.020839617
0.56991792 0.10289189 0.020834716
0.56994236 0.10369619 0.020829814
0.56996679 0.10450048 0.020824913
0.57077086 0.1051383 0.021441473
0.57079524 0.10594099 0.021436581
0.57081968 0.1067437 0.02143169
0.5716235 0.10737515 0.022048289
0.57164788 0.10817625 0.022043407
0.5716722 0.10897736 0.022038525
0.57169658 0.10977847 0.022033643
0.5717209 0.11057957 0.022028761
0.57252449 0.11120147 0.022645418
0.57254881 0.11200099 0.022640545
0.57257313 0.11280049 0.022635674
0.57259738 0.11360001 0.022630801
0.5726217 0.11439952 0.022625929
0.57342499 0.11501186 0.023242645
0.57344925 0.11580978 0.023237782
0.57347351 0.1166077 0.02323292
0.57349777 0.11740562 0.023228057
0.57352203 0.11820354 0.023223195
0.57354623 0.11900146 0.023218334
0.57434922 0.11960264 0.023835152
0.57437348 0.12039897 0.0238303
0.57439768 0.1211953 0.023825448
0.57520044 0.12179012 0.024442269
0.57522458 0.12258486 0.024437426
0.57602715 0.12317491 0.025054278
0.57605129 0.12396805 0.025049444
0.57607538 0.12476118 0.025044611
0.57687783 0.12534486 0.025661519
0.57690191 0.12613641 0.025656695
0.57692593 0.12692796 0.025651872
0.57772815 0.12750526 0.026268801
0.57775217 0.12829521 0.026263986
0.57777619 0.12908517 0.026259173
0.57780021 0.12987512 0.026254358
0.57860219 0.13044447 0.026871335
0.57862616 0.13123283 0.026866531
0.57865012 0.1320212 0.026861727
0.57945192 0.13258417 0.027478762
0.57947582 0.13337094 0.027473968
0.57949972 0.1341577 0.027469173
0.57952368 0.13494448 0.027464379
