# .PCD v0.7 - Point Cloud Data file format
VERSION 0.7
FIELDS x y z
SIZE 4 4 4
TYPE F F F
COUNT 1 1 1
WIDTH 1352
HEIGHT 1
VIEWPOINT 0 0 0 1 0 0 0
POINTS 1352
DATA ascii
0.53395069 0.029984403 0.041948967
0.53397578 0.030809399 0.041943941
0.53317124 0.031654462 0.041373786
0.53236693 0.032502715 0.040803641
0.53073323 0.033377402 0.03966837
0.5282703 0.03428331 0.037967898
0.52334535 0.03612379 0.034566812
0.52171254 0.037028741 0.033431321
0.52007997 0.037940059 0.032295827
0.53790843 -0.020693665 0.045016471
0.53876483 -0.019797921 0.045577217
0.53878957 -0.018984076 0.045572259
0.53964573 -0.018093113 0.046133038
0.53967047 -0.017280856 0.046128087
0.53969514 -0.016468605 0.04612314
0.53971982 -0.015656352 0.046118189
0.54057586 -0.014773345 0.046679046
0.54060048 -0.013962682 0.046674106
0.5406251 -0.01315202 0.046669163
0.5414809 -0.012275388 0.047230028
0.54150552 -0.011466321 0.047225095
0.54153007 -0.010657252 0.047220167
0.54238564 -0.0097869914 0.047781069
0.54241019 -0.008979517 0.047776148
0.54243475 -0.0081720417 0.047771227
0.54245931 -0.0073645595 0.047766306
0.54248381 -0.0065570846 0.047761388
0.54250836 -0.0057496098 0.047756467
0.54253292 -0.004942135 0.047751546
0.54255748 -0.0041346601 0.047746625
0.54175138 -0.0033756355 0.047175795
0.541776 -0.0025665709 0.047170866
0.54180062 -0.0017575023 0.047165934
0.5409947 -0.00099210301 0.046595067
0.54101938 -0.00018144456 0.046590127
0.541044 0.0006292176 0.046585184
0.54023826 0.001400978 0.046014246
0.540263 0.002213232 0.046009295
0.54028767 0.0030254859 0.046004348
0.54031235 0.0038377398 0.045999397
0.53950691 0.0046174671 0.045428436
0.53953165 0.0054313131 0.045423478
0.53872639 0.0062158173 0.044852491
0.53875118 0.0070312587 0.044847526
0.53877598 0.0078466963 0.044842556
0.53797084 0.0086375717 0.044271532
0.5379957 0.0094546033 0.044266552
0.53802055 0.010271636 0.044261575
0.53721565 0.011068882 0.04369051
0.53724051 0.011887508 0.043685522
0.53726542 0.012706133 0.043680534
0.53646064 0.013509749 0.043109398
0.53648561 0.014329963 0.043104403
0.53651053 0.01515018 0.043099403
0.53653544 0.0159704 0.043094404
0.53656036 0.016790615 0.043089408
0.53575599 0.017603789 0.042518247
0.53578097 0.018425599 0.04251324
0.53580594 0.019247409 0.04250823
0.53583091 0.020069219 0.042503223
0.53585589 0.020891028 0.042498216
0.53588086 0.021712838 0.042493206
0.5350768 0.022537159 0.041921981
0.53510183 0.023360562 0.041916963
0.53512686 0.024183962 0.041911945
0.5351519 0.025007365 0.041906927
0.53517693 0.025830768 0.041901909
0.5343731 0.026664644 0.041330621
0.5343982 0.02748964 0.041325592
0.53442329 0.028314635 0.041320566
0.53444833 0.02913963 0.041315537
0.53447342 0.029964624 0.041310512
0.53366989 0.030808058 0.040739134
0.53369504 0.031634647 0.040734097
0.53206319 0.03250448 0.039596386
0.53126001 0.033357471 0.039024983
0.52962846 0.034238454 0.037887171
0.52716887 0.035152208 0.036182988
0.52225041 0.03700839 0.032774378
0.52061987 0.037919633 0.031636417
0.5189895 0.038837247 0.030498415
0.51735932 0.03976123 0.029360341
0.53925574 -0.02063128 0.044952352
0.54011106 -0.019737091 0.045514341
0.54013574 -0.018924838 0.045509391
0.54016042 -0.018112587 0.04550444
0.54018509 -0.01730033 0.045499492
0.54020983 -0.016488079 0.045494542
0.54106486 -0.015603443 0.046056625
0.54108948 -0.01479278 0.046051685
0.54194438 -0.01391292 0.04661376
0.54196894 -0.013103855 0.046608828
0.54199356 -0.012294786 0.046603899
0.54201812 -0.011485718 0.046598967
0.54287273 -0.010613825 0.047161095
0.54289728 -0.0098063508 0.047156174
0.54292184 -0.0089988764 0.047151253
0.5429464 -0.0081914011 0.047146332
0.54297096 -0.0073839189 0.04714141
0.54299545 -0.006576444 0.047136489
0.54302001 -0.0057689692 0.047131568
0.54304457 -0.0049614944 0.047126651
0.54223949 -0.0042041014 0.046554595
0.54226404 -0.0033950331 0.046549667
0.54228866 -0.0025859682 0.046544734
0.54148376 -0.0018222044 0.045972645
0.54150838 -0.0010115387 0.045967706
0.54153299 -0.00020088021 0.045962766
0.54072827 0.00056925195 0.045390598
0.54075295 0.001381504 0.045385651
0.54077762 0.002193758 0.0453807
0.53997314 0.0029702617 0.044808529
0.53999788 0.0037841094 0.044803571
0.54002261 0.0045979549 0.044798613
0.53921831 0.0053808298 0.044226404
0.53924304 0.0061962674 0.044221435
0.53926784 0.0070117083 0.044216465
0.53846371 0.0078009521 0.04364422
0.53848857 0.0086179832 0.043639239
0.53768456 0.0094120065 0.043066964
0.53770947 0.010230632 0.043061975
0.53773433 0.011049256 0.043056987
0.5369305 0.011849649 0.042484637
0.53695542 0.012669868 0.042479642
0.53698039 0.013490085 0.042474642
0.53700531 0.014310299 0.042469643
0.53703022 0.015130515 0.042464647
0.53622675 0.015940467 0.041892271
0.53625172 0.016762275 0.041887265
0.5362767 0.017584085 0.041882258
0.53630167 0.018405896 0.041877247
0.53632665 0.019227706 0.041872241
0.53552341 0.02004721 0.041299809
0.53554845 0.020870613 0.041294791
0.53557348 0.021694016 0.041289773
0.53559852 0.022517417 0.041284755
0.53562355 0.023340819 0.041279737
0.53564858 0.024164222 0.041274719
0.53484571 0.024994874 0.04070222
0.5348708 0.02581987 0.040697195
0.53489584 0.026644865 0.040692165
0.53492093 0.02746986 0.04068714
0.53411824 0.028308477 0.040114559
0.53497112 0.029119851 0.040677086
0.53416848 0.029961653 0.040104482
0.53419363 0.030788241 0.040099446
0.53339124 0.031634822 0.03952685
0.53258896 0.032484587 0.038954232
0.5317868 0.033337537 0.038381599
0.5293299 0.034243215 0.036673732
0.52770066 0.035132084 0.035533439
0.52524436 0.036055282 0.033825468
0.5236156 0.036958486 0.032685086
0.52198696 0.037868064 0.031544637
0.51953143 0.038816739 0.029836543
0.51873028 0.039706323 0.029263649
0.54060102 -0.02056882 0.044890698
0.54062569 -0.019756565 0.044885747
0.54065043 -0.018944312 0.044880796
0.54150462 -0.018054858 0.045444082
0.54152924 -0.017244199 0.045439143
0.54155385 -0.016433537 0.045434203
0.54157853 -0.015622878 0.045429263
0.54243243 -0.014741389 0.045992561
0.54245698 -0.013932317 0.045987632
0.5424816 -0.013123252 0.045982704
0.54250616 -0.012314184 0.045977771
0.54335982 -0.01144066 0.046541117
0.54338437 -0.010633185 0.046536196
0.54340893 -0.0098257102 0.046531275
0.54343349 -0.0090182349 0.046526358
0.54345804 -0.0082107605 0.046521436
0.54348254 -0.0074032783 0.046516515
0.5435071 -0.0065958034 0.046511594
0.54353166 -0.0057883286 0.046506673
0.54272753 -0.0050325673 0.045933399
0.54275209 -0.004223499 0.045928471
0.5427767 -0.0034144304 0.045923539
0.54197276 -0.0026522987 0.045350224
0.54199737 -0.0018416402 0.045345284
0.54119354 -0.0010747297 0.044771906
0.54121822 -0.0002624777 0.044766955
0.54124296 0.00054977811 0.044762008
0.54126763 0.0013620302 0.044757057
0.54046404 0.0021369038 0.044183664
0.54048878 0.0029507496 0.044178702
0.54051352 0.0037645972 0.044173744
0.53971016 0.00454584 0.043600313
0.53973496 0.0053612795 0.043595344
0.53975976 0.0061767171 0.043590378
0.53895658 0.0069643324 0.043016903
0.53898144 0.0077813636 0.043011926
0.53817838 0.0085737566 0.042438429
0.5382033 0.0093923798 0.042433441
0.53822815 0.010211006 0.042428453
0.53742528 0.011009768 0.041854881
0.53745019 0.011829984 0.041849881
0.53747517 0.012650203 0.041844882
0.53750008 0.01347042 0.041839886
0.53669751 0.014277144 0.041266296
0.53672248 0.015098953 0.041261289
0.53674746 0.015920764 0.041256282
0.53677243 0.016742572 0.041251276
0.53597009 0.017557262 0.040677641
0.53599513 0.018380664 0.040672623
0.53602016 0.019204067 0.040667605
0.53604519 0.02002747 0.040662587
0.53607017 0.020850871 0.040657569
0.5360952 0.021674275 0.040652554
0.53529322 0.022500111 0.040078849
0.53531832 0.023325106 0.040073819
0.53534335 0.024150101 0.040068794
0.53536844 0.024975095 0.040063765
0.53539354 0.02580009 0.040058739
0.53459173 0.026635485 0.039484944
0.53461689 0.027462073 0.039479908
0.53464198 0.028288661 0.039474871
0.53466713 0.029115248 0.039469834
0.53469229 0.029941836 0.039464798
0.53389084 0.030786784 0.038890976
0.53308952 0.031634919 0.03831714
0.53311473 0.032464694 0.038312081
0.53148717 0.033340745 0.037169404
0.52985972 0.034223169 0.036026649
0.52823251 0.035111964 0.034883894
0.52577919 0.036035046 0.033172224
0.52415246 0.036938172 0.032029379
0.52252585 0.037847672 0.03088646
0.52089947 0.038763542 0.029743539
0.51927322 0.039685782 0.028600546
0.51847327 0.040578511 0.028026434
0.54114038 -0.019776039 0.044257153
0.54199362 -0.018884955 0.044821661
0.54201823 -0.018074293 0.044816721
0.54204291 -0.017263634 0.044811781
0.54206753 -0.016452972 0.044806842
0.54292047 -0.015569855 0.045371365
0.54294509 -0.014760787 0.045366433
0.54296964 -0.013951715 0.045361504
0.54299426 -0.01314265 0.045356572
0.54301882 -0.012333581 0.045351643
0.54387146 -0.011460019 0.045916222
0.54389602 -0.010652544 0.045911301
0.54392058 -0.0098450696 0.04590638
0.54394513 -0.0090375943 0.045901459
0.54396963 -0.0082301199 0.045896538
0.54399419 -0.0074226377 0.04589162
0.54319096 -0.006670102 0.045317132
0.54321557 -0.0058610337 0.0453122
0.54324019 -0.0050519649 0.045307271
0.54326475 -0.0042428966 0.045302339
0.54246175 -0.0034823965 0.044727802
0.54248643 -0.0026717344 0.044722863
0.54168355 -0.0019064595 0.044148263
0.54170823 -0.0010942037 0.044143312
0.54173291 -0.00028195156 0.044138364
0.54175758 0.00053030427 0.044133414
0.54095501 0.001303546 0.043558795
0.54097974 0.0021173919 0.043553837
0.54100448 0.0029312375 0.043548878
0.54020208 0.0037108522 0.042974222
0.54022688 0.0045262896 0.042969253
0.5394246 0.0053106798 0.042394571
0.53944945 0.0061277109 0.042389594
0.53947425 0.0069447439 0.042384613
0.53867221 0.0077355052 0.041809894
0.53869712 0.0085541299 0.041804906
0.53872198 0.0093727531 0.041799918
0.53792006 0.010169886 0.04122512
0.53794497 0.010990103 0.041220125
0.53796995 0.011810319 0.041215125
0.53716826 0.012613822 0.040640324
0.53719324 0.013435632 0.040635314
0.53721821 0.014257441 0.040630307
0.53724319 0.01507925 0.0406253
0.53644174 0.015890718 0.040050451
0.53646678 0.016714118 0.040045436
0.53649181 0.017537521 0.040040419
0.53651685 0.018360924 0.040035401
0.53654188 0.019184327 0.040030383
0.53656691 0.020007728 0.040025365
0.53576583 0.020830343 0.039450448
0.53579086 0.021655338 0.039445423
0.53581595 0.022480331 0.039440393
0.53584105 0.023305327 0.039435368
0.53586608 0.024130322 0.039430339
0.53506523 0.024962492 0.038855333
0.53509039 0.02578908 0.038850293
0.53511548 0.026615668 0.038845256
0.53514063 0.027442256 0.038840219
0.53434008 0.028282389 0.038265198
0.53436524 0.02911057 0.038260151
0.53439039 0.02993875 0.038255107
0.5344156 0.030766929 0.038250059
0.53361529 0.031615026 0.037674986
0.53281504 0.032466307 0.037099894
0.53201491 0.033320773 0.036524784
0.53038949 0.034203123 0.03537957
0.52876431 0.03509184 0.034234349
0.52713931 0.03598693 0.033089049
0.52468932 0.036917858 0.031373668
0.52306473 0.037827283 0.030228285
0.52226543 0.038710415 0.029653002
0.52064127 0.039630987 0.028507587
0.51984221 0.040522087 0.027932219
0.54248261 -0.019715052 0.044199239
0.54250729 -0.01890439 0.0441943
0.54253191 -0.018093728 0.04418936
0.54255652 -0.017283071 0.04418442
0.54340851 -0.016398322 0.044750165
0.54343313 -0.015589253 0.044745233
0.54345769 -0.014780184 0.044740304
0.5434823 -0.013971112 0.044735372
0.54350686 -0.013162048 0.044730444
0.54353148 -0.012352979 0.044725511
0.54355609 -0.01154391 0.044720583
0.54358065 -0.010734842 0.04471565
0.54360527 -0.0099257734 0.044710722
0.54362983 -0.0091167046 0.044705793
0.54365444 -0.0083076404 0.044700861
0.54367906 -0.0074985679 0.044695932
0.54370362 -0.0066894996 0.044691
0.54372823 -0.0058804313 0.044686072
0.54292613 -0.0051231529 0.044110321
0.54295081 -0.0043124943 0.044105381
0.54297543 -0.0035018323 0.044100441
0.5421735 -0.0027381892 0.043524615
0.54219818 -0.0019259334 0.043519665
0.54222286 -0.0011136776 0.043514717
0.54224759 -0.00030142552 0.043509766
0.54144591 0.00047018827 0.04293393
0.54147071 0.001284034 0.042928968
0.5406692 0.0020604231 0.042353101
0.540694 0.0028758608 0.042348132
0.54071873 0.0036913019 0.042343166
0.53991747 0.0044740601 0.041767258
0.53994232 0.0052910913 0.041762277
0.53996712 0.0061081224 0.0417573
0.53916603 0.0068972553 0.041181356
0.53919095 0.0077158785 0.041176368
0.53838992 0.0085097859 0.040600359
0.53841484 0.0093300026 0.040595364
0.53843975 0.010150221 0.040590364
0.53846473 0.010970438 0.040585365
0.537664 0.011772308 0.040009342
0.53768897 0.012594119 0.040004335
0.53771394 0.01341593 0.039999329
0.53691345 0.014224172 0.039423268
0.53693849 0.015047573 0.03941825
0.53696346 0.015870975 0.039413232
0.5369885 0.016694378 0.039408214
0.53701353 0.017517779 0.039403196
0.53621334 0.018335579 0.038827077
0.53623837 0.019160572 0.038822051
0.53626347 0.019985568 0.038817022
0.53628856 0.020810563 0.038811997
0.53631359 0.021635558 0.038806967
0.53551364 0.022462912 0.038230754
0.53553873 0.0232895 0.038225718
0.53556389 0.024116088 0.038220681
0.53558898 0.024942674 0.038215645
0.53561413 0.025769262 0.038210608
0.53481448 0.026606172 0.037634373
0.53483963 0.027434353 0.037629325
0.53486484 0.028262533 0.037624277
0.53406537 0.029105814 0.037048005
0.53409058 0.029935585 0.037042946
0.53411579 0.030765358 0.03703789
0.53331655 0.031615011 0.036461577
0.53334183 0.032446377 0.03645651
0.53254271 0.033300806 0.035880167
0.53091931 0.034183078 0.034732487
0.52929616 0.035071716 0.0335848
0.52767313 0.035966728 0.032437038
0.52605033 0.03686811 0.031289272
0.52525192 0.037744835 0.030712795
0.52362943 0.038657371 0.02956493
0.52283126 0.039542057 0.028988402
0.52120912 0.040465739 0.027840503
0.51958722 0.041395787 0.026692526
0.5430209 -0.018923827 0.043566935
0.54304558 -0.018113164 0.043561995
0.5430702 -0.017302506 0.043557055
0.54392117 -0.016417719 0.044124033
0.54394573 -0.015608651 0.044119105
0.54397035 -0.014799582 0.044114172
0.54399496 -0.013990509 0.044109244
0.54401952 -0.013181445 0.044104315
0.54404414 -0.012372376 0.044099383
0.54406869 -0.011563308 0.044094454
0.54409331 -0.01075424 0.044089522
0.54411793 -0.009945171 0.044084594
0.54414248 -0.0091361022 0.044079661
0.5441671 -0.008327038 0.044074733
0.54419166 -0.0075179655 0.044069801
0.54421628 -0.0067088972 0.044064872
0.54341519 -0.0059532505 0.043487899
0.54343981 -0.0051425886 0.043482956
0.54346442 -0.0043319301 0.043478016
0.54266346 -0.0035699152 0.042900972
0.54268819 -0.0027576631 0.042896021
0.54271287 -0.0019454072 0.042891074
0.54273754 -0.0011331515 0.042886123
0.54193687 -0.00036316956 0.042309061
0.54196161 0.00045067619 0.042304102
0.54116106 0.0012254335 0.041727014
0.54118586 0.002040873 0.041722044
0.54121065 0.0028563105 0.041717075
0.54041034 0.0036374405 0.041139945
0.54043514 0.0044544716 0.041134968
0.53963494 0.0052403789 0.040557809
0.53965986 0.006059004 0.040552821
0.53968471 0.0068776286 0.040547833
0.5388847 0.0076699047 0.039970603
0.53890961 0.008490121 0.039965604
0.53893453 0.0093103377 0.039960604
0.53813475 0.010108987 0.03938337
0.53815973 0.010930797 0.03937836
0.5381847 0.011752605 0.039373353
0.53738511 0.012557626 0.038796078
0.53741014 0.013381028 0.03879106
0.53743517 0.01420443 0.038786042
0.53746021 0.015027832 0.038781025
0.53748524 0.015851235 0.038776007
0.53668588 0.016665809 0.038198676
0.53671098 0.017490804 0.038193651
0.53673607 0.0183158 0.038188621
0.53676111 0.019140793 0.038183596
0.5367862 0.019965788 0.038178567
0.53598714 0.020789919 0.037601143
0.53601223 0.021616507 0.037596107
0.53603739 0.022443093 0.037591066
0.53606248 0.023269683 0.03758603
0.53526372 0.024101775 0.037008595
0.53528887 0.024929956 0.037003547
0.53531408 0.025758136 0.036998499
0.53533924 0.026586317 0.036993455
0.53454071 0.027426373 0.036415964
0.53456593 0.028256146 0.036410909
0.53459114 0.029085919 0.03640585
0.53379279 0.029932346 0.035828326
0.53381807 0.030763712 0.03582326
0.53384334 0.031595077 0.035818193
0.53304517 0.032447875 0.035240628
0.53224707 0.033303861 0.034663007
0.53144914 0.034163028 0.034085404
0.52982795 0.035051592 0.032935251
0.52903026 0.035918724 0.0323576
0.52740937 0.036818437 0.031207344
0.52578878 0.037724521 0.030057086
0.52499139 0.038604397 0.029479323
0.52419418 0.039487455 0.028901571
0.52257407 0.040409464 0.027751215
0.54353458 -0.018943261 0.042939577
0.54355919 -0.018132599 0.042934638
0.54358387 -0.017321941 0.042929698
0.54443383 -0.016437117 0.043497905
0.54445839 -0.015628047 0.043492977
0.54448301 -0.014818979 0.043488044
0.54450756 -0.014009907 0.043483116
0.54453218 -0.013200843 0.043478183
0.5445568 -0.012391774 0.043473255
0.54458135 -0.011582705 0.043468323
0.54460597 -0.010773637 0.043463394
0.54463053 -0.0099645685 0.043458462
0.54465514 -0.0091554997 0.043453533
0.54467976 -0.0083464356 0.043448601
0.54387951 -0.0075940071 0.042870417
0.54390419 -0.0067833448 0.042865478
0.5439288 -0.0059726862 0.042860538
0.54395348 -0.0051620244 0.042855598
0.54315346 -0.004401641 0.042277329
0.54317814 -0.0035893889 0.042272378
0.54320282 -0.0027771369 0.042267431
0.5424031 -0.0020103769 0.041689154
0.54242784 -0.0011965274 0.041684195
0.54245257 -0.00038268164 0.041679233
0.54165298 0.00039044576 0.041100923
0.54167777 0.0012058833 0.041095953
0.54087836 0.0019837879 0.04051761
0.54090321 0.002800819 0.040512633
0.54092801 0.003617852 0.040507652
0.54012877 0.0044021294 0.039929274
0.54015368 0.0052207527 0.039924286
0.53935456 0.0060098046 0.039345842
0.53937948 0.0068300231 0.039340843
0.53940439 0.0076502399 0.039335847
0.53860551 0.0084456634 0.038757395
0.53863049 0.0092674736 0.038752388
0.53865546 0.010089284 0.038747378
0.53868043 0.010911094 0.038742371
0.53788179 0.011714481 0.038163874
0.53790683 0.012537885 0.038158856
0.53793186 0.013361287 0.038153842
0.53795689 0.014184689 0.038148824
0.53715849 0.01499604 0.037570279
0.53718358 0.015821036 0.03756525
0.53720862 0.016646029 0.037560225
0.53723371 0.017471025 0.037555195
0.53643548 0.018290339 0.036976565
0.53646064 0.019116925 0.036971528
0.53648573 0.019943515 0.036966491
0.53651088 0.020770101 0.036961455
0.53653598 0.021596689 0.036956418
0.53573811 0.02242556 0.036377765
0.53576332 0.023253741 0.036372721
0.53578848 0.024081919 0.036367673
0.53581363 0.0249101 0.036362626
0.535016 0.025746934 0.035783928
0.53504121 0.026576707 0.035778869
0.53506649 0.02740648 0.035773814
0.53426903 0.028249683 0.035195071
0.53429431 0.029081048 0.035190005
0.53431958 0.029912414 0.035184938
0.53352231 0.030761989 0.034606162
0.53354764 0.031594947 0.034601089
0.53275049 0.032449301 0.034022246
0.53277588 0.033283852 0.034017161
0.53197891 0.034142982 0.033438321
0.5303598 0.035031471 0.032285705
0.52956307 0.035898563 0.031706821
0.52794427 0.036798202 0.030554099
0.52714777 0.037673257 0.029975167
0.52635139 0.038551502 0.029396214
0.52555507 0.039432932 0.028817205
0.52475893 0.040317543 0.028238215
0.54404825 -0.018962698 0.042312212
0.54407287 -0.018152036 0.042307273
0.54409748 -0.017341377 0.042302333
0.54412216 -0.016530715 0.042297389
0.54497105 -0.015647445 0.042866841
0.54499567 -0.014838377 0.042861912
0.54502022 -0.014029304 0.042856984
0.54504484 -0.01322024 0.042852052
0.5450694 -0.012411172 0.042847123
0.54509401 -0.011602103 0.042842191
0.54511863 -0.010793035 0.042837262
0.54431927 -0.010045429 0.042257871
0.54434389 -0.0092347674 0.042252932
0.54436857 -0.0084241088 0.042247992
0.54439318 -0.0076134428 0.042243052
0.54441786 -0.0068027806 0.042238113
0.54361874 -0.0060456232 0.041658629
0.54364341 -0.0052333674 0.041653678
0.54366815 -0.0044211149 0.041648731
0.54369283 -0.0036088631 0.04164378
0.54289401 -0.0028437348 0.041064285
0.54291874 -0.002029889 0.041059323
0.54294348 -0.0012160395 0.041054364
0.54214489 -0.00044454401 0.040474828
0.54216969 0.00037089537 0.040469863
0.54137123 0.0011471681 0.039890297
0.54139602 0.0019641994 0.039885316
0.54059774 0.002745253 0.039305724
0.54062259 0.0035638779 0.039300736
0.54064751 0.0043825028 0.039295748
0.53984934 0.005169923 0.038716082
0.53987426 0.0059901397 0.038711082
0.53989917 0.0068103583 0.038706083
0.53910124 0.007604152 0.038126413
0.53912622 0.0084259603 0.038121406
0.53915119 0.0092477705 0.038116395
0.5383535 0.010047935 0.037536688
0.53837854 0.010871338 0.03753167
0.53840351 0.01169474 0.037526652
0.53842854 0.012518143 0.037521634
0.53763109 0.013326271 0.036941875
0.53765613 0.014151265 0.036936846
0.53768122 0.01497626 0.03693182
0.53770632 0.015801257 0.036926791
0.53690898 0.016617345 0.03634695
0.53693414 0.017443933 0.036341913
0.53695923 0.01827052 0.036336876
0.53698438 0.019097108 0.03633184
0.53618735 0.019921163 0.035751984
0.53621256 0.020749344 0.035746936
0.53623772 0.021577524 0.035741888
0.53626287 0.022405704 0.035736844
0.53628808 0.023233885 0.035731796
0.53549135 0.024067493 0.035151884
0.53551656 0.024897266 0.035146825
0.53554177 0.025727039 0.03514177
0.53474528 0.02656702 0.034561817
0.53477055 0.027398385 0.03455675
0.53479582 0.028229751 0.034551684
0.5339995 0.029076103 0.033971693
0.53402478 0.029909061 0.03396662
0.53405011 0.030742019 0.033961542
0.53325391 0.031594742 0.033381477
0.5332793 0.032429293 0.033376392
0.53248328 0.033286791 0.032796331
0.53168738 0.034147479 0.032216255
0.5308916 0.035011347 0.031636156
0.53009593 0.035878401 0.031056035
0.5284791 0.036777962 0.029900851
0.52768362 0.037652984 0.029320685
0.52770936 0.038498681 0.029315531
0.52609295 0.039412577 0.028160259
0.52611876 0.040261462 0.028155087
0.54373837 -0.019061156 0.04110923
0.5437631 -0.018248904 0.041104279
0.54461116 -0.017360812 0.041674972
0.54463583 -0.016550152 0.041670032
0.54466045 -0.015739493 0.041665092
0.54468507 -0.01492883 0.041660152
0.54470974 -0.014118169 0.041655213
0.54473436 -0.013307506 0.041650273
0.54475904 -0.012496844 0.041645333
0.54478365 -0.011686185 0.041640393
0.54480827 -0.010875523 0.04163545
0.54483294 -0.010064865 0.04163051
0.54485756 -0.0092542022 0.041625571
0.54488224 -0.0084435446 0.041620631
0.54408401 -0.0076896008 0.041039936
0.54410875 -0.0068773488 0.041034985
0.54413342 -0.0060650967 0.041030034
0.5441581 -0.0052528409 0.041025087
0.54336023 -0.0044909422 0.040444378
0.54338497 -0.0036770925 0.040439416
0.54340971 -0.0028632467 0.040434457
0.54261202 -0.0020949768 0.039853707
0.54263675 -0.0012795337 0.039848737
0.54266155 -0.00046409431 0.039843772
0.5418641 0.00031055033 0.039262984
0.54188889 0.0011275797 0.039258003
0.54109156 0.0019070016 0.038677189
0.54111642 0.0027256266 0.038672201
0.54031914 0.0035098251 0.038091321
0.54034412 0.0043300418 0.038086321
0.54036903 0.0051502581 0.038081322
0.539572 0.0059408285 0.037500437
0.53959697 0.0067626406 0.037495431
0.53962195 0.0075844489 0.037490424
0.53882515 0.00838139 0.036909498
0.53885019 0.0092047919 0.03690448
0.53887522 0.010028194 0.036899462
0.53890026 0.010851596 0.036894444
0.53810364 0.011656499 0.036313474
0.53812873 0.012481498 0.036308445
0.53815383 0.013306491 0.03630342
0.53817886 0.014131485 0.03629839
0.53738248 0.014944353 0.035717338
0.53740764 0.01577094 0.035712302
0.53743273 0.016597528 0.035707265
0.53745788 0.017424116 0.035702229
0.5366618 0.018244946 0.035121158
0.53668696 0.019073127 0.035116114
0.53671211 0.019901307 0.035111066
0.53673732 0.020729488 0.035106018
0.53594142 0.021558281 0.034524903
0.53596669 0.022388054 0.034519844
0.53599191 0.023217827 0.034514789
0.53601712 0.0240476 0.034509733
0.53522152 0.024884356 0.033928566
0.53524679 0.025715722 0.033923499
0.53527206 0.026547087 0.033918433
0.53447664 0.027390216 0.033337228
0.53450191 0.028223174 0.03333215
0.53452724 0.029056132 0.033327077
0.533732 0.02990563 0.032745797
0.53375733 0.030740183 0.032740712
0.53296226 0.031594459 0.03215944
0.53298771 0.0324306 0.032154348
0.53219277 0.033289656 0.031573042
0.53221822 0.034127392 0.031567939
0.53142345 0.034991223 0.030986607
0.53062874 0.03585824 0.030405257
0.52983409 0.036728445 0.029823853
0.52821952 0.037632708 0.028666209
0.52824521 0.038478408 0.028661055
0.52745092 0.039358165 0.028079627
0.52665663 0.040241111 0.027498145
0.54340589 -0.019973531 0.039908778
0.54343063 -0.019159684 0.03990382
0.54427773 -0.018268378 0.040475689
0.5443024 -0.017456122 0.040470738
0.54432714 -0.016643871 0.040465787
0.54435182 -0.015831618 0.04046084
0.54519874 -0.014948266 0.041032787
0.54522336 -0.014137604 0.041027848
0.54524803 -0.013326942 0.041022908
0.54527265 -0.01251628 0.041017968
0.54529732 -0.011705621 0.041013028
0.54532194 -0.010894959 0.041008089
0.54452461 -0.010145838 0.040426191
0.54454935 -0.0093335863 0.04042124
0.54457402 -0.0085213343 0.040416293
0.5445987 -0.0077090748 0.040411342
0.54462337 -0.0068968227 0.040406391
0.54464805 -0.0060845707 0.040401444
0.54385114 -0.0053242999 0.039819509
0.54387587 -0.0045104539 0.03981455
0.54390061 -0.0036966046 0.039809588
0.54310387 -0.0029299627 0.039227616
0.54312867 -0.0021145272 0.03922265
0.54233211 -0.0013431004 0.038640648
0.54235691 -0.00052607112 0.038635671
0.54238176 0.00029096194 0.03863069
0.54158539 0.0010687519 0.038048651
0.54161024 0.0018873749 0.038043663
0.54081392 0.0026699416 0.03746156
0.5408389 0.0034901602 0.037456565
0.54086381 0.0043103769 0.037451565
0.54006773 0.0050993171 0.036869455
0.54009277 0.0059211254 0.036864448
0.54011774 0.0067429375 0.036859442
0.53932184 0.0075382465 0.036277294
0.53934687 0.0083616488 0.03627228
0.53937191 0.0091850506 0.036267262
0.53857625 0.0099867331 0.035685074
0.53860134 0.010811727 0.035680048
0.53862637 0.011636721 0.035675019
0.53865147 0.012461718 0.035669994
0.53785598 0.013271361 0.035087727
0.53788114 0.014097948 0.03508269
0.53790623 0.014924536 0.035077654
0.53793138 0.015751123 0.035072614
0.5371362 0.01656873 0.034490332
0.53716135 0.01739691 0.034485284
0.53718656 0.018225091 0.03448024
0.53639156 0.019049069 0.033897918
0.53641677 0.019878842 0.033892862
0.53644198 0.020708615 0.033887807
0.53646719 0.021538388 0.033882748
0.53567249 0.022370327 0.033300381
0.53569776 0.023201695 0.033295315
0.53572303 0.02403306 0.033290248
0.5357483 0.024864424 0.033285182
0.53495377 0.02570433 0.032702763
0.5349791 0.026537286 0.032697685
0.53500438 0.027370246 0.032692611
0.53421003 0.02821652 0.032110121
0.53423542 0.029051073 0.032105036
0.53344125 0.029902125 0.031522546
0.53346664 0.030738268 0.031517453
0.53349209 0.031574413 0.031512357
0.53269809 0.032431833 0.030929834
0.53272355 0.033269569 0.03092473
0.53192973 0.034131773 0.030342175
0.53195524 0.034971099 0.03033706
0.53116155 0.035838079 0.029754478
0.53036791 0.036708247 0.029171839
0.52957445 0.037581597 0.028589221
0.52878106 0.038458131 0.028006578
0.52798778 0.039337851 0.027423916
0.52801353 0.040185142 0.027418753
0.52722031 0.041069642 0.02683603
0.54058576 -0.021956235 0.036976751
0.54143226 -0.02105373 0.037549816
0.54227859 -0.02015442 0.038122866
0.54312485 -0.019258294 0.038695943
0.543971 -0.018365351 0.039269034
0.54481709 -0.017475596 0.039842144
0.54484177 -0.016663345 0.039837193
0.5448665 -0.015851092 0.039832242
0.54489118 -0.015038836 0.039827295
0.54491585 -0.01422658 0.039822344
0.54494053 -0.013414328 0.039817393
0.54496521 -0.012602072 0.039812446
0.54498994 -0.01178982 0.039807495
0.54501462 -0.010977568 0.039802544
0.5450393 -0.010165312 0.039797597
0.54506397 -0.0093530603 0.039792646
0.54508865 -0.0085408082 0.039787695
0.54511338 -0.0077285487 0.039782748
0.54431736 -0.0069715031 0.039199602
0.5443421 -0.0061576576 0.039194643
0.54436684 -0.0053438121 0.039189681
0.543571 -0.0045803916 0.038606498
0.54359579 -0.0037649523 0.038601529
0.54362059 -0.002949513 0.038596559
0.54282492 -0.0021797258 0.038013335
0.54284978 -0.001362689 0.038008355
0.5420543 -0.00058812066 0.037425105
0.54207921 0.00023050234 0.037420116
0.54128379 0.0010098435 0.036836799
0.54130876 0.0018300603 0.036831804
0.54133368 0.0026502768 0.036826804
0.54053855 0.0034359952 0.036243483
0.54056352 0.0042578038 0.036238477
0.5405885 0.005079614 0.03623347
0.53979355 0.0058716992 0.035650108
0.53981858 0.0066951034 0.03564509
0.53984356 0.0075185052 0.035640072
0.53986859 0.0083419075 0.035635054
0.53907388 0.0091419555 0.035051648
0.53909898 0.0099669537 0.035046622
0.53912407 0.010791947 0.035041593
0.53832948 0.011598365 0.034458112
0.53835464 0.012424955 0.034453075
0.53837973 0.013251543 0.034448039
0.53840488 0.01407813 0.034443002
0.53761059 0.014892514 0.033859506
0.5376358 0.015720695 0.033854458
0.53766096 0.016548874 0.033849411
0.53686684 0.017369628 0.033265878
0.53689212 0.018199403 0.033260822
0.53691733 0.019029174 0.033255767
0.53694254 0.019858949 0.033250708
0.53614873 0.020687664 0.032667127
0.53617394 0.021519031 0.03266206
0.53619921 0.022350397 0.032656994
0.53540558 0.023185484 0.032073375
0.53543091 0.024018442 0.032068297
0.53545624 0.0248514 0.032063223
0.53466272 0.02569286 0.031479526
0.53468812 0.02652741 0.031474441
0.53471345 0.027361961 0.031469356
0.53392023 0.028209791 0.030885657
0.53394562 0.029045934 0.030880561
0.53397107 0.029882077 0.030875467
0.53317797 0.030736277 0.030291729
0.53320342 0.031574015 0.030286625
0.53322893 0.03241175 0.03028152
0.53243607 0.033272319 0.02969774
0.53246158 0.034111649 0.029692626
0.53166884 0.034976996 0.029108822
0.53087616 0.035845533 0.028524963
0.53008366 0.036717251 0.027941119
0.53010929 0.037561357 0.027935974
0.5293169 0.038437854 0.027352098
0.52934259 0.039283555 0.027346946
0.52855039 0.040164828 0.026763044
0.52775818 0.04104929 0.026179088
0.52778399 0.041898176 0.026173916
0.53861868 -0.023052627 0.034609258
0.54028487 -0.022059809 0.035762738
0.54113036 -0.02115568 0.036336996
0.54197586 -0.020254733 0.036911305
0.54282111 -0.019356975 0.0374856
0.5436663 -0.018462405 0.038059913
0.5436911 -0.017646965 0.038054943
0.54453617 -0.016757172 0.038629286
0.54456091 -0.015943326 0.038624328
0.54540581 -0.01505831 0.0391987
0.54543054 -0.014246054 0.039193749
0.54545522 -0.013433802 0.039188802
0.54547989 -0.012621546 0.039183851
0.54550457 -0.011809294 0.0391789
0.54552925 -0.010997042 0.039173953
0.54555398 -0.010184786 0.039169002
0.5447588 -0.0094325561 0.038584653
0.54478353 -0.0086187106 0.038579695
0.54480827 -0.0078048613 0.038574733
0.544833 -0.0069910153 0.038569774
0.54485774 -0.0061771697 0.038564816
0.54406291 -0.0054153814 0.037980407
0.54408771 -0.0045999419 0.037975438
0.543293 -0.0038333766 0.037391003
0.54331779 -0.0030163436 0.037386023
0.54334265 -0.0021993141 0.037381046
0.54254812 -0.001426374 0.03679657
0.54257298 -0.00060774724 0.036791582
0.54177856 0.00016996395 0.036207043
0.54180354 0.00099017879 0.036202043
0.54182845 0.0018103954 0.036197044
0.54103428 0.0025944819 0.035612501
0.54105926 0.0034162921 0.035607494
0.54108423 0.0042381007 0.035602488
0.54029024 0.0050285561 0.035017904
0.54031527 0.0058519584 0.035012886
0.5403403 0.0066753621 0.035007868
0.53954649 0.0074721887 0.034423247
0.53957158 0.0082971826 0.034418222
0.53959662 0.0091221761 0.034413192
0.53962171 0.0099471742 0.034408167
0.53882813 0.010751963 0.033823464
0.53885323 0.011578549 0.033818424
0.53887838 0.012405138 0.033813387
0.53808498 0.013216298 0.03322868
0.5381102 0.014044477 0.033223633
0.53813535 0.014872658 0.033218589
0.53734219 0.015690189 0.032633841
0.5373674 0.016519962 0.032628782
0.53739262 0.017349735 0.032623727
0.53659964 0.018173637 0.032038942
0.53662491 0.019005002 0.032033876
0.53665018 0.019836368 0.032028809
0.53585744 0.02066664 0.031443983
0.53588277 0.021499598 0.031438909
0.53590804 0.022332555 0.031433832
0.53593338 0.023165515 0.031428758
0.53514081 0.02400375 0.030843848
0.53516614 0.0248383 0.030838763
0.53519154 0.025672851 0.030833678
0.53439921 0.026517456 0.030248767
0.5344246 0.027353602 0.030243671
0.53444999 0.028189745 0.030238576
0.53365785 0.02904072 0.029653626
0.53368336 0.029878456 0.02964852
0.53370881 0.030716192 0.029643415
0.53291684 0.031573541 0.029058425
0.53294235 0.032412868 0.02905331
0.53296787 0.033252198 0.029048195
0.53217608 0.034115914 0.028463168
0.53220165 0.034956835 0.028458044
0.53140998 0.035825334 0.02787295
0.53061849 0.036697015 0.027287874
0.53064412 0.037541121 0.02728273
0.52985275 0.038417581 0.026697624
0.5290615 0.039297223 0.026112499
0.52908725 0.040144514 0.026107335
0.52829605 0.041028939 0.025522146
0.52832186 0.041877825 0.025516972
0.52834767 0.042726707 0.025511799
0.52755672 0.043617502 0.024926607
0.52758259 0.044467978 0.024921425
0.52763426 0.046168935 0.024911059
0.53747702 -0.024071669 0.03281486
0.53914142 -0.023072407 0.033970803
0.53998607 -0.022163462 0.03454626
0.54083061 -0.021257699 0.035121743
0.54167503 -0.020355128 0.03569724
0.54251939 -0.019455737 0.036272794
0.54336363 -0.018559534 0.036848329
0.54338849 -0.017742502 0.036843348
0.54423261 -0.016851075 0.037418917
0.54507661 -0.015962837 0.0379945
0.54510134 -0.015148993 0.037989542
0.54512608 -0.014335142 0.037984584
0.54515082 -0.013521297 0.037979621
0.54517555 -0.012707451 0.037974663
0.54520029 -0.011893606 0.037969705
0.54522502 -0.01107976 0.037964746
0.54524976 -0.010265914 0.037959784
0.5452745 -0.0094520682 0.037954826
0.54529923 -0.0086382227 0.037949868
0.54450524 -0.0078812465 0.037364256
0.54453003 -0.007065807 0.037359286
0.54455477 -0.0062503675 0.037354317
0.54457957 -0.0054349317 0.037349347
0.54378581 -0.0046699941 0.036763687
0.54381067 -0.0038529651 0.03675871
0.54383552 -0.0030359318 0.036753729
0.54304194 -0.0022646273 0.036168035
0.5430668 -0.0014460005 0.036163047
0.54227334 -0.0006699175 0.035577282
0.54229832 0.00015029914 0.035572287
0.54232323 0.00097051391 0.035567287
0.54153001 0.0017529685 0.034981519
0.54155499 0.0025747789 0.034976512
0.54076189 0.0033620126 0.034390718
0.54078692 0.0041854144 0.0343857
0.54081196 0.0050088149 0.034380682
0.54083699 0.0058322172 0.034375664
0.54004413 0.0066274153 0.033789821
0.54006922 0.0074524092 0.033784796
0.54009432 0.0082774032 0.033779766
0.53930163 0.0090789683 0.033193849
0.53932673 0.0099055571 0.033188812
0.53935188 0.010732145 0.033183776
0.53937697 0.011558731 0.033178739
0.53858459 0.012368263 0.032592807
0.53860974 0.013196442 0.032587759
0.53863496 0.014024621 0.032582711
0.53784275 0.014840522 0.031996746
0.53786796 0.015670296 0.03199169
0.53707588 0.016490974 0.031405691
0.53710115 0.017322339 0.031400625
0.53712642 0.018153705 0.031395558
0.53633457 0.018980753 0.030809518
0.53635991 0.019813711 0.030804442
0.53638524 0.020646669 0.030799367
0.53559351 0.021480089 0.030213255
0.53561884 0.02231464 0.030208169
0.53564423 0.02314919 0.030203084
0.53566957 0.023983741 0.030197999
0.53487813 0.024825124 0.029611874
0.53490359 0.025661267 0.02960678
0.53492898 0.026497411 0.029601684
0.53495443 0.027333554 0.02959659
0.53416324 0.0281829 0.029010415
0.53418869 0.029020635 0.02900531
0.53421414 0.029858371 0.029000206
0.53342313 0.030714087 0.028413992
0.53344864 0.031553417 0.028408878
0.53347415 0.032392744 0.028403763
0.53268337 0.033254832 0.02781751
0.53270894 0.034095753 0.027812386
0.53191823 0.034962621 0.027226074
0.53194386 0.035805132 0.027220938
0.53115332 0.036676776 0.026634628
0.5303629 0.037551604 0.026048299
0.53038865 0.038397305 0.026043145
0.53041434 0.039243001 0.026037993
0.5296241 0.0401242 0.025451623
0.52883393 0.041008588 0.024865204
0.52885973 0.04185747 0.02486003
0.52806979 0.042746633 0.024273613
0.5280956 0.04359711 0.024268432
0.52812147 0.044447586 0.024263248
0.52733171 0.04534312 0.023676792
0.52735758 0.04619519 0.023671601
0.52738351 0.047047261 0.023666408
0.53465104 -0.026943872 0.029862367
0.53631395 -0.025928603 0.031020677
0.53633916 -0.025097238 0.03101561
0.53800178 -0.024091525 0.032173943
0.53884554 -0.023177769 0.032750607
0.53968924 -0.022267187 0.033327322
0.54053283 -0.021359796 0.033904023
0.54219472 -0.020374794 0.035062484
0.54221964 -0.019554576 0.035057485
0.54306298 -0.018656736 0.035634279
0.54390615 -0.017762089 0.036211058
0.54393101 -0.01694506 0.036206078
0.54477406 -0.016055191 0.036782887
0.54479885 -0.015239751 0.036777917
0.54482365 -0.014424308 0.036772948
0.54484844 -0.013608868 0.036767978
0.54487318 -0.012793433 0.036763009
0.54489797 -0.011977994 0.036758039
0.54492277 -0.011162554 0.036753073
0.54494756 -0.010347115 0.036748104
0.54497236 -0.0095316786 0.036743134
0.54499716 -0.0087162396 0.036738165
0.54502189 -0.0079007968 0.036733195
0.54422903 -0.0071406784 0.036146335
0.54425383 -0.0063236449 0.036141355
0.54427868 -0.0055066156 0.036136378
0.54430354 -0.0046895826 0.036131397
0.54351085 -0.0039214999 0.035544485
0.54353577 -0.0031028769 0.035539497
0.54274321 -0.0023300194 0.034952521
0.54276812 -0.0015097989 0.034947526
0.5427931 -0.00068958232 0.034942526
0.54200077 8.9648689e-05 0.034355547
0.54202574 0.00091145525 0.03435054
0.54205072 0.0017332656 0.034345534
0.54125863 0.0025188674 0.033758514
0.54128361 0.0033422713 0.033753496
0.54130864 0.0041656736 0.033748478
0.54051673 0.0049576443 0.033161424
0.54054183 0.0057826382 0.033156395
0.54056692 0.0066076359 0.03315137
0.54059196 0.0074326298 0.03314634
0.53980023 0.0082325628 0.032559197
0.53982538 0.0090591507 0.032554161
0.53985047 0.0098857395 0.032549124
0.53987563 0.010712327 0.032544088
0.5390842 0.011520226 0.031956937
0.53910935 0.012348407 0.031951889
0.53831804 0.013161083 0.031364705
0.53834331 0.013990856 0.031359646
0.53836852 0.014820628 0.031354591
0.53757739 0.015639676 0.030767372
0.53760266 0.016471041 0.030762305
0.53681171 0.017294865 0.030175053
0.53683704 0.018127825 0.030169977
0.53686237 0.018960781 0.030164901
0.53607154 0.019790979 0.029577577
0.53609693 0.02062553 0.029572492
0.53612226 0.021460081 0.029567407
0.53533173 0.022296645 0.028980076
0.53535712 0.02313279 0.028974982
0.53538257 0.023968933 0.028969886
0.53540796 0.024805076 0.028964791
0.53461766 0.025649605 0.028377416
0.53464311 0.026487343 0.02837231
0.53466856 0.027325079 0.028367205
0.53469402 0.028162815 0.028362101
0.53390396 0.029015306 0.027774673
0.53392947 0.029854637 0.027769558
0.53395498 0.030693965 0.027764443
0.5331651 0.031552829 0.02717698
0.53319067 0.03239375 0.027171856
0.53321618 0.033234671 0.027166732
0.53242648 0.034099907 0.026579192
0.53245205 0.034942418 0.026574058
0.53166252 0.035812434 0.025986528
0.53168815 0.03665654 0.025981383
0.53089875 0.037531327 0.025393821
0.53010947 0.038409304 0.024806241
0.53013521 0.039256595 0.024801077
0.52934599 0.040139351 0.024213435
0.5293718 0.040988233 0.024208261
0.52939761 0.041837119 0.024203088
0.52860862 0.042726245 0.023615438
0.52863449 0.043576721 0.023610255
0.52784568 0.044470623 0.023022579
0.52868623 0.045277677 0.023599891
0.52789748 0.046174761 0.023012195
0.52792335 0.047026832 0.023007002
0.52794927 0.047878902 0.023001811
0.53599763 -0.026871888 0.029799454
0.53684068 -0.025948536 0.030377293
0.53686595 -0.02511717 0.030372227
0.53770888 -0.024198592 0.030950092
0.53855169 -0.023283204 0.031527977
0.54021198 -0.022286966 0.032688867
0.54105455 -0.021379536 0.033266801
0.541897 -0.020475296 0.033844754
0.54273939 -0.019574242 0.034422729
0.54276431 -0.018754024 0.03441773
0.54360658 -0.01785774 0.034995764
0.54363143 -0.017039116 0.034990776
0.54447353 -0.016147615 0.035568807
0.54449838 -0.015330586 0.03556383
0.54452324 -0.014513549 0.03555885
0.5453651 -0.013628419 0.036136921
0.54538989 -0.012812983 0.036131952
0.54541469 -0.011997543 0.036126982
0.54543942 -0.011182104 0.036122017
0.54546422 -0.010366665 0.036117047
0.54467219 -0.0096113617 0.035528976
0.54469705 -0.0087943329 0.035523999
0.5447219 -0.0079772957 0.035519019
0.5447467 -0.0071602669 0.035514042
0.54477155 -0.0063432334 0.035509061
0.54397982 -0.0055783764 0.034920938
0.54400468 -0.0047597531 0.03491595
0.54402959 -0.0039411266 0.034910962
0.54323798 -0.0031699007 0.034322765
0.5432629 -0.0023496842 0.034317765
0.54328787 -0.0015294638 0.034312766
0.5424965 -0.00075186463 0.033724565
0.54252148 6.9945658e-05 0.033719558
0.54254645 0.00089175225 0.033714551
0.54175532 0.0016757242 0.03312631
0.54178035 0.0024991264 0.033121292
0.54180539 0.0033225303 0.033116274
0.54101443 0.0041128709 0.032527994
0.54103947 0.0049378648 0.032522965
0.54106456 0.0057628588 0.03251794
0.54027373 0.0065595722 0.031929586
0.54029888 0.0073861578 0.031924549
0.54032397 0.0082127452 0.031919513
0.54034913 0.0090393331 0.031914476
0.53955859 0.0098440098 0.031326108
0.53958374 0.010672188 0.031321064
0.53960896 0.01150037 0.031316016
0.5388186 0.012311418 0.03072761
0.53884381 0.013141189 0.030722553
0.53886902 0.013970962 0.030717498
0.5380789 0.014788378 0.030129053
0.53810418 0.015619745 0.030123986
0.53731418 0.016441938 0.029535512
0.53733951 0.017274896 0.029530436
0.53654963 0.018101867 0.028941898
0.53657496 0.018936418 0.028936813
0.53660035 0.019770971 0.028931728
0.53581071 0.020604312 0.028343186
0.5358361 0.021440456 0.02833809
0.53586149 0.022276599 0.028332995
0.53588694 0.023112742 0.028327899
0.53509754 0.023954049 0.027739311
0.53512299 0.024791785 0.027734205
0.53514844 0.02562952 0.0277291
0.53435922 0.026477197 0.027140472
0.53438473 0.027316526 0.027135357
0.53441024 0.028155856 0.027130242
0.53443575 0.028995184 0.027125128
0.53364682 0.029850824 0.026536448
0.53367233 0.030691745 0.026531324
0.5336979 0.031532668 0.0265262
0.5329091 0.032394677 0.025937449
0.53293467 0.033237193 0.025932314
0.5329603 0.034079708 0.02592718
0.53217173 0.034948088 0.025338426
0.53219736 0.035792194 0.025333282
0.53140891 0.036665354 0.024744499
0.53143466 0.037511051 0.024739346
0.53064632 0.03838899 0.024150532
0.53067207 0.039236281 0.024145368
0.53069782 0.040083572 0.024140205
0.52990967 0.040967882 0.023551317
0.5291217 0.041855376 0.022962445
0.52914751 0.042705853 0.022957264
0.52917337 0.043556329 0.02295208
0.52838558 0.044450194 0.022363171
0.52841145 0.045302264 0.022357978
0.52843738 0.046154335 0.022352785
0.52846324 0.047006402 0.022347594
0.52767569 0.047908228 0.021758635
0.4687351 0.11975781 -0.022439519
0.46876469 0.12073093 -0.02244545
0.46879426 0.12170404 -0.022451378
0.46882385 0.12267715 -0.022457309
0.53568327 -0.027818441 0.02857575
0.53652543 -0.026891857 0.029154835
0.53736746 -0.025968468 0.029733902
0.53739274 -0.025137102 0.029728837
0.53823465 -0.024218487 0.030307936
0.53907645 -0.02330306 0.030887052
0.53991812 -0.022390818 0.03146619
0.5407598 -0.021481749 0.032045383
0.5416013 -0.020575877 0.032624558
0.54244268 -0.019673189 0.033203755
0.543284 -0.01877369 0.03378297
0.54330897 -0.017953472 0.033777971
0.54415017 -0.017058743 0.03435725
0.54417503 -0.01624012 0.034352262
0.54419994 -0.015421498 0.034347273
0.54504091 -0.014533138 0.034926556
0.54506576 -0.013716108 0.034921579
0.54509056 -0.012899076 0.034916598
0.54511541 -0.012082046 0.034911621
0.54514027 -0.011265013 0.034906641
0.54516506 -0.010447984 0.034901664
0.54518992 -0.0096309502 0.034896683
0.54521471 -0.0088139214 0.034891706
0.54442388 -0.0080538755 0.034302376
0.54444873 -0.007235249 0.034297388
0.54447365 -0.0064166258 0.0342924
0.5444985 -0.005598003 0.034287412
0.54370785 -0.0048299991 0.033698
0.54373276 -0.0040097823 0.033693004
0.54375768 -0.0031895656 0.033688005
0.54378265 -0.0023693491 0.033683006
0.54299223 -0.001593378 0.033093583
0.54301721 -0.00077156775 0.033088572
0.54222697 9.1804941e-06 0.03249912
0.542252 0.00083258073 0.032494102
0.54227704 0.0016559828 0.032489084
0.54230207 0.0024793849 0.032484066
0.54151207 0.0032680959 0.031894565
0.54153717 0.0040930915 0.031889535
0.5415622 0.0049180854 0.03188451
0.54077238 0.0057131648 0.031294934
0.54079747 0.0065397546 0.031289894
0.54082263 0.0073663401 0.031284858
0.54003298 0.008167793 0.030695278
0.5400582 0.0089959726 0.030690232
0.54008335 0.009824153 0.030685185
0.5401085 0.010652333 0.030680139
0.53931916 0.011461749 0.030090509
0.53934437 0.012291524 0.030085454
0.53855515 0.013105714 0.029495794
0.53858042 0.013937081 0.02949073
0.53779131 0.014756051 0.028901044
0.53781664 0.015589009 0.028895969
0.53784198 0.016421968 0.028890893
0.53705305 0.017247308 0.028301133
0.53707838 0.018081859 0.028296046
0.53628969 0.018911978 0.027706292
0.53631508 0.019748122 0.027701197
0.53634048 0.020584265 0.027696101
0.53555197 0.021420756 0.027106307
0.53557742 0.02225849 0.027101202
0.53560287 0.023096228 0.027096098
0.53562832 0.023933964 0.027090993
0.53484005 0.024778416 0.026501151
0.53486556 0.025617745 0.026496036
0.53489107 0.026457075 0.026490921
0.53491658 0.027296403 0.026485806
0.53412849 0.028148819 0.025895916
0.53415406 0.028989742 0.025890792
0.53417963 0.029830663 0.025885668
0.53339171 0.03068945 0.025295703
0.53341734 0.031531963 0.025290567
0.53344291 0.032374479 0.025285434
0.53265524 0.033239637 0.024695465
0.53268093 0.034083743 0.024690323
0.53270656 0.034927849 0.024685178
0.53191906 0.035799377 0.02409517
0.53194481 0.036645077 0.024090018
0.53115743 0.037521381 0.023499981
0.53118318 0.038368676 0.023494817
0.53039598 0.039249763 0.022904716
0.53042179 0.040098645 0.022899544
0.53044754 0.04094753 0.022894371
0.52966058 0.041834984 0.022304267
0.52968645 0.042685464 0.022299085
0.52971226 0.04353594 0.022293901
0.52892548 0.044429764 0.021703759
0.52895135 0.045281835 0.021698566
0.52897727 0.046133906 0.021693375
0.52819067 0.0470341 0.021103192
0.5282166 0.047887761 0.02109799
0.52743012 0.048792735 0.020507783
0.5361867 -0.028672999 0.027934989
0.5370279 -0.027744787 0.028515294
0.53705323 -0.026911829 0.028510218
0.53789425 -0.0259884 0.029090522
0.53791952 -0.025157034 0.029085455
0.53876042 -0.02423838 0.029665787
0.53960121 -0.023322916 0.030246135
0.54044187 -0.022410635 0.030826507
0.54046702 -0.021584043 0.030821469
0.54130763 -0.020676535 0.031401902
0.54214805 -0.019772215 0.031982321
0.54298842 -0.018871082 0.032562759
0.54301339 -0.018049276 0.032557752
0.54385358 -0.01715292 0.033138219
0.5438785 -0.016332705 0.03313322
0.54471862 -0.015441124 0.033713751
0.54474354 -0.014622494 0.033708762
0.54476839 -0.01380387 0.033703774
0.54479325 -0.012985248 0.033698786
0.54481816 -0.012166625 0.033693798
0.54484302 -0.011347998 0.03368881
0.54486793 -0.010529375 0.033683818
0.54489279 -0.0097107524 0.03367883
0.5449177 -0.0088921292 0.033673842
0.54494256 -0.0080735022 0.033668853
0.54415274 -0.0073103136 0.033078242
0.54417771 -0.0064900969 0.033073243
0.54420263 -0.0056698802 0.033068243
0.54422754 -0.0048496639 0.033063248
0.54425246 -0.0040294472 0.033058248
0.54346299 -0.0032567016 0.032467611
0.54348797 -0.0024348914 0.032462601
0.54351294 -0.001613081 0.032457594
0.54272366 -0.00083396462 0.031866916
0.54274869 -1.0560651e-05 0.031861898
0.54277372 0.0008128396 0.03185688
0.54198468 0.001598327 0.031266168
0.54200971 0.0024233209 0.031261139
0.5420348 0.0032483167 0.031256113
0.54124588 0.0040401723 0.030665323
0.54127097 0.0048667598 0.030660285
0.54129612 0.0056933477 0.030655248
0.54050744 0.0064915768 0.030064454
0.54053259 0.0073197559 0.030059408
0.54055774 0.0081479372 0.030054361
0.54058295 0.0089761168 0.030049315
0.53979445 0.0097823087 0.029458474
0.53981972 0.010612082 0.029453417
0.53903139 0.01142305 0.028862545
0.53905666 0.012254417 0.028857481
0.53908193 0.013085783 0.028852414
0.53829378 0.013903122 0.028261503
0.53831911 0.014736081 0.028256427
0.53753108 0.015558199 0.027665455
0.53755647 0.016392749 0.02766037
0.5375818 0.0172273 0.027655285
0.53679407 0.018055789 0.027064307
0.53681946 0.018891932 0.02705921
0.53603184 0.0197252 0.026468202
0.53605729 0.020562936 0.026463097
0.53608274 0.021400671 0.026457993
0.5361082 0.022238405 0.026452888
0.53532082 0.023079637 0.025861835
0.53534633 0.023918964 0.02585672
0.53537184 0.024758294 0.025851605
0.53458464 0.025605895 0.02526051
0.53461021 0.026446816 0.025255386
0.53463578 0.027287737 0.025250262
0.53466135 0.028128659 0.025245138
0.53387433 0.028984223 0.024653958
0.53389996 0.029826738 0.024648825
0.53392553 0.030669251 0.024643691
0.53313875 0.031531185 0.024052512
0.53316444 0.032375291 0.024047367
0.53319007 0.033219397 0.024042223
0.53240353 0.034087703 0.023451002
0.53242922 0.034933403 0.023445848
0.53164279 0.035806485 0.022854598
0.53166854 0.036653776 0.022849435
0.53169429 0.037501071 0.022844272
0.53090805 0.038380526 0.022252951
0.53093386 0.039229408 0.022247778
