# .PCD v0.7 - Point Cloud Data file format
VERSION 0.7
FIELDS x y z
SIZE 4 4 4
TYPE F F F
COUNT 1 1 1
WIDTH 1404
HEIGHT 1
VIEWPOINT 0 0 0 1 0 0 0
POINTS 1404
DATA ascii
0.40830943 0.092237987 0.061483961
0.40925813 0.093080811 0.061930381
0.4092873 0.094041176 0.061924532
0.41023585 0.094879232 0.062370982
0.410265 0.09583801 0.062365141
0.41213274 0.096545756 0.063263975
0.4121618 0.097501352 0.063258149
0.41219082 0.098456942 0.06325233
0.41313902 0.099282242 0.063698858
0.41316801 0.10023624 0.063693047
0.41319701 0.10119024 0.063687228
0.41414496 0.10200918 0.064133801
0.41417393 0.10296158 0.064127997
0.41420287 0.10391399 0.064122193
0.4151507 0.10472655 0.064568825
0.41517961 0.10567736 0.064563036
0.41520852 0.10662818 0.064557239
0.41431865 0.10772362 0.064098977
0.41434762 0.10867603 0.064093173
0.41437656 0.10962844 0.064087369
0.41440552 0.11058085 0.064081565
0.41443446 0.11153325 0.064075761
0.41354495 0.11263824 0.063617468
0.41357395 0.11359225 0.063611656
0.41360295 0.11454624 0.063605845
0.41363195 0.11550025 0.063600034
0.4127427 0.1166132 0.063141689
0.41277173 0.11756879 0.063135862
0.41280079 0.11852439 0.063130043
0.41191173 0.11964371 0.062671661
0.41194081 0.12060089 0.062665828
0.41196993 0.12155809 0.062659994
0.41199902 0.12251527 0.06265416
0.41111013 0.12364256 0.062195707
0.41113928 0.12460135 0.062189866
0.41116843 0.12556012 0.062184021
0.41119757 0.12651891 0.06217818
0.41122672 0.12747768 0.062172338
0.40512714 0.088811636 0.05894905
0.40607524 0.089667238 0.059396628
0.40610462 0.090633973 0.059390735
0.40705261 0.091484793 0.059838373
0.40800044 0.09233243 0.060286
0.40894818 0.093176886 0.060733646
0.40989584 0.094018154 0.061181314
0.41084337 0.09485624 0.061629001
0.41087252 0.095815025 0.061623156
0.41181996 0.096648321 0.062070899
0.41276729 0.097478442 0.062518619
0.41279632 0.098434031 0.0625128
0.4137435 0.099259377 0.062960565
0.41377249 0.10021337 0.062954746
0.41471949 0.10103393 0.063402541
0.41474846 0.10198635 0.063396737
0.4147774 0.10293876 0.063390933
0.41480634 0.10389116 0.063385129
0.4148353 0.10484357 0.063379325
0.41486424 0.10579597 0.063373521
0.41489318 0.10674838 0.063367717
0.41492215 0.10770079 0.06336192
0.41495109 0.1086532 0.063356116
0.41498002 0.10960561 0.063350312
0.41500899 0.11055801 0.063344508
0.41412044 0.11166137 0.062884986
0.41414943 0.11261537 0.062879175
0.41417843 0.11356938 0.062873363
0.41329011 0.11467911 0.062413808
0.41331914 0.11563469 0.062407982
0.4133482 0.11659029 0.062402159
0.41246003 0.1177064 0.061942577
0.41248912 0.11866357 0.061936744
0.41251823 0.11962076 0.06193091
0.41254732 0.12057794 0.06192508
0.41165936 0.12170202 0.061465409
0.41168851 0.1226608 0.061459567
0.41171765 0.12361958 0.061453722
0.41174677 0.12457836 0.061447881
0.41085911 0.12571038 0.060988192
0.41088831 0.12667076 0.060982339
0.41091749 0.12763113 0.060976487
0.4020699 0.089232825 0.056380846
0.40393487 0.089982137 0.057284348
0.40579957 0.090725087 0.058187876
0.40674654 0.091577537 0.058636706
0.40861097 0.092309333 0.059540316
0.4095577 0.093153827 0.059989195
0.41050434 0.093995132 0.060438097
0.41145086 0.094833255 0.060887016
0.41239738 0.095668182 0.06133597
0.41242647 0.096625373 0.061330136
0.41337276 0.097455531 0.061779104
0.41431895 0.098282501 0.062228095
0.41434795 0.099236503 0.06222228
0.41437694 0.1001905 0.062216468
0.41440594 0.1011445 0.062210653
0.4153519 0.10196351 0.062659688
0.41538087 0.10291592 0.062653884
0.4154098 0.10386832 0.06264808
0.41543874 0.10482074 0.062642276
0.41546771 0.10577314 0.062636472
0.41549665 0.10672554 0.062630668
0.41552562 0.10767795 0.062624864
0.41555455 0.10863036 0.06261906
0.41466692 0.1097305 0.062158331
0.41469592 0.11068451 0.06215252
0.41472492 0.11163849 0.062146705
0.41475391 0.1125925 0.062140893
0.41386655 0.11370061 0.061680112
0.41389558 0.1146562 0.061674289
0.41300836 0.11576907 0.061213482
0.41303745 0.11672626 0.061207648
0.41306654 0.11768344 0.061201815
0.41217944 0.1188027 0.060740955
0.41220859 0.11976148 0.06073511
0.4122377 0.12072026 0.060729269
0.41135088 0.12184589 0.060268383
0.41138005 0.12280626 0.060262531
0.41140926 0.12376662 0.060256679
0.41143844 0.124727 0.060250826
0.41146764 0.12568736 0.060244974
0.41149682 0.12664773 0.060239121
0.41061032 0.12778451 0.059778169
0.41063955 0.12874646 0.059772305
0.40085414 0.089431584 0.054714654
0.4036338 0.090071499 0.056076553
0.40549654 0.090816118 0.056982536
0.40735909 0.091554359 0.057888545
0.40830502 0.092403665 0.058338657
0.4092508 0.093249783 0.058788761
0.41111284 0.093972102 0.059694868
0.41205838 0.09481027 0.06014502
0.41300386 0.095645234 0.060595222
0.41303295 0.096602425 0.060589388
0.41397825 0.097432621 0.061039578
0.41400731 0.09838821 0.061033756
0.41495243 0.09921363 0.061483987
0.41498142 0.10016762 0.061478171
0.41501042 0.10112163 0.06147236
0.41595539 0.10194068 0.061922628
0.41598433 0.10289308 0.061916824
0.41601327 0.10384549 0.06191102
0.41604224 0.1047979 0.061905216
0.41607118 0.10575031 0.061899412
0.41610011 0.10670271 0.061893608
0.41521341 0.10779963 0.061431665
0.4152424 0.10875363 0.06142585
0.4152714 0.10970763 0.061420038
0.4153004 0.11066163 0.061414223
0.41441393 0.1117665 0.060952231
0.41444299 0.1127221 0.060946409
0.41447204 0.1136777 0.060940586
0.41358575 0.11478894 0.060478564
0.41361484 0.11574613 0.060472731
0.41364393 0.11670331 0.060466897
0.41275781 0.11782094 0.060004801
0.41278693 0.11877971 0.059998959
0.411901 0.11990211 0.059536859
0.4119302 0.12086248 0.059531007
0.41195938 0.12182286 0.059525155
0.41107365 0.12295163 0.059063017
0.41110289 0.12391359 0.059057154
0.41113213 0.12487555 0.05905129
0.41116136 0.1258375 0.05904543
0.4111906 0.12679948 0.059039567
0.41121984 0.12776144 0.059033707
0.41033444 0.12890135 0.05857151
0.39964238 0.089630194 0.053043529
0.40241909 0.09027341 0.054409105
0.40427998 0.091021277 0.055317551
0.40705612 0.091646984 0.056683209
0.40891656 0.092380524 0.05759174
0.40986133 0.093226686 0.058043078
0.410806 0.09406966 0.058494434
0.41266587 0.094787285 0.05940304
0.41361037 0.095622286 0.05985447
0.41363946 0.096579477 0.059848636
0.41458374 0.09740971 0.06030006
0.4146128 0.098365299 0.060294237
0.41464183 0.099320889 0.060288414
0.41558591 0.10014475 0.06073989
0.4156149 0.10109875 0.060734075
0.4156439 0.10205276 0.060728263
0.4156729 0.10300676 0.060722448
0.4157019 0.10396075 0.060716636
0.41573089 0.10491475 0.060710821
0.41575989 0.10586875 0.060705006
0.41578889 0.10682276 0.060699195
0.41581789 0.10777675 0.060693379
0.41584688 0.10873076 0.060687568
0.41587588 0.10968476 0.060681753
0.41499037 0.11078801 0.060218539
0.41501942 0.11174359 0.060212713
0.41504848 0.11269919 0.06020689
0.41416314 0.11380881 0.059743647
0.41419223 0.11476599 0.059737813
0.41422135 0.11572318 0.059731983
0.41333616 0.11683917 0.059268661
0.4133653 0.11779795 0.05926282
0.41248032 0.11891872 0.058799494
0.41250953 0.11987909 0.058793642
0.41162467 0.12100463 0.058330301
0.41165394 0.12196659 0.058324438
0.41168317 0.12292856 0.058318578
0.41171241 0.12389052 0.058312714
0.41174164 0.12485249 0.058306854
0.41177088 0.12581445 0.058300991
0.41088638 0.12695114 0.057837572
0.41091567 0.1279147 0.057831701
0.41094497 0.12887825 0.057825826
0.3919715 0.088614725 0.048170794
0.39566058 0.089172564 0.049998283
0.3984347 0.08982864 0.051367484
0.40120849 0.090475157 0.052736741
0.40398195 0.091112129 0.054106019
0.40675518 0.091739535 0.055475391
0.40861359 0.092474744 0.056386355
0.40955743 0.09332253 0.056838945
0.41141552 0.0940466 0.057749975
0.41235906 0.09488643 0.058202583
0.41330254 0.095723078 0.058655202
0.41424596 0.096556522 0.059107877
0.41518924 0.0973868 0.059560534
0.41521826 0.098342389 0.059554711
0.41524732 0.099297978 0.059548888
0.41527638 0.10025357 0.059543062
0.41621938 0.10107588 0.059995782
0.41624838 0.10202989 0.059989966
0.41627738 0.10298388 0.059984155
0.41630638 0.10393789 0.05997834
0.41633537 0.10489188 0.059972528
0.41636437 0.10584588 0.059966713
0.41639337 0.10679989 0.059960898
0.41550875 0.10789831 0.059496477
0.41553777 0.10885391 0.059490655
0.41556683 0.1098095 0.059484832
0.41559586 0.1107651 0.059479009
0.41471148 0.11187148 0.059014551
0.41474056 0.11282867 0.059008718
0.41476965 0.11378586 0.059002884
0.41388538 0.11489863 0.058538351
0.41391453 0.11585741 0.05853251
0.41394368 0.11681619 0.058526665
0.41305965 0.11793532 0.058062129
0.41308883 0.11889569 0.058056276
0.41220498 0.12001961 0.057591703
0.41223422 0.12098157 0.057585839
0.41135049 0.12211026 0.057121236
0.41137978 0.12307382 0.057115361
0.41140908 0.12403737 0.05710949
0.41143835 0.12500092 0.057103619
0.41055486 0.12613757 0.056638978
0.41058421 0.12710273 0.056633096
0.41152623 0.12789159 0.057086006
0.41064286 0.12903303 0.056621332
0.41067222 0.12999818 0.056615453
0.38242769 0.085724555 0.042369332
0.38337237 0.086634502 0.042822748
0.38523084 0.087436676 0.043735795
0.38891673 0.088020138 0.045568086
0.39168841 0.088698626 0.046940826
0.39445987 0.089367561 0.048313636
0.39723104 0.090026937 0.049686514
0.40091544 0.090564221 0.051519062
0.40368599 0.091202892 0.052892055
0.40645623 0.091832004 0.054265119
0.40831268 0.092568889 0.055178542
0.41016898 0.093299389 0.056092028
0.41202503 0.094023533 0.057005525
0.41296759 0.094863407 0.057459366
0.41391003 0.095700085 0.057913218
0.41485244 0.096533574 0.058367126
0.41488156 0.097490758 0.058361292
0.41491064 0.098447941 0.058355462
0.41585281 0.099275067 0.05880937
0.41588184 0.10023066 0.058803547
0.4159109 0.10118625 0.058797725
0.41593996 0.10214185 0.058791902
0.41688186 0.10296101 0.05924587
0.41599804 0.10405304 0.058780253
0.41602707 0.10500862 0.05877443
0.41605613 0.10596422 0.058768608
0.41608518 0.10691981 0.058762785
0.41611421 0.1078754 0.058756962
0.41614327 0.108831 0.05875114
0.41525978 0.10993417 0.058285467
0.41528887 0.11089135 0.058279634
0.41531795 0.11184853 0.0582738
0.41534704 0.11280572 0.05826797
0.41446376 0.11391687 0.057802211
0.41449291 0.11487564 0.057796367
0.41360977 0.11599156 0.05733062
0.41363898 0.11695193 0.057324767
0.41275603 0.11807261 0.056858975
0.41278526 0.11903457 0.056853116
0.41190243 0.12016005 0.056387305
0.41193172 0.1211236 0.056381434
0.41196102 0.12208716 0.056375563
0.41199031 0.12305072 0.056369692
0.41110775 0.12418415 0.055903822
0.41113707 0.12514929 0.05589794
0.4111664 0.12611444 0.055892061
0.41119576 0.12707959 0.055886179
0.41122508 0.12804474 0.055880297
0.41125441 0.12900989 0.055874415
0.41128376 0.12997504 0.055868536
0.38392097 0.083576247 0.042058565
0.38395169 0.084587581 0.042052403
0.38398245 0.085598916 0.042046238
0.38492611 0.086507298 0.042500924
0.38678247 0.08730796 0.043416422
0.38863865 0.088102259 0.04433196
0.3914074 0.088782452 0.045708403
0.39508858 0.089343771 0.047545765
0.39785671 0.090003259 0.048922334
0.40062451 0.090653203 0.050298944
0.40339205 0.091293581 0.051675629
0.40615934 0.091924399 0.053052373
0.40892625 0.092545673 0.054429159
0.41078052 0.093276255 0.055345111
0.41172221 0.094120935 0.055800147
0.4135761 0.094840378 0.05671614
0.41451755 0.0956771 0.057171222
0.4145467 0.096635878 0.057165381
0.41548803 0.09746781 0.057620533
0.41551715 0.098424993 0.057614699
0.41554624 0.099382184 0.057608865
0.41648734 0.10020775 0.058064017
0.41651639 0.10116334 0.058058195
0.41654545 0.10211894 0.058052372
0.41657448 0.10307453 0.05804655
0.41660354 0.10403012 0.058040727
0.41663256 0.10498571 0.058034904
0.41666162 0.10594131 0.058029082
0.41669068 0.1068969 0.058023255
0.41580808 0.10799684 0.057556372
0.41583717 0.10895403 0.057550538
0.41586626 0.10991123 0.057544705
0.41589537 0.1108684 0.057538874
0.41501299 0.11197633 0.057071902
0.41504213 0.1129351 0.057066057
0.41507125 0.11389388 0.057060216
0.4141891 0.11500816 0.056593243
0.41421831 0.11596853 0.056587391
0.41333631 0.11708759 0.056120388
0.41336554 0.11804955 0.056114525
0.41248369 0.11917339 0.055647481
0.41251299 0.12013695 0.05564161
0.41254228 0.12110049 0.055635739
0.41166061 0.12223071 0.05516867
0.41168994 0.12319586 0.055162787
0.41171929 0.12416101 0.055156905
0.41174862 0.12512615 0.055151027
0.41177794 0.1260913 0.055145144
0.4118073 0.12705645 0.055139262
0.41092592 0.12819782 0.054672085
0.41186595 0.12898675 0.055127501
0.41098469 0.1301313 0.054660305
0.38547385 0.083453864 0.041737959
0.38550454 0.084463604 0.041731805
0.38644716 0.085372031 0.042187687
0.3864778 0.086380184 0.04218154
0.38742027 0.087283827 0.042637464
0.39018625 0.087972105 0.044017557
0.39204013 0.088758506 0.04493561
0.39571726 0.089319989 0.046777893
0.40124714 0.090629645 0.049538471
0.40401167 0.091270134 0.050918858
0.40677592 0.091901071 0.052299298
0.40953979 0.092522457 0.053679775
0.41048062 0.09337195 0.054136015
0.41233274 0.094097838 0.055054463
0.41327333 0.094939373 0.055510763
0.41421381 0.095777728 0.05596707
0.41515419 0.096612893 0.0564234
0.41518334 0.097571671 0.056417555
0.41612363 0.098402046 0.056873951
0.41615272 0.099359229 0.056868117
0.41618183 0.10031642 0.056862283
0.41621092 0.1012736 0.05685645
0.41715091 0.10209603 0.057312857
0.41717997 0.10305162 0.057307035
0.417209 0.10400721 0.057301208
0.4163273 0.10510235 0.056833118
0.41635638 0.10605953 0.056827288
0.41638547 0.10701671 0.056821454
0.41641456 0.1079739 0.056815621
0.41644368 0.10893108 0.056809787
0.41556218 0.11003578 0.056341603
0.41559133 0.11099456 0.056335758
0.41562048 0.11195333 0.056329917
0.41473925 0.11306439 0.05586173
0.41476843 0.11402477 0.055855878
0.41479763 0.11498514 0.055850025
0.41391659 0.11610257 0.055381801
0.41394582 0.11706453 0.055375937
0.41306493 0.11818673 0.054907672
0.41309422 0.11915029 0.054901801
0.41221347 0.12027727 0.054433517
0.4122428 0.12124242 0.054427635
0.41227216 0.12220757 0.054421753
0.41139156 0.12334094 0.053953391
0.41142094 0.12430767 0.053947501
0.41145033 0.12527442 0.053941611
0.41147971 0.12624115 0.053935718
0.4115091 0.12720791 0.053929828
0.41153848 0.12817463 0.053923938
0.41156787 0.12914138 0.053918045
0.41159725 0.13010813 0.053912155
0.38790506 0.082226917 0.041889161
0.38793567 0.083233468 0.041883025
0.38796625 0.084240027 0.041876893
0.38799685 0.085246585 0.041870758
0.38802746 0.086253144 0.041864626
0.38987967 0.087050773 0.042785078
0.39173177 0.087842032 0.043705583
0.3935836 0.088626921 0.044626113
0.39634597 0.089296199 0.046010021
0.39910805 0.089955911 0.047393989
0.40186977 0.090606086 0.04877799
0.40463129 0.091246687 0.050162073
0.4073925 0.091877736 0.051546216
0.40924293 0.092616446 0.052467015
0.41109318 0.093348771 0.053387865
0.41203296 0.09419512 0.053845383
0.41388285 0.094916314 0.054766301
0.41482234 0.095754698 0.055223841
0.41485152 0.09671507 0.055217989
0.41579086 0.097548679 0.055675574
0.41582 0.098507456 0.055669729
0.41584912 0.099466234 0.055663887
0.41678831 0.10029347 0.056121521
0.41681743 0.10125066 0.056115691
0.41684651 0.10220784 0.056109857
0.4168756 0.10316502 0.056104023
0.41690469 0.10412221 0.056098193
0.4169338 0.1050794 0.056092359
0.41696289 0.10603658 0.056086525
0.41699198 0.10699376 0.056080692
0.41611141 0.10809524 0.055611305
0.41614056 0.10905401 0.05560546
0.4161697 0.1100128 0.055599619
0.41528937 0.11112063 0.055130206
0.41531858 0.11208099 0.055124354
0.41534775 0.11304136 0.055118501
0.41446763 0.11415558 0.054649062
0.41449687 0.11511753 0.054643199
0.4136169 0.11623652 0.05417373
0.41364619 0.11720008 0.054167859
0.41367546 0.11816363 0.054161988
0.41279569 0.11928898 0.053692468
0.41282502 0.12025413 0.053686589
0.41194534 0.12138426 0.053217024
0.4119747 0.12235101 0.053211134
0.41200408 0.12331776 0.053205241
0.41203347 0.12428449 0.053199351
0.41206285 0.12525125 0.053193461
0.41209224 0.12621798 0.053187568
0.41212162 0.12718472 0.053181678
0.41124237 0.12832759 0.052712064
0.41218039 0.1291182 0.053169895
0.41130126 0.13026427 0.052700263
0.39033246 0.081006482 0.042045258
0.3894529 0.082106322 0.041574672
0.38948345 0.083111286 0.041568547
0.389514 0.08411625 0.041562423
0.38954455 0.085121214 0.041556302
0.38957509 0.086126179 0.041550178
0.39051545 0.087026715 0.042008571
0.39327526 0.087712035 0.043396086
0.39421532 0.088603012 0.043854538
0.39697468 0.08927241 0.045242149
0.39973372 0.089932241 0.046629816
0.40249243 0.090582527 0.048017506
0.40525091 0.09122324 0.049405292
0.40800908 0.091854408 0.050793134
0.40985751 0.092593186 0.051716398
0.41170573 0.0933256 0.052639715
0.41264451 0.094171979 0.053098466
0.4135831 0.095015191 0.053557213
0.4145216 0.095855214 0.05401599
0.41546002 0.096692048 0.054474775
0.41548923 0.097652413 0.054468922
0.41642749 0.098484471 0.054927737
0.41645664 0.099443249 0.054921892
0.41648579 0.10040203 0.05491605
0.41651493 0.10136081 0.054910205
0.41745302 0.10218489 0.055369094
0.41748211 0.10314208 0.055363264
0.41751119 0.10409927 0.05535743
0.41663149 0.10519592 0.054886837
0.41666064 0.1061547 0.054880995
0.41668978 0.10711347 0.05487515
0.41671893 0.10807225 0.054869309
0.41583952 0.10917686 0.054398693
0.4158687 0.11013724 0.054392841
0.41589791 0.1110976 0.054386988
0.41501868 0.11220858 0.053916335
0.41504791 0.11317055 0.053910475
0.41507715 0.11413252 0.053904612
0.41419816 0.11524986 0.05343391
0.41422743 0.11621342 0.053428035
0.41334856 0.11733554 0.052957315
0.41337791 0.1183007 0.052951433
0.4124991 0.11942761 0.052480657
0.41252849 0.12039436 0.052474767
0.41255787 0.12136108 0.052468874
0.41258726 0.12232783 0.052462984
0.41170877 0.12346271 0.051992174
0.41173822 0.12443104 0.051986273
0.41176766 0.12539938 0.051980373
0.41179708 0.1263677 0.051974472
0.41182652 0.12733604 0.051968571
0.41185594 0.12830438 0.05196267
0.41188538 0.12927271 0.051956769
0.41191483 0.13024105 0.051950868
0.39275604 0.079792574 0.042206276
0.39187735 0.080887593 0.041734487
0.39190781 0.081889376 0.041728381
0.39102921 0.082989179 0.041256536
0.3910597 0.083992548 0.041250423
0.39109018 0.084995918 0.041244309
0.39293844 0.085793696 0.042169709
0.39296883 0.086793885 0.042163614
0.39481676 0.087582111 0.043089043
0.3966645 0.08836396 0.044014551
0.39942068 0.089030296 0.045405842
0.40126801 0.08979781 0.046331439
0.40402365 0.090446614 0.047722835
0.40677902 0.091085859 0.049114332
0.40862569 0.091831073 0.050040051
0.41047207 0.092569932 0.050965793
0.41140991 0.093421139 0.051425725
0.41325605 0.094148844 0.052351549
0.41419363 0.094992086 0.052811529
0.41422293 0.095955648 0.052805658
0.41516039 0.096794114 0.053265676
0.41609773 0.097629391 0.053725705
0.41612694 0.098589756 0.053719852
0.41615611 0.099550128 0.053714
0.41709328 0.10037904 0.054174066
0.41712242 0.10133782 0.054168224
0.41715157 0.1022966 0.054162383
0.41718072 0.10325538 0.054156538
0.41720986 0.10421415 0.054150697
0.41723901 0.10517292 0.054144856
0.41636047 0.10627273 0.053673036
0.41638964 0.10723309 0.053667184
0.41641885 0.10819346 0.053661332
0.41644803 0.10915383 0.053655479
0.41556972 0.1102616 0.053183611
0.41559896 0.11122356 0.053177748
0.41562819 0.11218552 0.053171888
0.4147501 0.11329965 0.052699968
0.41477939 0.11426321 0.052694097
0.41480869 0.11522676 0.052688226
0.41393077 0.11634726 0.05221628
0.4139601 0.1173124 0.052210398
0.41308227 0.1184377 0.051738396
0.41311166 0.11940443 0.051732507
0.41314104 0.12037118 0.051726617
0.41226348 0.12150282 0.051254604
0.4122929 0.12247116 0.051248703
0.41232234 0.1234395 0.051242802
0.41235176 0.12440782 0.051236901
0.4123812 0.12537616 0.051231001
0.41241065 0.12634449 0.0512251
0.41153339 0.12748729 0.050753016
0.41156289 0.12845722 0.050747108
0.41159236 0.12942713 0.050741196
0.41162184 0.13039707 0.050735287
0.41165131 0.131367 0.050729375
0.39429793 0.079675391 0.04189916
0.39432827 0.080673985 0.041893072
0.39435863 0.081672587 0.041886989
0.39348099 0.082769156 0.041413955
0.39441934 0.083669774 0.041874819
0.39354178 0.084769532 0.041401766
0.39448002 0.085666962 0.041862648
0.39541817 0.08656121 0.042323548
0.397264 0.087346323 0.043251503
0.3991096 0.088125072 0.044179458
0.40095505 0.088897452 0.04510748
0.40280026 0.089663453 0.046035513
0.40555286 0.090310775 0.047430661
0.40739763 0.091062449 0.048358783
0.40924227 0.091807745 0.049286969
0.41108665 0.092546679 0.050215166
0.41202348 0.093397923 0.050676342
0.41296023 0.094245985 0.051137526
0.41389692 0.095090859 0.051598754
0.41483346 0.095932543 0.052059975
0.41486275 0.096896097 0.052054103
0.41579914 0.097733013 0.052515354
0.41582838 0.098694973 0.05250949
0.41676465 0.099527106 0.052970771
0.41679382 0.10048747 0.052964918
0.41682303 0.10144784 0.05295907
0.41685221 0.10240822 0.052953217
0.41688141 0.10336859 0.052947365
0.41691059 0.10432895 0.052941512
0.4169398 0.10528933 0.05293566
0.41696897 0.1062497 0.052929807
0.41699818 0.10721007 0.052923955
0.41612077 0.1083146 0.052450873
0.41615 0.10927657 0.052445009
0.41617927 0.11023854 0.052439149
0.41530207 0.11134943 0.05196603
0.41533136 0.11231299 0.051960155
0.41536063 0.11327655 0.051954284
0.41448364 0.11439382 0.051481128
0.41451296 0.11535897 0.051475246
0.41363606 0.11648104 0.051002029
0.41366544 0.11744777 0.05099614
0.41369483 0.11841452 0.050990246
0.41281816 0.11954293 0.050517023
0.41284761 0.12051128 0.050511122
0.41287702 0.1214796 0.050505221
0.41290647 0.12244795 0.05049932
0.41203004 0.12358433 0.050026033
0.41205955 0.12455425 0.050020121
0.41208902 0.12552418 0.050014209
0.41211849 0.12649411 0.050008301
0.41214797 0.12746403 0.050002389
0.41217747 0.12843396 0.04999648
0.41130137 0.1295815 0.049523134
0.41133091 0.13055302 0.049517214
0.41136044 0.13152453 0.049511295
0.39583775 0.079558291 0.041594516
0.39586806 0.080555297 0.041588441
0.39589837 0.081552297 0.041582365
0.39592868 0.082549296 0.041576289
0.39595899 0.083546303 0.041570216
0.3959893 0.084543303 0.04156414
0.39692646 0.085437581 0.0420263
0.3987703 0.08622437 0.042956676
0.39970717 0.087110691 0.043418858
0.40155071 0.087886326 0.044349328
0.40339398 0.088655598 0.045279808
0.40523708 0.089418501 0.046210326
0.40708002 0.090175018 0.047140922
0.40892273 0.090925179 0.048071522
0.41076529 0.091668956 0.049002185
0.4117012 0.092523426 0.049464561
0.41263705 0.093374707 0.049926959
0.41357276 0.094222806 0.050389376
0.41450846 0.095067717 0.050851837
0.41544399 0.095909439 0.051314291
0.41547328 0.096873 0.05130842
0.41640866 0.097709946 0.051770903
0.41643792 0.098671913 0.051765043
0.41646716 0.099633865 0.05175918
0.4164964 0.10059583 0.05175332
0.41743153 0.10142482 0.052215852
0.41746074 0.10238519 0.052209999
0.41748992 0.10334557 0.052204147
0.41751912 0.10430593 0.052198295
0.41664258 0.10540565 0.051724009
0.41667181 0.10636761 0.051718146
0.41670105 0.10732958 0.051712286
0.41673031 0.10829154 0.051706422
0.41585401 0.10939922 0.051232088
0.4158833 0.11036278 0.051226217
0.41500717 0.11147524 0.050751854
0.4150365 0.11244038 0.050745972
0.41506585 0.11340553 0.050740089
0.41509518 0.11437069 0.050734211
0.41421923 0.11549111 0.050259773
0.41424862 0.11645786 0.050253879
0.41337287 0.11758305 0.049779441
0.41340229 0.1185514 0.04977354
0.41343173 0.11951972 0.049767639
0.41346115 0.12048806 0.049761739
0.41258565 0.12162121 0.049287248
0.41261512 0.12259115 0.049281336
0.41264462 0.12356108 0.049275428
0.4126741 0.12453099 0.049269516
0.41270357 0.12550093 0.049263604
0.41182837 0.12664364 0.048789058
0.41276255 0.12744078 0.049251784
0.41188741 0.12858668 0.048777219
0.41191694 0.12955821 0.048771296
0.41194648 0.13052973 0.048765376
0.41107154 0.13168199 0.048290771
0.39828175 0.079348139 0.041761741
0.39831197 0.080341958 0.041755687
0.39834219 0.081335776 0.04174963
0.39837238 0.082329586 0.041743573
0.3984026 0.083323404 0.041737519
0.39843279 0.084317222 0.041731462
0.39936882 0.085208356 0.042194851
0.40121052 0.085992038 0.043127712
0.40214637 0.0868752 0.043591172
0.40398774 0.087647736 0.0445241
0.40582889 0.088413902 0.045457069
0.40766993 0.089173689 0.046390101
0.4095107 0.089927107 0.047323145
0.41044587 0.090787977 0.047786742
0.41228631 0.091530249 0.048719857
0.41322118 0.092383161 0.049183477
0.4132506 0.093351491 0.049177576
0.41418532 0.094199628 0.049641225
0.41512001 0.095044576 0.05010492
0.41514933 0.096009724 0.050099038
0.41608381 0.096849896 0.050562736
0.41611311 0.09781345 0.050556865
0.41614237 0.098777011 0.050550994
0.41707668 0.099610806 0.051014729
0.41710591 0.10057277 0.051008869
0.41713515 0.10153473 0.051003005
0.41716439 0.1024967 0.050997145
0.41719362 0.10345867 0.050991282
0.41722286 0.10442062 0.050985422
0.41725209 0.10538259 0.050979558
0.41637668 0.10648546 0.050504021
0.41640598 0.10744901 0.05049815
0.41643527 0.10841256 0.050492276
0.41646454 0.10937612 0.050486404
0.41558936 0.11048695 0.050010819
0.41561872 0.1114521 0.050004937
0.41474363 0.11256771 0.049529295
0.41477302 0.11353446 0.049523402
0.4148024 0.1145012 0.049517512
0.41483179 0.11546794 0.049511623
0.413957 0.11659151 0.049035955
0.41398641 0.11755984 0.049030058
0.41401586 0.11852818 0.049024157
0.41314125 0.11965811 0.048548453
0.41317075 0.12062804 0.048542541
0.41320023 0.12159796 0.048536632
0.4132297 0.12256789 0.04853072
0.41325918 0.12353782 0.048524812
0.4123849 0.12467732 0.048049048
0.4124144 0.12564884 0.048043128
0.41244394 0.12662035 0.048037209
0.41156983 0.12776622 0.047561407
0.4115994 0.12873933 0.047555476
0.41162899 0.12971245 0.047549549
0.41165856 0.13068557 0.047543619
0.41078463 0.13183939 0.047067743
0.40072167 0.079138137 0.041933876
0.40075177 0.080128767 0.041927837
0.4007819 0.081119411 0.041921802
0.39990705 0.082207896 0.041445117
0.4008421 0.083100669 0.041909728
0.40087223 0.084091298 0.041903693
0.40180716 0.084979288 0.042368334
0.4036468 0.085759848 0.043303706
0.40458146 0.086639881 0.043768395
0.40642071 0.087409303 0.044703808
0.40825981 0.088172354 0.045639288
0.40919411 0.089039639 0.046104044
0.41103289 0.089791529 0.047039591
0.41196692 0.090650856 0.047504406
0.41290087 0.091506988 0.047969241
0.41383472 0.092359945 0.048434094
0.41476849 0.093209706 0.048898965
0.41479787 0.094176449 0.048893075
0.41573155 0.095021434 0.049358003
0.41576087 0.095986582 0.049352121
0.4157902 0.096951731 0.049346242
0.41672364 0.097790346 0.049811181
0.4167529 0.098753907 0.04980531
0.4167822 0.099717461 0.049799439
0.4168115 0.10068101 0.049793568
0.41684079 0.10164458 0.049787696
0.41687006 0.10260813 0.049781825
0.41689935 0.10357169 0.049775951
0.41692865 0.10453524 0.04977008
0.41695794 0.10549879 0.049764208
0.41698721 0.10646235 0.049758337
0.4161129 0.10756837 0.049281545
0.41614226 0.10853352 0.049275666
0.41617158 0.10949866 0.049269784
0.41529742 0.11061106 0.048792928
0.4153268 0.11157779 0.048787035
0.41535619 0.11254453 0.048781145
0.41538557 0.11351128 0.048775256
0.41451168 0.11463163 0.048298374
0.41454113 0.11559995 0.048292473
0.41457054 0.1165683 0.048286572
0.41369689 0.117695 0.047809657
0.41372636 0.11866494 0.047803745
0.41375583 0.11963486 0.047797836
0.41378531 0.12060478 0.047791924
0.41291186 0.12173946 0.047314961
0.4129414 0.12271098 0.047309037
0.41297093 0.12368251 0.047303118
0.41300046 0.12465402 0.047297198
0.41212726 0.12579668 0.046820186
0.41215685 0.12676978 0.046814255
0.41218641 0.12774289 0.046808325
0.41131335 0.12889192 0.046331245
0.41134298 0.12986661 0.046325304
0.4113726 0.13084133 0.046319366
0.41140226 0.13181603 0.046313427
0.40222338 0.078032307 0.041645117
0.40225345 0.079021342 0.04163909
0.40228352 0.080010384 0.041633062
0.40231359 0.080999427 0.041627035
0.40234363 0.081988461 0.041621007
0.4023737 0.082977504 0.041614983
0.40330768 0.083865523 0.042080883
0.40424147 0.084750362 0.042546764
0.40517521 0.085632019 0.043012675
0.40701252 0.086404704 0.043950535
0.40794605 0.087278396 0.044416524
0.40978304 0.088039935 0.045354441
0.41071627 0.088905662 0.045820452
0.41164947 0.089768201 0.046286508
0.41258252 0.090627566 0.046752553
0.41351545 0.091483735 0.047218625
0.41444829 0.092336729 0.04768471
0.41538104 0.093186527 0.048150815
0.41541043 0.094153278 0.048144925
0.41543981 0.09512002 0.048139036
0.41637242 0.095963441 0.048605192
0.41640177 0.096928596 0.048599314
0.4164311 0.097893737 0.048593432
0.41646042 0.098858885 0.048587549
0.41739276 0.099694356 0.049053743
0.41742203 0.10065791 0.049047872
0.41745132 0.10162147 0.049042001
0.41748062 0.10258503 0.04903613
0.41750991 0.10354859 0.049030259
0.41663647 0.10464978 0.048552264
0.41666579 0.10561493 0.048546381
0.41669512 0.10658007 0.048540499
0.41672447 0.10754523 0.048534617
0.41585121 0.10865439 0.048056558
0.41588056 0.10962113 0.048050668
0.41590995 0.11058788 0.048044778
0.41503695 0.11170341 0.047566693
0.41506639 0.11267173 0.047560792
0.41509581 0.11364008 0.047554892
0.41512525 0.11460841 0.047548991
0.41425249 0.1157319 0.047070861
0.41428196 0.11670183 0.047064949
0.41431144 0.11767175 0.047059041
0.41434091 0.11864168 0.047053128
0.41346839 0.11977313 0.04657495
0.41349792 0.12074465 0.046569031
0.41352746 0.12171617 0.046563111
0.41355699 0.12268769 0.046557188
0.41268471 0.12382712 0.046078961
0.41271427 0.12480023 0.046073031
0.41274387 0.12577334 0.0460671
0.4118717 0.12691914 0.045588806
0.41190132 0.12789385 0.045582868
0.4110294 0.1290444 0.045104571
0.41105905 0.13002071 0.045098621
0.41108873 0.13099702 0.045092672
0.41111842 0.1319733 0.045086723
0.4102467 0.13313183 0.044608392
0.40375325 0.077917174 0.041352801
0.40378326 0.078904614 0.041346785
0.4038133 0.079892062 0.041340768
0.40474629 0.080783315 0.041807856
0.40477625 0.081769168 0.041801848
0.40480623 0.082755022 0.041795839
0.40573901 0.083639905 0.042262968
0.40667173 0.084521599 0.0427301
0.40760434 0.085400112 0.043197267
0.40853691 0.086275429 0.043664478
0.41037196 0.087040223 0.044604853
0.41130427 0.08790759 0.045072075
0.41223648 0.08877176 0.045539353
0.41316855 0.08963275 0.046006624
0.41410053 0.090490557 0.046473917
0.41503242 0.091345176 0.046941217
0.41506186 0.092313513 0.046935316
0.4159936 0.093163356 0.047402654
0.41602299 0.094130099 0.047396764
0.41605237 0.095096841 0.047390874
0.41608176 0.096063584 0.047384981
0.41701332 0.096905455 0.047852397
0.41704264 0.097870603 0.047846515
0.41707197 0.098835744 0.047840632
0.41710132 0.099800892 0.047834754
0.41713065 0.10076605 0.047828872
0.41715997 0.1017312 0.04782299
0.41718933 0.10269634 0.047817107
0.41721866 0.10366149 0.047811229
0.41724798 0.10462664 0.047805347
0.41637561 0.105731 0.047326073
0.41640499 0.10669773 0.04732018
0.41643438 0.10766447 0.04731429
0.41556221 0.10877518 0.046835002
0.41559166 0.10974352 0.046829101
0.4156211 0.11071186 0.0468232
0.41565052 0.11168019 0.046817299
0.41477862 0.11279886 0.046337977
0.41480809 0.11376879 0.046332065
0.41483757 0.11473873 0.046326157
0.41486704 0.11570865 0.046320245
0.41399539 0.11683529 0.045840859
0.41402492 0.1178068 0.04583494
0.41405445 0.11877833 0.04582902
0.41318297 0.11991133 0.045349598
0.41321257 0.12088445 0.045343667
0.41324213 0.12185755 0.045337737
0.41327173 0.12283067 0.045331806
0.41240042 0.12397166 0.044852309
0.41243005 0.12494636 0.044846371
0.41245967 0.12592107 0.044840433
0.41158864 0.12706842 0.044360932
0.41161832 0.12804471 0.044354983
0.41074744 0.12919682 0.043875445
0.41077715 0.13017471 0.043869484
0.41080686 0.13115261 0.043863527
0.40993619 0.13231111 0.043383949
0.40996596 0.13329059 0.043377981
0.40525109 0.076816268 0.041068949
0.40528104 0.077802122 0.04106294
0.40531102 0.078787975 0.041056931
0.406243 0.079679266 0.041525252
0.40627292 0.080663525 0.041519254
0.40630284 0.081647784 0.041513257
0.40723464 0.082532704 0.041981604
0.4072645 0.083515376 0.041975617
0.409098 0.084292978 0.04291841
0.40912777 0.085272461 0.042912439
0.41005921 0.086146235 0.043380868
0.4109906 0.087016821 0.043849304
0.41192183 0.087884225 0.044317771
0.41285306 0.088748433 0.044786282
0.41378415 0.089609459 0.045254774
0.41471511 0.090467304 0.0457233
0.41564599 0.09132196 0.046191845
0.4156754 0.092290297 0.046185944
0.41660616 0.093140177 0.046654504
0.41663554 0.09410692 0.046648614
0.41666493 0.095073663 0.046642724
0.41669431 0.096040405 0.046636831
0.41762486 0.096882313 0.04710548
0.41765419 0.097847462 0.047099598
0.41768351 0.09881261 0.047093716
0.41771287 0.099777751 0.047087837
0.41774219 0.10074291 0.047081955
0.41777152 0.10170805 0.047076073
0.41690001 0.1028076 0.046595596
0.41692939 0.10377434 0.046589702
0.41695878 0.10474107 0.046583813
0.41698816 0.10570782 0.046577923
0.41611689 0.1068153 0.046097431
0.41614634 0.10778364 0.04609153
0.41617578 0.10875197 0.04608563
0.4162052 0.1097203 0.046079729
0.41533422 0.11083576 0.045599181
0.4153637 0.11180569 0.045593269
0.41539317 0.11277561 0.045587361
0.41452238 0.11389744 0.045106772
0.41455191 0.11486896 0.045100853
0.41458145 0.11584047 0.04509493
0.41371083 0.11696868 0.044614315
0.4137404 0.11794177 0.044608384
0.41376999 0.1189149 0.044602457
0.41379955 0.119888 0.044596527
0.41292915 0.12102417 0.044115823
0.41295877 0.12199887 0.044109885
0.41298839 0.12297358 0.044103947
0.41211823 0.12411612 0.043623231
0.41214791 0.1250924 0.043617282
0.41217759 0.12606871 0.043611333
0.4113076 0.12721761 0.043130592
0.41133732 0.12819549 0.043124631
0.41136703 0.12917338 0.043118671
0.41049725 0.13032866 0.042637881
0.41052702 0.13130814 0.042631913
0.40875793 0.13264875 0.041676212
0.40878779 0.13363144 0.041670222
0.40881768 0.1346141 0.041664235
0.40680683 0.077687144 0.040775534
0.40683675 0.078671403 0.040769536
0.40776768 0.079561144 0.041239098
0.40779755 0.080543809 0.041233111
0.40782741 0.081526481 0.041227121
0.40875816 0.082409844 0.041696712
0.40968886 0.083290018 0.04216636
0.41061938 0.084167011 0.042636003
0.41154984 0.085040815 0.043105651
0.41157952 0.086017117 0.043099701
0.41250983 0.086886145 0.043569393
0.41344008 0.087751985 0.04403913
0.41437018 0.08861465 0.044508845
0.41530019 0.089474127 0.044978593
0.41532966 0.090444051 0.044972684
0.41625956 0.091298744 0.045442455
0.41628897 0.092267081 0.045436554
0.41721871 0.093116999 0.045906354
0.4172481 0.094083741 0.045900464
0.41727749 0.095050484 0.045894574
0.41730687 0.096017227 0.045888681
0.41733626 0.096983962 0.045882791
0.41736564 0.097950704 0.045876902
0.41739503 0.098917447 0.045871008
0.41742438 0.09988419 0.045865119
0.41745377 0.10085093 0.045859225
0.41748315 0.10181767 0.045853335
0.41751254 0.10278442 0.045847446
0.41664219 0.10388709 0.045365747
0.4166716 0.10485543 0.045359846
0.41670105 0.10582376 0.045353945
0.41673046 0.10679208 0.045348044
0.41586035 0.10790273 0.044866294
0.41588983 0.10887265 0.044860385
0.4159193 0.10984258 0.044854473
0.41504937 0.11095959 0.044372682
0.41507891 0.11193111 0.044366762
0.41510844 0.11290263 0.044360843
0.41513795 0.11387414 0.044354923
0.41426826 0.11499912 0.04387309
0.41429785 0.11597222 0.043867163
0.41432741 0.11694535 0.043861233
0.41345787 0.11807669 0.043379325
0.41348749 0.1190514 0.043373387
0.41351712 0.1200261 0.043367445
0.41264781 0.12116382 0.042885527
0.4126775 0.12214011 0.042879578
0.41270715 0.12311641 0.042873628
0.41183805 0.1242605 0.042391684
0.41186777 0.12523837 0.042385723
0.41189748 0.12621628 0.042379767
0.41102856 0.12736672 0.04189777
0.41105834 0.1283462 0.041891802
0.41018951 0.12950145 0.04140975
0.40932083 0.13065986 0.040927716
0.40935069 0.13164254 0.040921729
0.40848216 0.13280572 0.040439654
0.40851209 0.13379 0.040433656
0.40764371 0.13495795 0.039951555
0.40833056 0.077572249 0.040490601
0.40836045 0.078554913 0.040484615
0.40929031 0.07944309 0.040955409
0.40932015 0.080424175 0.04094943
0.41024992 0.081307568 0.041420296
0.41027969 0.082287051 0.041414324
0.41120929 0.083165675 0.041885186
0.41213876 0.084041119 0.042356063
0.41216844 0.085017413 0.042350113
0.4130978 0.085888073 0.042821024
0.41402709 0.086755544 0.043291975
0.41495624 0.087619841 0.04376293
0.41498575 0.08859136 0.043757007
0.41591477 0.089450866 0.044227984
0.41684368 0.090307198 0.04469898
0.4168731 0.091275536 0.044693079
0.41690254 0.092243865 0.044687178
0.41783124 0.09309382 0.045158211
0.41786063 0.094060563 0.045152321
0.41789001 0.095027305 0.045146428
0.4179194 0.095994048 0.045140538
0.41794878 0.09696079 0.045134649
0.41797817 0.097927526 0.045128755
0.41800755 0.098894268 0.045122866
0.41803694 0.099861011 0.045116972
0.41806632 0.10082775 0.045111082
0.41719687 0.1019272 0.044628169
0.41722628 0.10289554 0.044622269
0.41725573 0.10386387 0.044616368
0.41728517 0.10483221 0.044610467
0.41641596 0.10593962 0.044127505
0.41644543 0.10690954 0.044121597
0.41647491 0.10787947 0.044115685
0.41560587 0.10899325 0.043632682
0.41563541 0.10996478 0.043626763
0.41566494 0.1109363 0.043620843
0.41479611 0.11205645 0.0431378
0.41482571 0.11302955 0.043131869
0.41485527 0.11400267 0.043125939
0.41398659 0.11512921 0.042642836
0.41401622 0.11610392 0.042636894
0.41404584 0.11707862 0.042630956
0.4131774 0.11821152 0.042147838
0.41320705 0.11918781 0.042141888
0.41323674 0.1201641 0.042135939
0.41236848 0.12130338 0.041652784
0.41239822 0.12228126 0.041646823
0.41242793 0.12325916 0.041640867
0.41155988 0.1244048 0.04115767
0.41158965 0.12538427 0.041151702
0.41161942 0.12636375 0.041145734
0.41075152 0.12751578 0.040662467
0.40988374 0.12867098 0.040179223
0.4099136 0.12965363 0.040173233
0.40994346 0.1306363 0.040167246
0.40907592 0.13179787 0.039683949
0.40910584 0.13278213 0.039677951
0.40823838 0.13394848 0.039194636
0.40826836 0.13493432 0.039188627
0.40740108 0.13610545 0.038705271
0.40985233 0.077457421 0.040208124
0.40988213 0.078438498 0.040202145
0.41081101 0.079325117 0.040674213
0.41084078 0.0803046 0.040668245
0.41176945 0.081186451 0.041140318
0.41179916 0.08216434 0.041134361
0.41272771 0.083041415 0.041606463
0.41365615 0.083915293 0.042078584
0.41368577 0.084890001 0.042072646
0.41461411 0.085759103 0.042544823
0.41554227 0.086625025 0.043016993
0.41557181 0.087596551 0.043011073
0.41649985 0.088457689 0.043483272
0.41652933 0.089427613 0.04347736
0.41745725 0.090283982 0.043949589
0.41748667 0.091252312 0.043943688
0.41751611 0.092220649 0.043937787
0.4184438 0.093070641 0.044410057
0.41847318 0.094037384 0.044404164
0.41850257 0.095004126 0.044398274
0.41853195 0.095970869 0.044392381
0.41856134 0.096937612 0.044386491
0.41859072 0.097904347 0.044380601
0.41772214 0.098998986 0.043896481
0.41775158 0.099967316 0.043890581
0.417781 0.10093565 0.043884683
0.41781044 0.10190398 0.043878783
0.41783985 0.10287233 0.043872882
0.41697156 0.10397652 0.043388706
0.41700104 0.10494643 0.043382794
0.41703051 0.10591637 0.043376882
0.4161624 0.10702693 0.042892668
0.41619194 0.10799845 0.042886749
0.41622147 0.10896996 0.042880829
0.41535354 0.1100869 0.042396575
0.41538313 0.11106001 0.042390645
0.41541269 0.11203312 0.042384714
0.41454494 0.11315643 0.041900396
0.41457456 0.11413114 0.041894458
0.41370699 0.11525922 0.041410137
0.41373664 0.11623551 0.041404188
0.41376632 0.11721181 0.041398238
0.41289893 0.11834626 0.040913876
0.41292867 0.11932415 0.040907919
0.41295838 0.12030204 0.040901959
0.4120912 0.12144286 0.040417559
0.41212097 0.12242234 0.040411592
0.41215074 0.12340183 0.040405624
0.41128367 0.12454903 0.039921161
0.4113135 0.12553009 0.039915182
0.41044664 0.12668207 0.039430715
0.41047651 0.12766474 0.039424725
0.40960982 0.12882149 0.038940232
0.40963972 0.12980574 0.038934235
0.40877315 0.13096727 0.038449708
0.40880314 0.13195314 0.038443699
0.40883309 0.13293898 0.038437694
0.40796673 0.13410689 0.037953135
0.40799674 0.13509431 0.037947118
0.40713045 0.13626701 0.037462492
0.41232961 0.079207227 0.040395465
0.41235933 0.080185123 0.040389508
0.41328695 0.081065409 0.040862817
0.41331664 0.082041711 0.040856868
0.41424412 0.082917221 0.041330215
0.41427374 0.083891928 0.041324273
0.4152011 0.084762663 0.041797675
0.41523069 0.085735768 0.041791745
0.41615787 0.086601727 0.042265147
0.41618741 0.087573253 0.042259227
0.41711444 0.088434435 0.04273266
0.41714391 0.089404359 0.042726751
0.41807079 0.090260766 0.043200213
0.41810024 0.091229104 0.043194313
0.41812965 0.092197433 0.043188412
0.41905636 0.093047462 0.043661911
0.41908574 0.094014205 0.043656021
0.41911513 0.094980955 0.043650128
0.41914451 0.09594769 0.043644238
0.41827682 0.097039104 0.043158907
0.41830626 0.098007433 0.043153007
0.41833568 0.09897577 0.043147106
0.41836512 0.0999441 0.043141205
0.41839457 0.10091244 0.043135304
0.41842398 0.10188077 0.043129403
0.41755664 0.10298333 0.042644005
0.41758612 0.10395326 0.042638093
0.41761559 0.10492318 0.042632185
0.41674846 0.10603212 0.042146746
0.416778 0.10700364 0.042140827
0.4168075 0.10797515 0.042134903
0.41594055 0.10909045 0.041649427
0.41597015 0.11006357 0.041643497
0.41510326 0.11118366 0.041157965
0.41513291 0.11215836 0.041152027
0.41426623 0.11328321 0.040666491
0.41429591 0.11425952 0.040660542
0.41342938 0.11538915 0.040174983
0.41345909 0.11636703 0.040169023
0.41348884 0.11734493 0.040163066
0.41262251 0.11848093 0.039677463
0.41265228 0.11946041 0.039671496
0.41178602 0.12060121 0.039185837
0.41181585 0.12158228 0.039179858
0.41094983 0.12272784 0.038694195
0.41097969 0.12371051 0.038688209
0.41100955 0.12469318 0.038682219
0.41103941 0.12567584 0.038676232
0.41017362 0.12682937 0.038190521
0.41020355 0.12781364 0.038184524
0.40933791 0.12897193 0.037698783
0.40936786 0.12995778 0.037692778
0.40939781 0.13094364 0.037686769
0.40942779 0.1319295 0.037680764
0.40856239 0.13309576 0.037194975
0.40769702 0.13426523 0.036709141
0.40772709 0.13525425 0.036703113
0.4068619 0.13642849 0.03621728
0.40599683 0.13760591 0.035731427
0.41384622 0.079089411 0.040119171
0.41387588 0.080065712 0.040113222
0.41480246 0.080944449 0.040587775
0.41483209 0.081919149 0.040581837
0.41575855 0.082793109 0.04105645
0.41578811 0.083766215 0.041050524
0.41581771 0.084739327 0.041044593
0.41584727 0.08571244 0.041038662
0.41677344 0.086578436 0.041513298
0.41680297 0.087549962 0.041507378
0.41772899 0.088411182 0.041982044
0.41775846 0.089381106 0.041976135
0.41778797 0.090351038 0.041970223
0.41871381 0.091205887 0.042444922
0.41874322 0.092174217 0.042439021
0.41877267 0.093142547 0.04243312
0.41880208 0.094110884 0.042427219
0.41883153 0.095079221 0.042421319
0.41886097 0.09604755 0.042415418
0.41889039 0.097015887 0.042409517
0.41891983 0.097984217 0.042403616
0.41894925 0.098952554 0.042397715
0.41897869 0.099920884 0.042391814
0.41811225 0.10102022 0.041905209
0.41814172 0.10199015 0.041899297
0.41817123 0.10296008 0.041893389
0.41730499 0.10406579 0.041406736
0.4173345 0.1050373 0.041400816
0.41736403 0.10600882 0.041394897
0.41649801 0.1071209 0.040908206
0.41652757 0.10809401 0.040902276
0.41655716 0.10906712 0.040896345
0.41569126 0.11018558 0.040409587
0.41572088 0.11116029 0.040403649
0.41485515 0.11228351 0.039916895
0.41488484 0.11325981 0.039910946
0.41401929 0.11438781 0.039424159
0.414049 0.11536571 0.039418202
0.4131836 0.11649849 0.038931385
0.41321334 0.11747797 0.038925413
0.41234803 0.11861554 0.038438544
0.41237786 0.11959661 0.038432565
0.41151273 0.12073895 0.037945688
0.41154259 0.12172162 0.037939701
0.41157246 0.12270428 0.037933711
0.41070753 0.123853 0.037446804
0.41073745 0.12483726 0.037440807
0.41076738 0.12582152 0.037434809
0.40990263 0.12697659 0.036947858
0.40993258 0.12796244 0.036941849
0.40906799 0.1291223 0.036454868
0.40909803 0.13010974 0.036448848
0.40912804 0.1310972 0.036442831
0.40826356 0.13226344 0.035955787
0.40829363 0.13325247 0.035949759
0.40742937 0.13442348 0.035462715
0.4074595 0.13541411 0.035456676
0.40659538 0.1365899 0.034969598
0.40573138 0.13776885 0.034482501
0.40486744 0.138951 0.033995386
0.41446483 0.079066001 0.03936363
0.41449448 0.080042303 0.039357681
0.41542006 0.080921084 0.039833467
0.41544968 0.081895784 0.039827526
0.41637513 0.082769774 0.040303376
0.41640469 0.083742887 0.040297445
0.41643429 0.084716 0.040291514
0.41646385 0.085689113 0.040285584
0.41738901 0.086555146 0.040761456
0.41741854 0.087526672 0.040755536
0.41744807 0.08849819 0.040749613
0.41837305 0.089357853 0.041225519
0.41840252 0.090327777 0.041219607
0.418432 0.091297701 0.041213699
0.41935679 0.092151001 0.041689645
0.41938621 0.093119331 0.041683745
0.41941565 0.094087668 0.041677844
0.41944507 0.095056005 0.041671943
0.41947451 0.096024334 0.041666042
0.41950396 0.096992671 0.041660141
0.41863838 0.098087192 0.041172322
0.41866785 0.099057116 0.041166414
0.41869736 0.10002705 0.041160502
0.41872683 0.10099697 0.041154593
0.41875631 0.10196689 0.041148681
0.41789103 0.10307097 0.040660813
0.41792056 0.10404249 0.04065489
0.41795009 0.10501401 0.040648971
0.41708499 0.10612446 0.040161058
0.41711459 0.10709757 0.040155128
0.41624957 0.1082128 0.039667159
0.41627923 0.10918751 0.039661217
0.41541442 0.11030751 0.039173253
0.41544411 0.11128381 0.039167304
0.41457945 0.11240859 0.038679302
0.41460916 0.11338647 0.038673341
0.41374466 0.11451603 0.038185317
0.41377443 0.11549552 0.038179349
0.41291001 0.11662986 0.037691262
0.41293985 0.11761095 0.037685283
0.41207564 0.11875005 0.037197195
0.4121055 0.11973272 0.037191205
0.41124144 0.12087661 0.036703095
0.41127133 0.12186087 0.036697097
0.41130126 0.12284513 0.036691096
0.41043741 0.1239954 0.036202941
0.41046736 0.12498125 0.036196932
0.41049731 0.1259671 0.036190927
0.40963364 0.12712374 0.035702735
0.40966365 0.12811117 0.035696719
0.40969366 0.12909862 0.035690702
0.40883014 0.13026164 0.03520244
0.40886018 0.13125068 0.035196412
0.40799686 0.13241847 0.03470815
0.40802696 0.1334091 0.034702111
0.40716377 0.13458166 0.034213826
0.40719393 0.13557388 0.03420778
0.40633088 0.13675122 0.033719458
0.4054679 0.13793173 0.033231121
0.404605 0.13911545 0.032742735
0.40463531 0.14011246 0.032736659
0.41508344 0.079042591 0.038608078
0.41511309 0.080018893 0.038602129
0.41514277 0.080995187 0.038596179
0.41606727 0.081872411 0.03907321
0.4160969 0.082847118 0.039067272
0.41612652 0.083821826 0.03906133
0.41705087 0.084692664 0.039538432
0.41708046 0.085665777 0.039532501
0.41711003 0.08663889 0.039526571
0.41803414 0.087503381 0.040003683
0.41806367 0.088474892 0.039997764
0.4180932 0.089446411 0.039991844
0.41901711 0.090304524 0.040468991
0.41904658 0.091274448 0.040463079
0.41907606 0.092244379 0.04045717
0.41910556 0.093214303 0.040451258
0.41913503 0.094184227 0.04044535
0.41916451 0.095154159 0.040439438
0.41919398 0.096124083 0.04043353
0.41922346 0.097094014 0.040427618
0.41925296 0.098063938 0.040421706
0.41928244 0.099033862 0.040415797
0.41931191 0.10000379 0.040409885
0.41844755 0.10110464 0.039920803
0.41847709 0.10207617 0.039914884
0.41850659 0.10304768 0.03990896
0.41764244 0.10415491 0.039419834
0.41767201 0.10512801 0.039413903
0.4177016 0.10610113 0.039407976
0.41683757 0.10721473 0.038918782
0.4168672 0.10818943 0.03891284
0.41600335 0.1093078 0.03842365
0.41603303 0.1102841 0.038417701
0.41516933 0.11140726 0.037928481
0.41519907 0.11238515 0.037922524
0.41433552 0.11351307 0.037433267
0.41436529 0.11449255 0.037427299
0.41350183 0.11562527 0.036937989
0.41263855 0.11676116 0.036448691
0.41266841 0.11774383 0.036442704
0.41180524 0.1188845 0.035953376
0.41183516 0.11986876 0.035947379
0.41186509 0.12085301 0.035941381
0.41100213 0.12200005 0.035452012
0.41103208 0.12298591 0.035446003
0.41016927 0.12413772 0.034956612
0.41019928 0.12512517 0.034950592
0.4102293 0.12611261 0.034944575
0.40936664 0.12727082 0.034455109
0.40939668 0.12825985 0.034449082
0.40942675 0.12924889 0.034443058
0.40856433 0.13041344 0.033953585
0.40859443 0.13140409 0.033947546
0.40862453 0.13239472 0.033941511
0.40776229 0.13356563 0.033451993
0.40779245 0.13455787 0.033445947
0.40693036 0.13573357 0.03295641
0.40606838 0.13691247 0.032466847
0.40609863 0.13790786 0.032460783
0.40523672 0.13909155 0.031971164
0.40437499 0.1402784 0.031481549
0.40351331 0.14146845 0.030991923
0.40265176 0.14266168 0.030502276
0.41483781 0.080091342 0.037362386
0.41576138 0.080971785 0.037840631
0.41579106 0.081948079 0.037834682
0.41671449 0.082823746 0.038312953
0.41674411 0.083798453 0.038307015
0.41677377 0.084773161 0.038301073
0.41680339 0.08574786 0.038295135
0.41772664 0.086615562 0.038773488
0.4177562 0.087588675 0.038767558
0.41867924 0.088451602 0.039245911
0.41870877 0.08942312 0.039239988
