# .PCD v0.7 - Point Cloud Data file format
VERSION 0.7
FIELDS x y z
SIZE 4 4 4
TYPE F F F
COUNT 1 1 1
WIDTH 1370
HEIGHT 1
VIEWPOINT 0 0 0 1 0 0 0
POINTS 1370
DATA ascii
0.53462023 0.047360815 0.036936764
0.53464544 0.04819059 0.036931705
0.53467071 0.049020365 0.03692665
0.53469592 0.049850136 0.036921594
0.53472114 0.050679907 0.036916535
0.53474635 0.051509682 0.03691148
0.53477156 0.052339457 0.036906425
0.53479677 0.053169228 0.036901366
0.53482199 0.053998999 0.036896311
0.53484726 0.054828774 0.036891256
0.53487247 0.055658549 0.036886197
0.53407466 0.056555975 0.036309592
0.53409994 0.057387341 0.036304526
0.53330225 0.05828955 0.035727892
0.53332758 0.059122507 0.035722818
0.53335291 0.059955467 0.035717741
0.53255534 0.06086405 0.035141036
0.53258073 0.061698601 0.035135951
0.5317834 0.06261196 0.03455925
0.53180885 0.063448101 0.034554154
0.53183424 0.064284243 0.034549057
0.53185964 0.065120384 0.034543965
0.53188509 0.065956533 0.034538869
0.53191048 0.066792674 0.034533773
0.52968365 0.0031914087 0.03370177
0.5297091 0.0040291445 0.033696663
0.52973455 0.0048668804 0.033691559
0.52976 0.0057046157 0.033686455
0.52978551 0.0065423534 0.033681348
0.52981097 0.0073800893 0.033676244
0.53066123 0.0082425773 0.034243356
0.53068668 0.0090787215 0.03423826
0.53153682 0.0099364351 0.034805402
0.53156215 0.010770985 0.034800317
0.53241223 0.01162392 0.035367522
0.53243756 0.01245688 0.035362449
0.53328741 0.013305035 0.035929646
0.53331268 0.014136402 0.03592458
0.5341624 0.01497978 0.036491811
0.53418761 0.015809553 0.036486756
0.53421283 0.016639326 0.036481697
0.53423804 0.017469099 0.036476642
0.53426325 0.018298872 0.036471587
0.53511268 0.019132694 0.037038874
0.53513783 0.019960875 0.037033826
0.53516304 0.020789055 0.037028782
0.5351882 0.021617236 0.037023734
0.53521335 0.022445416 0.037018687
0.53523856 0.023273597 0.037013639
0.53526372 0.024101775 0.037008595
0.53528887 0.024929956 0.037003547
0.53531408 0.025758136 0.036998499
0.53533924 0.026586317 0.036993455
0.53536439 0.027414497 0.036988407
0.53621328 0.028229207 0.03755581
0.53623837 0.029055795 0.037550773
0.53626353 0.029882383 0.037545733
0.53628862 0.030708971 0.037540697
0.53631377 0.031535558 0.03753566
0.53633887 0.032362144 0.037530623
0.53636402 0.033188734 0.037525587
0.53638911 0.03401532 0.03752055
0.53641427 0.03484191 0.037515514
0.53561616 0.035696298 0.036937941
0.53564131 0.036524478 0.036932893
0.53566647 0.037352659 0.036927845
0.53569168 0.038180839 0.036922801
0.53571683 0.03900902 0.036917754
0.53574198 0.0398372 0.036912706
0.5357672 0.040665381 0.036907658
0.53496945 0.041532513 0.036330007
0.53499466 0.042362284 0.036324948
0.53501987 0.043192059 0.036319893
0.53504515 0.04402183 0.036314838
0.53507036 0.044851605 0.036309779
0.53509557 0.045681376 0.036304723
0.53512079 0.046511151 0.036299668
0.535146 0.047340922 0.036294609
0.53517121 0.048170697 0.036289554
0.534374 0.049053755 0.035711803
0.53439927 0.04988512 0.035706736
0.53442454 0.050716486 0.03570167
0.53444982 0.051547851 0.035696607
0.53447509 0.052379217 0.035691541
0.53450036 0.053210583 0.035686474
0.53452563 0.054041948 0.035681408
0.53455091 0.054873314 0.035676342
0.53457618 0.055704679 0.035671275
0.53460145 0.056536045 0.035666209
0.53462666 0.057367411 0.035661142
0.53383005 0.058269579 0.035083279
0.53385538 0.059102539 0.035078201
0.53388065 0.059935495 0.035073128
0.53308415 0.060844041 0.034495186
0.53310955 0.061678592 0.034490101
0.53313488 0.062513143 0.034485016
0.53233862 0.063428052 0.033907071
0.53236407 0.064264193 0.033901975
0.53238946 0.065100342 0.033896878
0.53241485 0.065936483 0.033891782
0.5324403 0.066772625 0.03388669
0.53164428 0.067697093 0.033308689
0.53021443 0.0031713238 0.033053454
0.53106397 0.0040418152 0.033621751
0.53026539 0.0048467955 0.033043243
0.53111482 0.0057141013 0.033611558
0.53031629 0.0065222685 0.033033036
0.53116566 0.0073863892 0.03360137
0.53119105 0.0082225315 0.033596274
0.53121644 0.0090586748 0.033591177
0.53206563 0.0099164266 0.034159556
0.53209096 0.010750976 0.034154467
0.53211635 0.011585527 0.034149382
0.5329653 0.01243691 0.034717832
0.53299063 0.013269869 0.034712754
0.53383946 0.01411647 0.035281196
0.53386474 0.014947834 0.03527613
0.53389001 0.015779201 0.035271063
0.53391528 0.016610567 0.035265997
0.53476381 0.017449204 0.035834491
0.53478903 0.018278979 0.035829436
0.53481424 0.01910875 0.035824377
0.53483945 0.019938525 0.035819322
0.53486466 0.020768296 0.035814267
0.53488994 0.021598069 0.035809208
0.53491515 0.022427842 0.035804152
0.53494036 0.023257615 0.035799097
0.53496557 0.024087388 0.035794038
0.53581363 0.0249101 0.036362626
0.53583884 0.02573828 0.036357578
0.535864 0.026566461 0.036352534
0.53588915 0.027394641 0.036347486
0.53591436 0.028222822 0.036342438
0.53593951 0.029051002 0.036337394
0.53596467 0.029879183 0.036332346
0.53598988 0.030707363 0.036327299
0.53601503 0.031535544 0.036322251
0.53604019 0.032363724 0.036317207
0.5360654 0.033191904 0.036312159
0.53609055 0.034020085 0.036307111
0.53611571 0.034848265 0.036302067
0.53614092 0.035676446 0.03629702
0.53616607 0.036504623 0.036291972
0.53619123 0.037332803 0.036286924
0.53621644 0.038160983 0.03628188
0.53541958 0.039023299 0.035703026
0.5354448 0.039853074 0.035697967
0.53547001 0.040682845 0.035692912
0.53549522 0.04151262 0.035687856
0.53552043 0.042342391 0.035682797
0.53554565 0.043172166 0.035677742
0.53474915 0.044045627 0.035098817
0.53477442 0.044876996 0.035093751
0.5347997 0.045708358 0.035088684
0.53482497 0.046539724 0.035083618
0.53485024 0.047371089 0.035078552
0.53487551 0.048202459 0.035073485
0.53490078 0.049033824 0.035068419
0.53492606 0.04986519 0.035063352
0.53495133 0.050696552 0.035058286
0.5349766 0.051527917 0.03505322
0.53500187 0.052359283 0.035048153
0.53502715 0.053190649 0.035043091
0.53505236 0.054022014 0.035038024
0.53507763 0.05485338 0.035032958
0.5351029 0.055684749 0.035027891
0.53512818 0.056516111 0.035022825
0.53433251 0.057416651 0.034443736
0.53435785 0.058249608 0.034438662
0.53438312 0.059082568 0.034433585
0.53440845 0.059915528 0.034428511
0.53361297 0.060824033 0.033849336
0.5336383 0.061658584 0.033844251
0.53366369 0.062493134 0.033839166
0.53368908 0.063327685 0.033834081
0.53289384 0.064244151 0.033254892
0.53291929 0.065080293 0.033249799
0.53212422 0.066001534 0.032670584
0.53214967 0.06683927 0.03266548
0.53135473 0.067765296 0.032086231
0.53151757 0.0015133367 0.032989953
0.53071982 0.0023135014 0.032410242
0.53156835 0.0031856245 0.03297976
0.5315938 0.0040217685 0.032974664
0.53161919 0.0048579103 0.032969572
0.53164458 0.0056940545 0.032964475
0.53167003 0.0065301983 0.032959379
0.53169543 0.0073663425 0.032954283
0.53172088 0.0082024848 0.032949191
0.53174627 0.0090386281 0.032944094
0.53259438 0.0098964181 0.033513702
0.53261977 0.010730968 0.033508614
0.53264511 0.011565519 0.033503529
0.5334931 0.012416939 0.034073211
0.53351843 0.013249898 0.034068134
0.53354377 0.014082855 0.03406306
0.53356904 0.014915813 0.034057982
0.53441674 0.015759269 0.034627676
0.53444201 0.016590634 0.03462261
0.53446728 0.017421998 0.034617543
0.53449255 0.018253366 0.034612477
0.53451782 0.019084731 0.034607414
0.5345431 0.019916097 0.034602348
0.53456837 0.02074746 0.034597281
0.53459364 0.021578828 0.034592215
0.53461891 0.022410192 0.034587149
0.53546613 0.02323772 0.035156939
0.53549135 0.024067493 0.035151884
0.53551656 0.024897266 0.035146825
0.53554177 0.025727039 0.03514177
0.53556699 0.026556812 0.035136715
0.53559226 0.027386585 0.035131656
0.53561747 0.028216358 0.0351266
0.53564268 0.029046131 0.035121545
0.5356679 0.029875904 0.035116486
0.53569311 0.030705677 0.035111431
0.53571832 0.03153545 0.035106376
0.53574353 0.032365222 0.035101317
0.53576881 0.033194996 0.035096262
0.53579402 0.034024768 0.035091206
0.53581923 0.034854542 0.035086147
0.53584445 0.035684314 0.035081092
0.53586966 0.036514089 0.035076037
0.53589487 0.03734386 0.035070982
0.53592008 0.038173635 0.035065923
0.53594536 0.039003406 0.035060868
0.53597057 0.039833181 0.035055812
0.53517485 0.040700234 0.034475692
0.53520012 0.0415316 0.034470629
0.53522539 0.042362966 0.034465563
0.53525066 0.043194331 0.034460496
0.53527594 0.044025697 0.03445543
0.53530121 0.044857062 0.034450363
0.53532648 0.045688428 0.034445297
0.53535175 0.046519794 0.034440231
0.53455645 0.047401182 0.033860024
0.53458178 0.048234142 0.03385495
0.53460711 0.049067099 0.033849873
0.53463244 0.049900059 0.033844799
0.53465772 0.050733015 0.033839721
0.53468305 0.051565971 0.033834647
0.53470838 0.052398931 0.03382957
0.53473371 0.053231891 0.033824496
0.53475904 0.054064848 0.033819418
0.53478432 0.054897804 0.033814345
0.53480965 0.055730764 0.033809267
0.53483498 0.05656372 0.033804193
0.53486031 0.05739668 0.033799116
0.53488559 0.05822964 0.033794042
0.53491092 0.059062596 0.033788964
0.53411639 0.059969474 0.033208568
0.53414178 0.060804024 0.033203483
0.53416711 0.061638575 0.033198398
0.5341925 0.062473126 0.033193313
0.53421783 0.063307673 0.033188228
0.53424323 0.064142227 0.033183143
0.53344905 0.065060243 0.032602713
0.532655 0.065981455 0.032022268
0.53268045 0.066819191 0.03201716
0.53106719 0.067833416 0.030861311
0.53207272 0.002329434 0.032337774
0.53209817 0.003165578 0.032332681
0.53212357 0.0040017217 0.032327585
0.53214902 0.0048378641 0.032322489
0.53217441 0.0056740078 0.032317393
0.5321998 0.0065101516 0.0323123
0.53222525 0.0073462958 0.032307204
0.53225064 0.0081824381 0.032302108
0.53227609 0.0090185814 0.032297011
0.5331232 0.0098764095 0.032867849
0.53314859 0.010710959 0.032862764
0.53317392 0.01154551 0.032857679
0.53319931 0.012380062 0.032852594
0.53322464 0.013214614 0.032847509
0.53407151 0.014062884 0.033418439
0.53409684 0.014895843 0.033413365
0.53412217 0.015728801 0.033408288
0.5341475 0.01656176 0.033403214
0.53417283 0.017394718 0.033398136
0.53419811 0.018227676 0.033393063
0.53422344 0.019060634 0.033387985
0.53424877 0.019893592 0.033382911
0.53509516 0.020727528 0.033953898
0.53512043 0.021558896 0.033948831
0.5351457 0.022390259 0.033943765
0.53517097 0.023221627 0.033938698
0.53519624 0.024052992 0.033933632
0.53522152 0.024884356 0.033928566
0.53524679 0.025715722 0.033923499
0.53527206 0.026547087 0.033918433
0.53529733 0.027378453 0.033913366
0.53532261 0.028209819 0.0339083
0.53534782 0.029041184 0.033903234
0.53619367 0.029856011 0.034474336
0.53621888 0.030685782 0.03446928
0.53624409 0.031515557 0.034464225
0.53626931 0.032345328 0.034459166
0.53629452 0.033175103 0.034454111
0.53631979 0.034004875 0.034449056
0.53634501 0.034834649 0.034443997
0.53637022 0.035664421 0.034438942
0.53639543 0.036494192 0.034433886
0.53560054 0.037354838 0.033852573
0.53562582 0.038186207 0.033847507
0.53565109 0.039017573 0.033842441
0.53567636 0.039848939 0.033837374
0.53570163 0.0406803 0.033832308
0.5357269 0.04151167 0.033827242
0.53493237 0.042383462 0.033245862
0.53495765 0.043216422 0.033240788
0.53498298 0.044049378 0.03323571
0.53500831 0.044882338 0.033230636
0.53503364 0.045715295 0.033225559
0.53505892 0.046548255 0.033220485
0.53508425 0.047381211 0.033215407
0.53510958 0.048214171 0.033210333
0.53513491 0.049047127 0.033205256
0.53516018 0.049880087 0.033200182
0.53518552 0.050713044 0.033195104
0.53521085 0.051546004 0.033190031
0.53523618 0.05237896 0.033184953
0.53526145 0.05321192 0.033179879
0.53528678 0.054044876 0.033174802
0.53531212 0.054877836 0.033169724
0.53533745 0.055710796 0.03316465
0.53536278 0.056543753 0.033159573
0.53456908 0.057445809 0.032577977
0.53459442 0.058280364 0.032572888
0.53461981 0.059114914 0.032567803
0.5346452 0.059949465 0.032562718
0.53467053 0.060784016 0.032557633
0.53469592 0.061618567 0.032552548
0.53472126 0.062453117 0.032547463
0.53392804 0.063367911 0.031965822
0.53395343 0.06420406 0.031960726
0.53397888 0.065040201 0.031955633
0.53318584 0.065961368 0.031373952
0.53239286 0.066885717 0.030792251
0.5316 0.067813255 0.030210532
0.53178144 0.0022733316 0.031113612
0.53180689 0.0031110693 0.031108508
0.53265339 0.003981675 0.031680498
0.53267878 0.0048178174 0.031675406
0.53270423 0.0056539611 0.03167031
0.53272963 0.0064901048 0.031665213
0.53275502 0.007326249 0.031660117
0.53278047 0.0081623914 0.031655025
0.53280586 0.0089985346 0.031649929
0.53365201 0.009856401 0.032222003
0.53367734 0.010690952 0.032216918
0.53370273 0.011525501 0.032211829
0.53372806 0.012360054 0.032206744
0.53375345 0.013194606 0.032201659
0.53377879 0.014029156 0.032196574
0.53380418 0.014863706 0.032191489
0.53382957 0.015698258 0.032186404
0.5338549 0.016532809 0.032181319
0.53388029 0.017367359 0.032176234
0.5347259 0.018207705 0.032748446
0.53475124 0.019040663 0.032743368
0.53477657 0.019873623 0.032738294
0.53480184 0.020706579 0.032733217
0.53482717 0.021539539 0.032728139
0.5348525 0.022372495 0.032723065
0.53487784 0.023205455 0.032717988
0.53490311 0.024038414 0.032712914
0.53492844 0.02487137 0.032707836
0.53495377 0.02570433 0.032702763
0.5349791 0.026537286 0.032697685
0.53582406 0.027358521 0.033269983
0.53584933 0.028189886 0.033264916
0.53587461 0.029021252 0.03325985
0.53589988 0.029852618 0.033254784
0.53592515 0.030683983 0.033249717
0.53595042 0.031515349 0.033244651
0.53597569 0.032346714 0.033239584
0.53600097 0.03317808 0.033234518
0.53602624 0.034009445 0.033229455
0.53605151 0.034840811 0.033224389
0.53607678 0.035672177 0.033219323
0.53610206 0.036503542 0.033214256
0.53612733 0.037334908 0.03320919
0.5361526 0.038166273 0.033204123
0.53617787 0.038997639 0.033199057
0.53538418 0.039864618 0.032616474
0.53540951 0.040697575 0.032611396
0.53543484 0.041530535 0.032606322
0.53546011 0.042363495 0.032601245
0.53548545 0.043196451 0.032596171
0.53551078 0.044029407 0.032591093
0.53553611 0.044862367 0.032586019
0.53474271 0.045742091 0.032003324
0.5347681 0.046576641 0.031998239
0.5347935 0.047411192 0.031993154
0.53481883 0.048245743 0.031988069
0.53484422 0.049080294 0.031982981
0.53486955 0.049914844 0.031977896
0.53489494 0.050749395 0.031972811
0.53492033 0.051583946 0.031967726
0.53494567 0.052418496 0.031962641
0.53497106 0.053253047 0.031957556
0.53499639 0.054087598 0.031952471
0.53502178 0.054922149 0.031947382
0.53504711 0.055756699 0.031942297
0.53507251 0.05659125 0.031937212
0.5350979 0.057425801 0.031932127
0.53512323 0.058260355 0.031927042
0.53514862 0.059094906 0.031921957
0.53517395 0.059929457 0.031916872
0.53519934 0.060764007 0.031911787
0.53440702 0.061675578 0.031328928
0.53443241 0.062511727 0.031323835
0.53445786 0.063347869 0.031318739
0.53448325 0.06418401 0.031313643
0.53369117 0.065103546 0.030730741
0.5328992 0.066026263 0.030147819
0.53210729 0.066952176 0.029564878
0.53131545 0.067881271 0.028981879
0.53052378 0.068813547 0.028398901
0.53064644 0.0013401398 0.029313795
0.53149211 0.0022171529 0.029886983
0.53233773 0.0030909844 0.030460192
0.53236318 0.00392872 0.030455088
0.53238863 0.0047664559 0.030449983
0.533234 0.0056339144 0.031023229
0.53325945 0.0064700586 0.031018132
0.53328484 0.0073062023 0.031013038
0.53331023 0.0081423447 0.031007942
0.53333569 0.0089784879 0.031002847
0.53336108 0.009814634 0.030997751
0.53338653 0.010650776 0.030992657
0.53341192 0.011486921 0.030987561
0.53343731 0.012323064 0.030982466
0.53428227 0.013174597 0.031555809
0.5343076 0.014009148 0.031550724
0.53433299 0.014843698 0.031545639
0.53435832 0.015678249 0.031540554
0.53438371 0.0165128 0.031535465
0.53440905 0.017347351 0.03153038
0.53443444 0.018181901 0.031525295
0.53445983 0.019016452 0.03152021
0.53448516 0.019851005 0.031515125
0.53451055 0.020685554 0.03151004
0.53453588 0.021520106 0.031504955
0.53456128 0.022354655 0.031499866
0.53458667 0.023189208 0.031494781
0.534612 0.024023756 0.031489696
0.53463739 0.024858309 0.031484611
0.53548157 0.025684359 0.032058146
0.53550684 0.026517317 0.032053072
0.53553218 0.027350275 0.032047994
0.53555751 0.028183233 0.032042921
0.53558284 0.029016191 0.032037843
0.53560811 0.029849149 0.032032769
0.53563344 0.030682107 0.032027692
0.53565878 0.031515066 0.032022618
0.53568411 0.032348026 0.03201754
0.53570944 0.033180982 0.032012466
0.53573471 0.034013942 0.032007389
0.53576005 0.034846898 0.032002315
0.53578538 0.035679858 0.031997237
0.53581071 0.036512814 0.03199216
0.53583598 0.037345774 0.031987086
0.53586131 0.038178731 0.031982008
0.53588665 0.039011691 0.031976935
0.53591198 0.039844647 0.031971857
0.53593725 0.040677607 0.031966783
0.53596258 0.041510563 0.031961706
0.53517008 0.042383879 0.031377815
0.53519541 0.04321843 0.03137273
0.5352208 0.044052981 0.031367645
0.53524619 0.044887532 0.03136256
0.53527153 0.045722082 0.031357475
0.53529692 0.046556633 0.03135239
0.53532225 0.047391184 0.031347301
0.53534764 0.048225734 0.031342216
0.53537297 0.049060285 0.031337131
0.53539836 0.049894836 0.031332046
0.53542376 0.050729387 0.031326961
0.53544909 0.051563937 0.031321876
0.53547448 0.052398488 0.031316791
0.53549981 0.053233039 0.031311702
0.5355252 0.054067589 0.031306617
0.53555059 0.05490214 0.031301532
0.53557593 0.055736691 0.031296447
0.53560132 0.056571241 0.031291362
0.53562665 0.057405792 0.031286277
0.53483516 0.058310956 0.030702228
0.53486055 0.059147105 0.030697133
0.534886 0.059983246 0.030692037
0.53491139 0.060819391 0.030686943
0.53493679 0.061655533 0.030681849
0.53496224 0.062491678 0.030676752
0.53498763 0.063327819 0.030671658
0.5341965 0.064245723 0.030087532
0.53422201 0.065083459 0.030082427
0.53343099 0.066006146 0.02949827
0.5326401 0.066932015 0.028914096
0.53103292 0.067949206 0.027750799
0.53024232 0.068883032 0.027166575
0.52863544 0.069911376 0.02600321
0.52702886 0.070946082 0.024839839
0.52460629 0.072081663 0.023097286
0.52218401 0.073226795 0.021354713
0.52057803 0.074283808 0.02019117
0.51978832 0.075247899 0.019606763
0.51981467 0.076114304 0.019601485
0.51984096 0.076980703 0.019596206
0.53036004 0.0012822523 0.028083447
0.53120482 0.0021608998 0.028657893
0.53204942 0.0030363612 0.029232323
0.53289396 0.0039086351 0.029806772
0.53291941 0.0047463709 0.029801669
0.53294492 0.0055841068 0.029796563
0.53297037 0.0064218445 0.029791458
0.53299582 0.0072595798 0.029786352
0.53384006 0.0081222979 0.030360861
0.53386545 0.0089584421 0.030355766
0.5338909 0.0097945873 0.03035067
0.53391629 0.01063073 0.030345576
0.53394175 0.011466874 0.03034048
0.53396714 0.012303017 0.030335385
0.53399253 0.013139161 0.030330289
0.53401798 0.013975304 0.030325195
0.53404337 0.014811447 0.030320099
0.53406882 0.015647592 0.030315004
0.53409421 0.016483735 0.030309908
0.53411961 0.017319879 0.030304814
0.53414506 0.018156022 0.030299718
0.53417045 0.018992165 0.030294623
0.53419584 0.019828308 0.030289527
0.53422129 0.020664452 0.030284433
0.53424668 0.021500597 0.030279336
0.53427213 0.022336738 0.030274242
0.53429753 0.023172883 0.030269146
0.53514081 0.02400375 0.030843848
0.53516614 0.0248383 0.030838763
0.53519154 0.025672851 0.030833678
0.53521687 0.026507402 0.030828593
0.53524226 0.027341953 0.030823506
0.53526765 0.028176503 0.030818421
0.53529298 0.029011056 0.030813336
0.53531837 0.029845607 0.030808249
0.53534371 0.030680157 0.030803164
0.5353691 0.031514708 0.030798079
0.53539449 0.032349259 0.030792994
0.53541982 0.033183809 0.030787908
0.53626251 0.033993971 0.031362772
0.53628784 0.034826927 0.031357694
0.53631318 0.035659887 0.031352621
0.53633845 0.036492843 0.031347543
0.53554666 0.037356563 0.030762481
0.53557205 0.038191114 0.030757396
0.53559738 0.039025668 0.030752309
0.53562278 0.039860219 0.030747224
0.53564811 0.040694766 0.030742139
0.5356735 0.04152932 0.030737054
0.53569883 0.042363871 0.030731967
0.53572422 0.043198422 0.030726882
0.53574961 0.044032972 0.030721797
0.53577495 0.044867523 0.030716712
0.53498375 0.045748759 0.030131577
0.53500915 0.046584904 0.03012648
0.53503454 0.047421046 0.030121386
0.53505999 0.048257191 0.03011629
0.53508538 0.049093332 0.030111196
0.53511083 0.049929477 0.030106099
0.53513622 0.050765619 0.030101005
0.53516161 0.051601764 0.030095909
0.53518707 0.052437909 0.030090814
0.53521246 0.05327405 0.030085718
0.53523791 0.054110192 0.030080624
0.5352633 0.054946337 0.030075528
0.53528869 0.055782482 0.030070433
0.53531414 0.056618623 0.030065337
0.53533953 0.057454769 0.030060243
0.53536493 0.05829091 0.030055147
0.53539038 0.059127055 0.030050052
0.53541577 0.0599632 0.030044956
0.53544122 0.060799342 0.030039862
0.53465092 0.061712429 0.029454533
0.53467637 0.062550165 0.029449428
0.53470188 0.063387901 0.029444322
0.53472733 0.064225644 0.029439216
0.53475279 0.06506338 0.029434113
0.53314739 0.066070929 0.028268442
0.53235751 0.066998355 0.027682992
0.53075248 0.068017058 0.026517253
0.5299629 0.068952449 0.025931787
0.5283581 0.069982298 0.024765946
0.52675354 0.071018524 0.023600101
0.52514917 0.072061121 0.022434182
0.52354503 0.073110081 0.021268262
0.52112597 0.074263074 0.019521905
0.52033728 0.075227126 0.018936265
0.52036363 0.076093532 0.018930985
0.52038997 0.07695993 0.018925706
0.51960146 0.077930354 0.018340027
0.4628197 0.12063459 -0.023084091
0.46284953 0.12161568 -0.02309007
0.46206632 0.12276129 -0.023676816
0.46209621 0.12374396 -0.023682803
0.46293899 0.1245589 -0.023108006
0.46378171 0.12537064 -0.02253315
0.52923191 0.00034082844 0.026275052
0.53007573 0.0012242889 0.026850667
0.53091949 0.0021045657 0.027426301
0.5317632 0.0029816597 0.028001986
0.53260678 0.0038555656 0.028577661
0.53345025 0.004726286 0.029153353
0.5334757 0.0055640219 0.029148249
0.53350115 0.0064017596 0.029143143
0.53352666 0.0072394954 0.029138038
0.53355211 0.0080772312 0.029132934
0.53357756 0.0089149671 0.029127829
0.53360301 0.0097527038 0.029122723
0.53362846 0.01059044 0.029117618
0.53365397 0.011428175 0.029112514
0.53367943 0.012265913 0.029107409
0.53370488 0.013103649 0.029102303
0.53373033 0.013941385 0.029097199
0.53375578 0.014779121 0.029092094
0.53378129 0.015616858 0.029086988
0.53380674 0.016454594 0.029081885
0.53383219 0.01729233 0.029076779
0.53385764 0.018130066 0.029071674
0.53388309 0.018967802 0.02906657
0.53390861 0.019805539 0.029061465
0.53475106 0.020644406 0.029637352
0.53477651 0.021480549 0.029632255
0.5348019 0.022316692 0.029627161
0.53482735 0.023152836 0.029622065
0.53485274 0.023988979 0.029616971
0.53487813 0.024825124 0.029611874
0.53490359 0.025661267 0.02960678
0.53492898 0.026497411 0.029601684
0.53495443 0.027333554 0.02959659
0.53497982 0.028169697 0.029591493
0.53500521 0.02900584 0.029586399
0.53503066 0.029841984 0.029581303
0.53505605 0.030678129 0.029576208
0.53508151 0.031514272 0.029571114
0.53592324 0.03232925 0.030147143
0.53594863 0.033163801 0.030142058
0.53597397 0.033998352 0.030136973
0.53599936 0.034832902 0.030131886
0.53602475 0.035667453 0.030126801
0.53605008 0.036502004 0.030121716
0.53607547 0.037336554 0.030116629
0.5361008 0.038171105 0.030111544
0.5361262 0.03900566 0.030106459
0.53615153 0.03984021 0.030101374
0.53536105 0.04071185 0.029515065
0.53538644 0.041547995 0.029509971
0.53541189 0.042384136 0.029504875
0.53543729 0.043220282 0.02949978
0.53546268 0.044056427 0.029494684
0.53548813 0.044892568 0.02948959
0.53551352 0.045728713 0.029484494
0.53553897 0.046564855 0.029479399
0.53556436 0.047401 0.029474303
0.53558975 0.048237141 0.029469209
0.53561521 0.049073286 0.029464113
0.5356406 0.049909431 0.029459018
0.53566605 0.050745573 0.029453922
0.53569144 0.051581718 0.029448828
0.53571683 0.052417859 0.029443733
0.53574228 0.053254005 0.029438637
0.53576767 0.054090146 0.029433543
0.53579313 0.054926291 0.029428447
0.53581852 0.055762436 0.029423352
0.53502899 0.056665927 0.028836846
0.53505445 0.057503663 0.028831743
0.5350799 0.058341399 0.028826637
0.53510535 0.059179138 0.028821532
0.5351308 0.060016874 0.028816428
0.53515631 0.06085461 0.028811323
0.53518176 0.061692346 0.028806217
0.53520721 0.062530085 0.028801113
0.53441811 0.063447915 0.028214522
0.53444362 0.064287238 0.028209407
0.53446913 0.065126568 0.028204292
0.5336802 0.066050768 0.027617661
0.53207695 0.067064621 0.026449453
0.53128833 0.067996785 0.025862774
0.52968544 0.069021784 0.024694499
0.52808273 0.070053153 0.023526216
0.52729446 0.070998058 0.02293946
0.52569211 0.07204058 0.021771077
0.52408999 0.073089465 0.020602688
0.52167398 0.074242339 0.018852634
0.52088624 0.075206354 0.018265761
0.52091259 0.07607276 0.018260483
0.52093893 0.076939158 0.018255202
0.52015144 0.077909544 0.017668294
0.51855016 0.078988701 0.016499685
0.46338171 0.11864893 -0.023831379
0.46341151 0.11963 -0.023837356
0.46262923 0.12077239 -0.024425317
0.46265912 0.12175506 -0.024431305
0.46268898 0.12273773 -0.024437293
0.46271884 0.1237204 -0.024443282
0.46274871 0.12470307 -0.024449268
0.46359044 0.12551644 -0.023873227
0.46524394 0.12615578 -0.02271509
0.52228224 -0.0043341592 0.020408791
0.52312577 -0.0034283604 0.020985505
0.52478659 -0.0024815737 0.022144232
0.52644712 -0.0015411602 0.023302963
0.52810752 -0.00060712139 0.024461731
0.52895057 0.0002811607 0.025038583
0.53061056 0.0012040513 0.02619742
0.53145331 0.0020843663 0.026774287
0.53229606 0.0029614985 0.027351208
0.53313857 0.0038354425 0.027928112
0.53316408 0.0046747718 0.027922997
0.53318959 0.0055140993 0.027917882
0.53321511 0.0063534291 0.027912768
0.53405744 0.0072194105 0.028489724
0.53408289 0.0080571463 0.028484618
0.5341084 0.0088948822 0.028479515
0.53413385 0.0097326189 0.028474409
0.5341593 0.010570355 0.028469304
0.53418475 0.011408091 0.028464198
0.53421021 0.012245828 0.028459094
0.53423572 0.013083564 0.028453989
0.53426117 0.0139213 0.028448883
0.53428662 0.014759036 0.02844378
0.53431207 0.015596773 0.028438674
0.53433752 0.016434509 0.028433569
0.53436303 0.017272245 0.028428465
0.53438848 0.018109981 0.02842336
0.53441393 0.018947717 0.028418254
0.53443938 0.019785454 0.02841315
0.53446484 0.020623188 0.028408045
0.53449035 0.021460926 0.028402939
0.5345158 0.02229866 0.028397834
0.53454125 0.023136398 0.02839273
0.5345667 0.023974134 0.028387625
0.53459215 0.024811869 0.028382519
0.53461766 0.025649605 0.028377416
0.53464311 0.026487343 0.02837231
0.53466856 0.027325079 0.028367205
0.53469402 0.028162815 0.028362101
0.53471947 0.029000551 0.028356995
0.53556043 0.029821938 0.02893422
0.53558588 0.030658081 0.028929124
0.53561127 0.031494226 0.028924029
0.53563672 0.032330368 0.028918933
0.53566211 0.033166513 0.028913839
0.53568751 0.034002654 0.028908743
0.53571296 0.034838799 0.028903648
0.53573835 0.035674945 0.028898552
0.5357638 0.036511086 0.028893458
0.53578919 0.037347231 0.028888362
0.53581458 0.038183372 0.028883267
0.53584003 0.039019518 0.028878171
0.53586543 0.039855659 0.028873077
0.53589082 0.040691804 0.028867982
0.53591627 0.041527949 0.028862886
0.53594166 0.042364091 0.028857792
0.53596711 0.043200236 0.028852696
0.5359925 0.044036377 0.028847601
0.53601789 0.044872522 0.028842505
0.53604335 0.045708664 0.028837411
0.53606874 0.046544809 0.028832315
0.53609419 0.047380954 0.02882722
0.53611958 0.048217095 0.028822124
0.53614497 0.049053241 0.02881703
0.53617042 0.049889386 0.028811933
0.53538156 0.05078169 0.028224267
0.53540701 0.051619425 0.028219162
0.53543246 0.052457165 0.028214058
0.53545791 0.053294901 0.028208952
0.53548342 0.054132637 0.028203847
0.53550887 0.054970372 0.028198743
0.53553432 0.055808108 0.028193638
0.53555977 0.056645844 0.028188532
0.53558522 0.05748358 0.028183427
0.53561074 0.058321316 0.028178323
0.53563619 0.059159052 0.028173218
0.53484786 0.060070474 0.027585432
0.53487337 0.0609098 0.027580317
0.53489888 0.06174913 0.027575202
0.53492439 0.062588461 0.027570087
0.53494996 0.063427791 0.027564973
0.53416193 0.064348765 0.026977131
0.5341875 0.065189689 0.026972007
0.53339958 0.066115446 0.026384098
0.53261185 0.067044385 0.025796209
0.53101087 0.068064526 0.02462553
0.53022331 0.069001429 0.024037557
0.52862263 0.070032723 0.02286681
0.52702218 0.071070388 0.021696026
0.52623504 0.072020039 0.021107972
0.5246349 0.073068842 0.019937119
0.52303493 0.074124031 0.018766193
0.52224821 0.075086415 0.018178098
0.52146155 0.076051988 0.017589983
0.52148789 0.076918386 0.017584702
0.51988858 0.077992678 0.016413694
0.51828939 0.079073347 0.015242612
0.4647848 0.11748782 -0.024001423
0.46400332 0.11862541 -0.024590619
0.46403316 0.11960648 -0.024596598
0.46406296 0.12058755 -0.024602575
0.46409279 0.12156864 -0.024608554
0.46331161 0.12271417 -0.025197767
0.4633415 0.12369684 -0.025203755
0.46418226 0.12451186 -0.02462649
0.46502298 0.12532368 -0.024049172
0.46586356 0.12613232 -0.023471871
0.52280104 -0.0052148108 0.019748462
0.52282715 -0.0043547787 0.019743223
0.52366966 -0.0034489417 0.020321164
0.52532846 -0.0025020784 0.021482358
0.52617073 -0.0016042063 0.02206035
0.52782917 -0.00066849741 0.023221575
0.52948743 0.00026084678 0.024382874
0.53032929 0.0011459773 0.024960944
0.53117108 0.0020279204 0.025539033
0.53201276 0.0029066817 0.02611714
0.53285444 0.0037822584 0.026695304
0.53369594 0.0046546492 0.027273452
0.53372145 0.0054939766 0.027268337
0.53374696 0.006333306 0.027263224
0.53377247 0.0071726353 0.027258109
0.53379798 0.0080119632 0.027252994
0.53382349 0.0088512925 0.02724788
0.533849 0.0096906219 0.027242765
0.53387451 0.010529951 0.02723765
0.53390002 0.011369279 0.027232535
0.53392553 0.01220861 0.02722742
0.53395104 0.013047937 0.027222306
0.53397655 0.013887265 0.027217191
0.53400207 0.014726594 0.027212078
0.53402758 0.015565923 0.027206963
0.53405309 0.016405253 0.027201848
0.5340786 0.017244581 0.027196733
0.53410411 0.01808391 0.027191618
0.53412962 0.018923238 0.027186504
0.53415513 0.019762568 0.027181389
0.53418064 0.020601897 0.027176274
0.53420615 0.021441225 0.027171159
0.53423166 0.022280553 0.027166044
0.53425717 0.023119884 0.027160931
0.53428268 0.02395921 0.027155817
0.5343082 0.02479854 0.027150702
0.53433371 0.025637869 0.027145587
0.53435922 0.026477197 0.027140472
0.5351994 0.027304994 0.02771889
0.53522485 0.02814273 0.027713785
0.53525031 0.028980466 0.027708681
0.53527576 0.029818201 0.027703576
0.53530121 0.030655939 0.02769847
0.53532672 0.031493675 0.027693367
0.53535217 0.032331411 0.027688261
0.53537762 0.033169147 0.027683156
0.53540307 0.034006882 0.027678052
0.53542852 0.034844618 0.027672946
0.53545403 0.035682354 0.027667841
0.53547949 0.03652009 0.027662735
0.53631902 0.037327182 0.02824128
0.53634441 0.038163327 0.028236186
0.5363698 0.038999472 0.02823109
0.53639525 0.039835613 0.028225996
0.5356068 0.040708773 0.027637212
0.53563225 0.041546509 0.027632106
0.5356577 0.042384245 0.027627002
0.53568316 0.04322198 0.027621897
0.53570867 0.044059716 0.027616791
0.53573412 0.044897452 0.027611688
0.53575957 0.045735188 0.027606582
0.53578502 0.046572927 0.027601477
0.53581047 0.047410663 0.027596371
0.53583598 0.048248399 0.027591268
0.53586143 0.049086135 0.027586162
0.53588688 0.049923871 0.027581057
0.53591233 0.050761607 0.027575953
0.53593779 0.051599342 0.027570847
0.5359633 0.052437082 0.027565742
0.53598875 0.053274814 0.027560638
0.5360142 0.05411255 0.027555533
0.53522664 0.055014376 0.026966574
0.53525215 0.05585371 0.026961459
0.53527766 0.056693036 0.026956344
0.53530318 0.057532363 0.026951231
0.53532869 0.058371693 0.026946116
0.5353542 0.059211023 0.026941001
0.53537971 0.06005035 0.026935887
0.53540522 0.06088968 0.026930772
0.53461808 0.061805837 0.026341723
0.53464365 0.062646762 0.026336599
0.53466922 0.063487686 0.026331475
0.53469473 0.064328603 0.026326351
0.53390783 0.065252729 0.02573722
0.5339334 0.066095248 0.025732087
0.53233433 0.067110531 0.024558974
0.53154773 0.068044208 0.023969822
0.52994889 0.069070652 0.022796603
0.52916253 0.070012294 0.022207402
0.52756411 0.071049884 0.021034153
0.52596581 0.072093844 0.019860828
0.52517986 0.073048227 0.019271549
0.52358192 0.074103333 0.018098159
0.52360815 0.07496655 0.018092899
0.52282244 0.075930491 0.01750356
0.52203691 0.076897614 0.016914202
0.52043957 0.077971831 0.01574073
0.5188424 0.079052426 0.014567182
0.46624538 0.11828576 -0.024180977
0.46546498 0.1194233 -0.02477137
0.46549475 0.12040278 -0.02477734
0.46552452 0.12138227 -0.024783308
0.4655543 0.12236176 -0.024789277
0.46558404 0.12334123 -0.024795245
0.46561381 0.12432072 -0.024801213
0.46645343 0.125131 -0.024222689
0.46729296 0.12593809 -0.023644144
0.46894217 0.1265696 -0.022481028
0.52331984 -0.0060954625 0.01908813
0.52334595 -0.0052354303 0.019082891
0.52337211 -0.0043753982 0.019077649
0.52421361 -0.003469523 0.019656826
0.52587038 -0.0025225836 0.020820484
0.52671164 -0.001624673 0.021399705
0.52755284 -0.00072994985 0.02197895
0.52920908 0.00020105811 0.023142669
0.53086519 0.0011257014 0.024306463
0.53089088 0.0019713999 0.024301309
0.53254664 0.0028864823 0.025465125
0.53257221 0.0037289972 0.025459992
0.53341281 0.0046030185 0.026039397
0.53343838 0.0054439395 0.026034273
0.53346395 0.0062848628 0.026029149
0.53430426 0.0071525122 0.026608558
0.53432977 0.0079918401 0.026603444
0.53435528 0.0088311695 0.026598329
0.53438079 0.0096704988 0.026593214
0.5344063 0.010509828 0.026588099
0.53443187 0.011349156 0.026582984
0.53445739 0.012188487 0.026577869
0.5344829 0.013027814 0.026572755
0.53450841 0.013867142 0.02656764
0.53453392 0.014706471 0.026562527
0.53455943 0.0155458 0.026557412
0.53458494 0.016385131 0.026552297
0.53461045 0.017224457 0.026547182
0.53463596 0.018063787 0.026542068
0.53384733 0.018898685 0.025952283
0.5338729 0.019739605 0.025947159
0.53389847 0.020580526 0.025942035
0.53392404 0.021421449 0.025936911
0.53394961 0.02226237 0.025931787
0.53397512 0.023103291 0.025926661
0.53400069 0.023944212 0.025921537
0.53484005 0.024778416 0.026501151
0.53486556 0.025617745 0.026496036
0.53489107 0.026457075 0.026490921
0.53491658 0.027296403 0.026485806
0.53494209 0.028135732 0.026480692
0.5349676 0.028975062 0.026475577
0.53499311 0.02981439 0.026470462
0.53501862 0.030653719 0.026465347
0.53504413 0.031493049 0.026460234
0.53506964 0.032332376 0.026455119
0.53590846 0.033149064 0.027034838
0.53593391 0.033986799 0.027029734
0.53595936 0.034824535 0.027024629
0.53598481 0.035662271 0.027019523
0.53601027 0.036500007 0.027014419
0.53603578 0.037337743 0.027009314
0.53606123 0.038175479 0.027004208
0.53608668 0.039013214 0.026999105
0.53611213 0.03985095 0.026993999
0.53613758 0.040688686 0.026988894
0.53616309 0.041526426 0.026983788
0.53618854 0.042364158 0.026978685
0.53621399 0.043201897 0.026973579
0.53623945 0.044039633 0.026968474
0.5362649 0.044877369 0.02696337
0.53629041 0.045715105 0.026958264
0.53631586 0.046552841 0.026953159
0.53634131 0.047390576 0.026948055
0.53636676 0.048228312 0.02694295
0.53639221 0.049066052 0.026937844
0.53641772 0.049903788 0.026932741
0.53644317 0.05074152 0.026927635
0.53565639 0.051636938 0.026337482
0.5356819 0.052476268 0.026332367
0.53570741 0.053315595 0.026327252
0.53573292 0.054154925 0.026322138
0.53575844 0.054994252 0.026317023
0.53578395 0.055833586 0.026311908
0.53580946 0.056672912 0.026306795
0.53583497 0.057512239 0.02630168
0.53504866 0.058421992 0.02571144
0.53507423 0.059262913 0.025706315
0.5350998 0.060103834 0.025701191
0.53512537 0.060944755 0.025696065
0.53515089 0.061785676 0.025690941
0.53517646 0.0626266 0.025685817
0.53439045 0.063547507 0.025095474
0.53441602 0.064390019 0.025090341
0.53444165 0.06523253 0.025085207
0.53365588 0.0661598 0.024494858
0.53287017 0.067090258 0.023904493
0.53208458 0.068023898 0.023314107
0.53048778 0.06905026 0.022138424
0.52970243 0.069991864 0.02154799
0.52810603 0.07102938 0.020372277
0.52732086 0.071978949 0.019781761
0.52653587 0.072931699 0.019191258
0.52493995 0.073985137 0.018015446
0.52415514 0.074945852 0.017424859
0.52418137 0.075809076 0.017419599
0.52339673 0.076774567 0.016829019
0.52180135 0.077847116 0.015653091
0.52020615 0.078926042 0.014477088
0.5145576 0.080546595 0.010374306
0.46932212 0.11876138 -0.023186672
0.46935171 0.11973447 -0.023192603
0.4685722 0.1208704 -0.023784256
0.46860182 0.1218451 -0.023790196
0.46863148 0.12281981 -0.023796136
0.4686611 0.12379452 -0.023802076
0.46949959 0.12460005 -0.023222253
0.52383864 -0.0069761137 0.018427802
0.52386475 -0.0061160815 0.018422561
0.52389091 -0.0052560498 0.018417321
0.52473146 -0.0043485463 0.018997721
0.52557188 -0.0034442269 0.019578137
0.52559793 -0.0025873748 0.019572916
0.52725255 -0.0016451397 0.020739069
0.52809274 -0.00075037836 0.021319544
0.52893275 0.00014119947 0.021900041
0.5305869 0.0010675089 0.023066288
0.53142673 0.0019511241 0.023646833
0.53226644 0.0028315538 0.024227399
0.53310609 0.0037087977 0.02480798
0.53313166 0.004551311 0.024802847
0.53397119 0.0054237782 0.025383495
0.53399676 0.0062647015 0.025378371
0.53402233 0.0071056224 0.025373247
0.5340479 0.0079465434 0.025368121
0.53407347 0.0087874653 0.025362996
0.53409898 0.0096283881 0.025357872
0.53412455 0.010469307 0.025352748
0.53415012 0.011310228 0.025347624
0.53417569 0.012151152 0.0253425
0.53420126 0.012992073 0.025337376
0.53422683 0.013832994 0.025332252
0.53425235 0.014673915 0.025327127
0.53427792 0.015514839 0.025322001
0.53430349 0.016355759 0.025316877
0.53432906 0.017196679 0.025311753
0.53435463 0.018037602 0.025306629
0.5343802 0.018878523 0.025301505
0.53440571 0.019719444 0.025296381
0.53443128 0.020560365 0.025291257
0.53445685 0.021401288 0.025286132
0.53448242 0.022242209 0.025281008
0.53450799 0.02308313 0.025275882
0.53453356 0.023924051 0.025270758
0.53455907 0.024764972 0.025265634
0.53458464 0.025605895 0.02526051
0.53461021 0.026446816 0.025255386
0.53463578 0.027287737 0.025250262
0.53466135 0.028128659 0.025245138
0.53468692 0.02896958 0.025240013
0.5355249 0.029794266 0.025820917
0.53555042 0.030633595 0.025815804
0.53557593 0.031472925 0.025810689
0.53560144 0.032312252 0.025805574
0.53562695 0.033151582 0.025800459
0.53565246 0.033990912 0.025795344
0.53567797 0.034830239 0.025790229
0.53570348 0.035669569 0.025785115
0.53572899 0.036508895 0.02578
0.5357545 0.037348226 0.025774885
0.53578001 0.038187556 0.02576977
0.53580552 0.039026882 0.025764657
0.53664297 0.039830867 0.026345685
0.53666842 0.040668603 0.02634058
0.53669387 0.041506339 0.026335474
0.53671932 0.042344075 0.02633037
0.53674483 0.043181811 0.026325265
0.53677028 0.044019546 0.026320159
0.53679574 0.044857282 0.026315054
0.53682119 0.045695018 0.02630995
0.53603518 0.046580844 0.025718624
0.53606069 0.04742017 0.025713511
0.5360862 0.0482595 0.025708396
0.53611171 0.049098831 0.025703281
0.53613722 0.049938157 0.025698166
0.53616273 0.050777487 0.025693052
0.53618824 0.051616814 0.025687937
0.53621376 0.052456144 0.025682822
0.53623927 0.053295474 0.025677707
0.53626478 0.054134805 0.025672592
0.53547925 0.055038143 0.025081158
0.53550482 0.055879068 0.025076034
0.53553039 0.056719989 0.025070909
0.53555596 0.05756091 0.025065785
0.53558147 0.05840183 0.025060661
0.53479624 0.059314735 0.024469133
0.53482187 0.060157247 0.024463998
0.53484744 0.060999759 0.024458865
0.53487307 0.061842274 0.024453731
0.5348987 0.062684789 0.024448596
0.53492427 0.063527308 0.024443462
0.53413939 0.064451352 0.023851905
0.53416508 0.065295458 0.02384676
0.53338033 0.066224284 0.023255171
0.53259569 0.067156292 0.022663562
0.53181112 0.068091489 0.0220719
0.53102666 0.069029875 0.021480253
0.53024232 0.069971435 0.020888584
0.52945811 0.070916191 0.0202969
0.52867395 0.071864128 0.019705193
0.52707976 0.072911121 0.018526921
0.5262959 0.073867016 0.017935166
0.52551204 0.074826099 0.017343393
0.52553827 0.075687729 0.017338142
0.52475452 0.076651596 0.016746305
0.52316117 0.077722475 0.01556792
0.521568 0.078799725 0.014389498
0.51592636 0.08041843 0.01027806
0.52438354 -0.0069967331 0.017762231
0.5252232 -0.0060860082 0.018343844
0.5252493 -0.0052275662 0.018338613
0.52527535 -0.0043691276 0.018333381
0.52611482 -0.0034647698 0.018915031
0.52695423 -0.0025635932 0.019496735
0.52698022 -0.0017083385 0.019491524
0.52863258 -0.00077080686 0.020660136
0.52947164 0.00012080915 0.021241866
0.53031063 0.0010092414 0.021823613
0.53114951 0.0018944871 0.022405414
0.53198826 0.0027765485 0.022987202
0.53282696 0.0036554227 0.023569006
0.53366554 0.0045311116 0.024150833
0.53369111 0.0053736265 0.0241457
0.53371674 0.0062161409 0.024140567
0.53455514 0.0070854612 0.024722464
0.53458071 0.0079263821 0.02471734
0.53460628 0.008767304 0.024712216
0.53463185 0.0096082268 0.024707092
0.53465742 0.010449146 0.024701968
0.53468299 0.011290067 0.024696844
0.5347085 0.012130991 0.024691718
0.53473407 0.012971912 0.024686594
0.53475964 0.013812833 0.024681469
0.53478521 0.014653753 0.024676345
0.53399843 0.015483797 0.024084091
0.53402406 0.016326312 0.024078958
0.53404963 0.017168825 0.024073824
0.53407526 0.018011339 0.024068689
0.53410089 0.018853853 0.024063556
0.53412646 0.019696368 0.024058422
0.53415209 0.020538881 0.024053287
0.53417766 0.021381397 0.024048153
0.53420329 0.02222391 0.02404302
0.53422892 0.023066426 0.024037885
0.53425449 0.023908937 0.024032751
0.53428012 0.024751453 0.024027618
0.53430575 0.025593966 0.024022482
0.53433132 0.026436482 0.024017349
0.53516859 0.027267575 0.02459948
0.53519416 0.028108498 0.024594355
0.53521973 0.028949419 0.024589231
0.5352453 0.02979034 0.024584107
0.53527087 0.030631261 0.024578983
0.53529638 0.031472184 0.024573859
0.53532195 0.032313105 0.024568735
0.53534752 0.033154026 0.024563611
0.53618431 0.033970788 0.025145793
0.53620982 0.034810118 0.025140679
0.53623533 0.035649445 0.025135564
0.53626084 0.036488775 0.025130449
0.53628635 0.037328102 0.025125334
0.53631186 0.038167432 0.025120221
0.53633738 0.039006762 0.025115106
0.53636289 0.039846089 0.025109991
0.5363884 0.040685419 0.025104877
0.53641391 0.041524749 0.025099762
0.53643942 0.042364076 0.025094647
0.53646493 0.043203406 0.025089532
0.53649044 0.044042733 0.025084417
0.53651595 0.044882063 0.025079302
0.53654146 0.045721389 0.025074188
0.53656697 0.04656072 0.025069075
0.53659248 0.04740005 0.02506396
0.53661799 0.048239376 0.025058845
0.53664351 0.049078707 0.02505373
0.53666902 0.049918033 0.025048615
0.53669453 0.050757363 0.025043501
0.53590983 0.051654298 0.024450874
0.5359354 0.052495219 0.02444575
0.53596097 0.05333614 0.024440626
0.53598654 0.054177061 0.024435502
0.53601211 0.055017982 0.024430377
0.53603762 0.055858906 0.024425253
0.53525323 0.056766991 0.023832522
0.53527886 0.057609506 0.023827389
0.53530449 0.058452018 0.023822255
0.53533006 0.059294537 0.023817122
0.53535569 0.060137048 0.023811987
0.53457165 0.061054684 0.023219232
0.53459728 0.06189879 0.023214089
0.53462291 0.062742896 0.023208944
0.5346486 0.06358701 0.0232038
0.53467423 0.064431116 0.023198657
0.53469992 0.065275222 0.023193512
0.53391618 0.066204004 0.022600692
0.53313255 0.067135975 0.022007849
0.53234899 0.068071142 0.021414956
0.53156555 0.069009483 0.020822076
0.53078222 0.069951013 0.020229176
0.52999896 0.070895724 0.019636258
0.52921587 0.071843624 0.019043319
0.52843273 0.072794706 0.018450327
0.52764982 0.073748976 0.01785735
0.52686697 0.074706428 0.017264353
0.52689308 0.075566463 0.017259112
0.52611041 0.076528698 0.016666088
0.52451897 0.077597909 0.015485213
0.52211899 0.078778878 0.013716532
0.5172931 0.08029034 0.010184282
0.50842458 0.082363755 0.0037127947
0.50117427 0.084251888 -0.0015832358
0.52574104 -0.0069650277 0.017684735
0.52576715 -0.0061065895 0.017679505
0.52579319 -0.0052481475 0.017674273
0.5258193 -0.0043897089 0.017669043
0.52665776 -0.0034853129 0.018251926
0.52668381 -0.0026284608 0.018246705
0.52752215 -0.0017288433 0.018829651
0.52917248 -0.0007912353 0.02000073
0.53001052 0.00010041882 0.020583689
0.5308485 0.00098888937 0.021166669
0.53168637 0.0018741732 0.021749705
0.53252417 0.0027562729 0.022332724
0.53336179 0.0036351851 0.022915764
0.53338748 0.0044792918 0.022910619
0.53422499 0.005353427 0.023493687
0.53425056 0.0061959415 0.023488553
0.53427619 0.0070384545 0.02348342
0.53430182 0.0078809699 0.023478284
0.53432739 0.0087234825 0.023473151
0.53435302 0.0095659988 0.023468018
0.53437865 0.010408512 0.023462882
0.53440422 0.011251025 0.023457749
0.53442985 0.012093542 0.023452615
0.53445542 0.012936055 0.02344748
0.53448105 0.013778567 0.023442347
0.53450668 0.014621083 0.023437213
0.53453225 0.015463597 0.023432078
0.53455788 0.016306112 0.023426944
0.53458351 0.017148625 0.023421811
0.53460908 0.01799114 0.023416676
0.53382361 0.018829107 0.022823175
0.5338493 0.019673215 0.022818033
0.53387493 0.020517321 0.022812888
0.53390062 0.021361427 0.022807745
0.53392625 0.022205535 0.022802601
0.53395188 0.023049643 0.022797458
0.53397757 0.023893747 0.022792313
0.53481394 0.024731252 0.023375604
0.53483957 0.025573768 0.023370471
0.5348652 0.026416281 0.023365336
0.53489077 0.027258795 0.023360202
0.5349164 0.02810131 0.023355069
0.53494203 0.028943824 0.023349933
0.5349676 0.029786339 0.0233448
0.53499323 0.030628853 0.023339666
0.53582925 0.031452022 0.023923079
0.53585482 0.032292943 0.023917954
0.53588033 0.033133864 0.02391283
0.5359059 0.033974785 0.023907706
0.53593147 0.034815706 0.023902582
0.53595704 0.035656631 0.023897456
0.53598261 0.036497552 0.023892332
0.53600818 0.037338473 0.023887208
0.53603369 0.038179394 0.023882084
0.53605926 0.039020315 0.023876959
0.53608483 0.039861236 0.023871835
0.5361104 0.040702157 0.023866711
0.53613597 0.041543081 0.023861587
0.53616154 0.042384002 0.023856463
0.53618705 0.043224923 0.023851337
0.53621262 0.044065844 0.023846213
0.53623819 0.044906765 0.023841089
0.53626376 0.045747686 0.023835965
0.53628933 0.046588607 0.02383084
0.5363149 0.047429528 0.023825716
0.53634042 0.048270449 0.023820592
0.53636599 0.049111374 0.023815468
0.53639156 0.049952295 0.023810344
0.53641713 0.050793216 0.023805218
0.5364427 0.051634137 0.023800094
0.53646821 0.052475058 0.02379497
0.53568465 0.053376734 0.023201047
0.53571028 0.05421925 0.023195913
0.53573585 0.055061761 0.023190778
0.53576148 0.055904277 0.023185644
0.53578711 0.056746792 0.023180511
0.53500384 0.05765802 0.022586564
0.53502947 0.058502126 0.022581419
0.53505516 0.059346236 0.022576276
0.53508079 0.060190342 0.022571132
0.53510648 0.061034448 0.022565989
0.53513211 0.061878555 0.022560844
0.5343492 0.062800936 0.021966828
0.53437495 0.063646629 0.021961674
0.53440064 0.06449233 0.02195652
0.53442633 0.06533803 0.021951368
0.53364366 0.066268377 0.021357303
0.53366941 0.067115664 0.02135214
0.53288686 0.068050787 0.020758014
0.53210443 0.068989091 0.020163901
0.53132212 0.069930583 0.01956977
0.53053987 0.070875257 0.018975619
0.52975774 0.07182312 0.018381447
0.52978373 0.072678372 0.018376235
0.52900171 0.073631011 0.017781999
0.52821982 0.074586838 0.017187782
0.52743804 0.075545847 0.016593542
0.52746415 0.076405883 0.016588302
0.52587467 0.077473424 0.015404973
0.5250932 0.078441992 0.014810677
0.50417435 0.083899669 -0.00052101468
0.52709651 -0.0069332463 0.017609706
0.52712256 -0.0060763978 0.017604485
0.52714854 -0.0052195531 0.017599264
0.52717459 -0.0043627047 0.017594043
0.52801204 -0.0034598615 0.018178204
0.52803802 -0.0026046031 0.018172992
0.52887529 -0.0017065398 0.018757148
0.52971238 -0.00081166386 0.01934132
0.53054941 8.0028491e-05 0.019925514
0.53138638 0.00096853724 0.020509727
0.53222328 0.0018538592 0.021093994
0.53306001 0.0027359971 0.021678247
0.5330857 0.0035816955 0.021673093
0.53392231 0.0044590542 0.022257375
0.53394794 0.0053031608 0.02225223
0.53397363 0.0061472692 0.022247087
0.53399926 0.0069913743 0.022241943
0.53483564 0.0078607704 0.022826271
0.53486127 0.008703283 0.022821138
0.53488684 0.0095457993 0.022816004
0.53491247 0.010388313 0.022810869
0.53493804 0.011230825 0.022805735
0.53496367 0.012073343 0.022800602
0.5349893 0.012915855 0.022795467
0.53501487 0.013758369 0.022790333
0.53423017 0.014588336 0.02219565
0.53425586 0.015432444 0.022190506
0.53428149 0.016276551 0.022185363
0.53430718 0.017120656 0.022180218
0.53433281 0.017964764 0.022175074
0.53435844 0.01880887 0.022169931
0.53438413 0.019652978 0.022164786
0.53440976 0.020497084 0.022159643
0.53443545 0.02134119 0.022154499
0.53446108 0.022185298 0.022149356
0.53448677 0.023029406 0.022144211
0.5345124 0.02387351 0.022139069
0.53453809 0.024717618 0.022133924
