# .PCD v0.7 - Point Cloud Data file format
VERSION 0.7
FIELDS x y z
SIZE 4 4 4
TYPE F F F
COUNT 1 1 1
WIDTH 1420
HEIGHT 1
VIEWPOINT 0 0 0 1 0 0 0
POINTS 1420
DATA ascii
0.49766895 0.22361819 0.038571928
0.49769568 0.22449735 0.038566571
0.49772239 0.2253765 0.038561214
0.49774912 0.22625563 0.038555857
0.49777585 0.22713478 0.0385505
0.49780256 0.22801393 0.038545143
0.49782929 0.22889307 0.038539786
0.49785602 0.22977221 0.038534429
0.49788272 0.23065138 0.038529068
0.49790946 0.2315305 0.038523711
0.49793619 0.23240966 0.038518354
0.49796289 0.23328879 0.038512997
0.49798962 0.23416795 0.03850764
0.49801633 0.23504709 0.038502283
0.49804306 0.23592624 0.038496926
0.49891338 0.23641485 0.03902813
0.49894005 0.23729239 0.039022785
0.49896672 0.23816995 0.039017435
0.4989934 0.2390475 0.039012089
0.49902007 0.23992506 0.03900674
0.49904674 0.24080262 0.039001394
0.49907342 0.24168015 0.038996045
0.49910009 0.2425577 0.038990699
0.49912676 0.24343526 0.038985349
0.49915344 0.24431281 0.038980003
0.49918011 0.24519035 0.038974654
0.49920678 0.24606793 0.038969308
0.49923345 0.24694549 0.038963959
0.49926013 0.24782301 0.038958613
0.4992868 0.24870057 0.038953263
0.49931347 0.24957813 0.038947918
0.49934015 0.25045568 0.038942568
0.49936682 0.25133324 0.038937222
0.49939349 0.2522108 0.038931873
0.49942017 0.25308836 0.038926527
0.49944684 0.25396588 0.038921181
0.49947351 0.25484344 0.038915832
0.49950019 0.255721 0.038910486
0.50036925 0.25617141 0.039441895
0.50039589 0.25704736 0.039436556
0.50042254 0.25792333 0.039431218
0.50044912 0.25879928 0.03942588
0.50047576 0.25967523 0.039420545
0.50050241 0.26055121 0.039415207
0.50052899 0.26142716 0.039409868
0.50055563 0.26230311 0.03940453
0.50058228 0.26317906 0.039399192
0.5014509 0.26361355 0.039930694
0.50147742 0.26448792 0.039925367
0.501504 0.26536229 0.039920039
0.50153059 0.26623666 0.039914709
0.50155717 0.26711103 0.039909381
0.50242549 0.26753595 0.040440947
0.50245202 0.26840872 0.040435631
0.50247854 0.26928151 0.040430311
0.50334668 0.26970008 0.040961917
0.50337315 0.27057123 0.040956609
0.50339961 0.27144241 0.0409513
0.50342607 0.27231362 0.040945988
0.5034526 0.27318481 0.04094068
0.50432044 0.27359375 0.041472372
0.48674187 0.18308336 0.03171375
0.48676917 0.1839816 0.031708278
0.48764202 0.18458974 0.032239959
0.48851481 0.18519466 0.032771658
0.48854202 0.18608972 0.032766204
0.48941463 0.1866899 0.03329793
0.48944181 0.18758337 0.033292484
0.49031433 0.18817873 0.033824276
0.49034142 0.18907061 0.033818845
0.49036855 0.18996251 0.03381341
0.49124083 0.1905515 0.034345202
0.49126789 0.19144179 0.034339778
0.49214002 0.19202602 0.034871604
0.49216706 0.19291472 0.034866191
0.49219406 0.19380343 0.034860775
0.49306601 0.19438127 0.035392638
0.49309298 0.19526839 0.035387233
0.49311993 0.1961555 0.035381824
0.4931469 0.19704261 0.035376418
0.49317387 0.19792973 0.035371013
0.49320084 0.19881682 0.035365608
0.49322778 0.19970393 0.035360202
0.49409935 0.20026903 0.035892148
0.49412626 0.20115457 0.035886753
0.49415317 0.20204008 0.035881355
0.49418011 0.20292559 0.035875961
0.49505147 0.20348275 0.036407981
0.49507833 0.20436665 0.036402594
0.49510521 0.20525058 0.036397208
0.49513206 0.20613448 0.036391821
0.49515894 0.20701844 0.036386434
0.49518579 0.20790234 0.036381047
0.49521267 0.20878626 0.03637566
0.49523953 0.2096702 0.036370274
0.49611041 0.21021302 0.036902357
0.49613723 0.21109533 0.036896981
0.49616405 0.21197768 0.036891602
0.49619088 0.21286 0.036886226
0.4962177 0.21374233 0.036880851
0.49624452 0.21462466 0.036875471
0.49711508 0.21515632 0.037407618
0.49714184 0.21603708 0.03740225
0.4971686 0.2169178 0.037396882
0.49719536 0.21779855 0.037391517
0.49722216 0.21867929 0.037386149
0.49724892 0.21956003 0.037380781
0.49727568 0.22044076 0.037375417
0.49730244 0.22132148 0.037370048
0.49732924 0.22220224 0.03736468
0.497356 0.22308297 0.037359316
0.49738276 0.22396371 0.037353948
0.49740952 0.22484446 0.03734858
0.49743631 0.22572519 0.037343211
0.49746308 0.22660592 0.037337847
0.49833289 0.22711371 0.037870143
0.49835962 0.22799285 0.037864782
0.49838632 0.228872 0.037859425
0.49841306 0.22975114 0.037854068
0.49843979 0.23063029 0.037848711
0.49846649 0.23150943 0.037843354
0.49849322 0.23238857 0.037837997
0.49851996 0.23326771 0.03783264
0.49854666 0.23414688 0.037827283
0.49857339 0.235026 0.037821926
0.49860013 0.23590516 0.037816569
0.49862683 0.23678431 0.037811212
0.49865356 0.23766345 0.037805855
0.49868026 0.23854259 0.037800498
0.498707 0.23942174 0.037795138
0.49873373 0.24030088 0.037789781
0.49876043 0.24118003 0.037784424
0.49878716 0.24205917 0.037779067
0.4988139 0.24293831 0.03777371
0.4988406 0.24381746 0.037768353
0.49886733 0.24469662 0.037762996
0.49889407 0.24557574 0.037757639
0.49892077 0.24645491 0.037752282
0.4989475 0.24733405 0.037746925
0.4989742 0.24821319 0.037741568
0.49900094 0.24909233 0.037736211
0.49902767 0.24997149 0.03773085
0.49989617 0.25043464 0.038263444
0.49992284 0.2513122 0.038258098
0.49994951 0.25218976 0.038252749
0.49997619 0.25306731 0.038247403
0.50000286 0.25394484 0.038242053
0.50002956 0.2548224 0.038236707
0.50005621 0.25569996 0.038231358
0.50008291 0.25657752 0.038226012
0.50010955 0.25745505 0.038220666
0.50013626 0.25833261 0.038215317
0.5001629 0.25921017 0.038209971
0.5001896 0.26008773 0.038204622
0.50105745 0.2605302 0.038737316
0.50108403 0.26140615 0.038731977
0.50111067 0.26228213 0.038726639
0.50113732 0.26315808 0.038721301
0.5011639 0.26403403 0.038715962
0.50119054 0.26491001 0.038710624
0.50121719 0.26578596 0.038705289
0.50208461 0.26621568 0.039238051
0.5021112 0.26709008 0.039232723
0.50213778 0.26796445 0.039227396
0.50216436 0.26883879 0.039222069
0.50219095 0.26971316 0.039216738
0.50305808 0.27013338 0.039749566
0.5030846 0.27100614 0.03974425
0.50311112 0.2718789 0.039738931
0.50397807 0.27229273 0.040271793
0.5040046 0.27316391 0.040266484
0.48472211 0.18211652 0.029414471
0.48559427 0.18273424 0.029947324
0.48646638 0.18334873 0.030480228
0.48649374 0.18424858 0.030474745
0.48736563 0.18485834 0.031007651
0.48823744 0.1854649 0.031540573
0.48910916 0.18606827 0.032073513
0.48913637 0.18696335 0.032068059
0.49000794 0.18756194 0.032601032
0.49003509 0.18845543 0.03259559
0.49090657 0.18904923 0.033128619
0.49093366 0.18994112 0.033123184
0.49096078 0.190833 0.033117749
0.49183202 0.19142045 0.033650786
0.49185908 0.19231075 0.033645362
0.49188614 0.19320104 0.033639934
0.49275717 0.19378212 0.034173016
0.49278417 0.19467083 0.034167603
0.4928112 0.19555953 0.034162186
0.4928382 0.19644822 0.03415677
0.4928652 0.19733693 0.034151357
0.49289224 0.19822563 0.03414594
0.49291924 0.19911432 0.034140524
0.49378988 0.19968265 0.03467368
0.49381685 0.20056976 0.03466827
0.49384382 0.20145689 0.034662865
0.49387079 0.202344 0.03465746
0.49389774 0.2032311 0.034652054
0.49476811 0.20378987 0.035185266
0.49479502 0.20467541 0.035179872
0.49482194 0.20556091 0.035174474
0.49484885 0.20644642 0.03516908
0.49487576 0.20733194 0.035163682
0.49490267 0.20821747 0.035158288
0.49577275 0.20876506 0.035691604
0.49579963 0.20964901 0.035686217
0.49582648 0.21053292 0.03568083
0.49585336 0.21141684 0.035675444
0.49588022 0.21230076 0.035670057
0.4959071 0.2131847 0.03566467
0.49593395 0.21406862 0.035659287
0.49680358 0.21460351 0.036192644
0.4968304 0.21548583 0.036187265
0.49685723 0.21636817 0.036181889
0.49688405 0.2172505 0.036176514
0.49691087 0.21813282 0.036171135
0.49693769 0.21901518 0.036165759
0.49696448 0.21989749 0.036160383
0.49699131 0.22077982 0.036155008
0.49786052 0.22130036 0.036688451
0.49788728 0.22218113 0.036683083
0.49791405 0.22306186 0.036677718
0.49794084 0.22394259 0.03667235
0.4979676 0.22482334 0.036666982
0.49799436 0.22570407 0.036661617
0.49802113 0.22658481 0.036656249
0.49804792 0.22746554 0.036650881
0.49807468 0.22834629 0.036645517
0.49810144 0.22922702 0.036640149
0.49812821 0.23010775 0.03663478
0.498155 0.2309885 0.036629416
0.49818176 0.23186925 0.036624048
0.49820852 0.23274997 0.03661868
0.49823529 0.2336307 0.036613315
0.49826208 0.23451145 0.036607947
0.49828884 0.23539218 0.036602579
0.4983156 0.23627293 0.036597211
0.49834239 0.23715366 0.036591846
0.49836916 0.23803441 0.036586478
0.49839592 0.23891513 0.03658111
0.49926406 0.23940066 0.037114777
0.49929076 0.24027981 0.03710942
0.4993175 0.24115896 0.037104063
0.49934423 0.24203809 0.037098706
0.49937093 0.24291724 0.037093345
0.49939767 0.24379639 0.037087988
0.49942437 0.24467553 0.037082631
0.4994511 0.24555467 0.037077274
0.49947783 0.24643384 0.037071917
0.49950454 0.24731296 0.03706656
0.49953127 0.24819212 0.037061203
0.499558 0.24907124 0.037055846
0.4995847 0.24995041 0.037050489
0.49961144 0.25082955 0.037045132
0.49963817 0.25170869 0.037039775
0.49966487 0.25258785 0.037034418
0.49969161 0.25346699 0.037029058
0.49971831 0.25434613 0.037023701
0.49974504 0.25522527 0.037018344
0.49977177 0.25610441 0.037012987
0.49979848 0.25698358 0.03700763
0.50066561 0.25743401 0.037541535
0.50069231 0.25831157 0.037536185
0.50071895 0.25918913 0.037530839
0.50074565 0.26006669 0.03752549
0.5007723 0.26094425 0.037520144
0.500799 0.26182178 0.037514795
0.50082564 0.26269934 0.037509449
0.50169235 0.26313707 0.038043398
0.50171894 0.26401305 0.03803806
0.50174558 0.264889 0.038032722
0.50177222 0.26576495 0.038027383
0.50179881 0.2666409 0.038022049
0.50182545 0.26751688 0.03801671
0.5018521 0.26839283 0.038011372
0.50271839 0.26881784 0.038545404
0.50274497 0.26969221 0.038540076
0.5027715 0.27056658 0.038534749
0.50279808 0.27144095 0.038529418
0.50282466 0.27231529 0.038524091
0.50369066 0.27273077 0.039058175
0.50371718 0.27360353 0.039052859
0.48529431 0.18209487 0.028715618
0.48532176 0.1829979 0.028710116
0.48619285 0.18361405 0.029244212
0.48706388 0.18422702 0.029778365
0.48709124 0.18512687 0.029772881
0.4879621 0.18573506 0.030307027
0.48883283 0.18634006 0.03084119
0.48970351 0.18694189 0.031375371
0.48973072 0.18783696 0.031369917
0.49060121 0.188434 0.031904131
0.49062839 0.18932748 0.031898685
0.49065554 0.19022097 0.031893242
0.49152589 0.19081162 0.032427531
0.49155301 0.1917035 0.032422096
0.49158013 0.19259541 0.03241666
0.49245024 0.1931797 0.032950949
0.4924773 0.19406998 0.032945525
0.49250436 0.19496028 0.032940101
0.49253142 0.19585058 0.032934673
0.49255848 0.19674087 0.032929249
0.49258554 0.19763117 0.032923825
0.4926126 0.19852147 0.032918397
0.49263966 0.19941175 0.032912973
0.49350935 0.19998172 0.033447351
0.49353635 0.20087041 0.033441935
0.49356338 0.20175911 0.033436522
0.49359038 0.20264782 0.033431105
0.49445984 0.20320983 0.033965532
0.49448681 0.20409694 0.033960126
0.49451378 0.20498405 0.033954717
0.49454072 0.20587115 0.033949312
0.49456769 0.20675825 0.033943906
0.49459466 0.20764539 0.033938501
0.49462163 0.20853248 0.033933096
0.49549067 0.20908174 0.0344676
0.49551761 0.20996727 0.034462202
0.49554452 0.21085277 0.034456808
0.49557143 0.21173829 0.03445141
0.49644029 0.21227956 0.034986001
0.49646717 0.21316351 0.034980614
0.49649402 0.21404742 0.034975227
0.49652091 0.21493134 0.03496984
0.49654776 0.21581526 0.034964453
0.49657464 0.2166992 0.03495907
0.49660149 0.2175831 0.034953684
0.49662837 0.21846704 0.034948297
0.49665523 0.21935096 0.03494291
0.49668211 0.22023489 0.034937523
0.49755037 0.22075866 0.035472181
0.49757719 0.221641 0.035466805
0.49760401 0.22252333 0.03546143
0.49763083 0.22340566 0.03545605
0.49765766 0.22428799 0.035450675
0.49768448 0.22517033 0.035445299
0.4977113 0.22605264 0.035439923
0.49773812 0.22693498 0.035434544
0.49776495 0.2278173 0.035429168
0.49779174 0.22869965 0.035423793
0.49781856 0.22958198 0.035418414
0.49868628 0.23008664 0.03595319
0.49871305 0.23096739 0.035947822
0.49873981 0.23184814 0.035942458
0.49876657 0.23272885 0.035937089
0.49879336 0.23360959 0.035931721
0.49882013 0.23449033 0.035926357
0.49884689 0.23537107 0.035920989
0.49887368 0.23625182 0.035915621
0.49890044 0.23713255 0.035910256
0.49892721 0.2380133 0.035904888
0.49895397 0.23889402 0.03589952
0.49898076 0.23977475 0.035894152
0.49900752 0.24065551 0.035888787
0.49903429 0.24153623 0.035883419
0.49906105 0.24241698 0.035878051
0.49908784 0.2432977 0.035872687
0.4991146 0.24417846 0.035867319
0.49914137 0.24505919 0.03586195
0.49916813 0.24593991 0.035856586
0.49919492 0.24682067 0.035851218
0.49922168 0.24770139 0.03584585
0.49924845 0.24858214 0.035840485
0.49927521 0.24946287 0.035835117
0.499302 0.25034362 0.035829749
0.5001685 0.25080848 0.036364768
0.50019521 0.25168762 0.036359411
0.50022191 0.25256675 0.036354054
0.50024867 0.25344592 0.036348697
0.50027537 0.25432503 0.03634334
0.50030208 0.2552042 0.036337983
0.50032884 0.25608334 0.036332622
0.50035554 0.25696248 0.036327265
0.50038224 0.25784162 0.036321908
0.50040901 0.25872079 0.036316551
0.50043571 0.25959992 0.036311194
0.50046241 0.26047906 0.036305837
0.50048918 0.2613582 0.03630048
0.50135499 0.26180074 0.036835667
0.5013817 0.2626783 0.036830317
0.50140834 0.26355585 0.036824971
0.50143504 0.26443341 0.036819622
0.50146168 0.26531094 0.036814276
0.5023272 0.26574394 0.037349492
0.50235385 0.26661992 0.037344154
0.50238049 0.2674959 0.037338819
0.50240713 0.26837185 0.037333481
0.50243372 0.2692478 0.037328143
0.50329894 0.26967126 0.037863411
0.50332552 0.27054563 0.037858084
0.50335211 0.27141997 0.037852757
0.50337869 0.27229434 0.03784743
0.50340527 0.27316871 0.037842099
0.48415348 0.18173431 0.02694067
0.48502377 0.18235688 0.027475961
0.48589393 0.18297625 0.02801127
0.48676401 0.18359244 0.0285466
0.48679143 0.18449388 0.028541107
0.48766142 0.18510529 0.029076496
0.48853126 0.18571353 0.029611874
0.48855856 0.18661177 0.0296064
0.48942825 0.18721524 0.030141806
0.49029785 0.1878155 0.030677233
0.49032506 0.18871057 0.030671779
0.49035227 0.18960562 0.030666325
0.49122167 0.19019955 0.031201789
0.49124882 0.19109301 0.031196345
0.49211812 0.19168212 0.03173187
0.49214524 0.19257402 0.031726435
0.49217236 0.19346589 0.031721
0.49219945 0.19435777 0.031715568
0.49222657 0.19524966 0.031710133
0.49225369 0.19614156 0.031704698
0.49312261 0.19671953 0.032240257
0.49314967 0.19760981 0.032234833
0.49317673 0.19850011 0.032229409
0.49320379 0.19939041 0.032223985
0.49323085 0.2002807 0.032218557
0.49325791 0.20117098 0.032213133
0.49328497 0.2020613 0.032207709
0.49331203 0.20295158 0.032202281
0.49333909 0.20384187 0.032196857
0.49420753 0.20440394 0.032732517
0.49423453 0.20529263 0.0327271
0.49426153 0.20618132 0.032721683
0.49428856 0.20707002 0.032716271
0.49515676 0.20762411 0.033251978
0.49518371 0.20851122 0.033246573
0.49521068 0.20939831 0.033241164
0.49523765 0.21028544 0.033235759
0.49526462 0.21117254 0.033230353
0.49529156 0.21205963 0.033224948
0.49615943 0.21260259 0.033760723
0.49618635 0.2134881 0.033755329
0.49621326 0.2143736 0.033749931
0.49624017 0.21525912 0.033744536
0.49626708 0.21614464 0.033739138
0.49629402 0.21703017 0.033733744
0.49716157 0.21756192 0.03426962
0.49718845 0.21844585 0.034264233
0.4972153 0.21932977 0.034258846
0.49724218 0.2202137 0.034253459
0.49726903 0.2210976 0.034248073
0.49729592 0.22198154 0.034242686
0.49732277 0.22286546 0.034237299
0.49734965 0.22374938 0.034231912
0.4973765 0.22463331 0.034226529
0.49740338 0.22551724 0.034221143
0.49743024 0.22640115 0.034215756
0.49745712 0.22728507 0.034210369
0.49748397 0.22816899 0.034204982
0.49835083 0.22867849 0.034740966
0.49837765 0.22956082 0.03473559
0.49840444 0.23044313 0.034730215
0.49843127 0.23132549 0.034724839
0.49845809 0.23220782 0.03471946
0.49848491 0.23309013 0.034714084
0.49851173 0.23397247 0.034708709
0.49853855 0.2348548 0.034703329
0.49856538 0.23573713 0.034697954
0.4985922 0.23661946 0.034692578
0.49861899 0.2375018 0.034687199
0.49864581 0.23838411 0.034681823
0.49867263 0.23926646 0.034676448
0.49869946 0.24014878 0.034671072
0.49872628 0.24103113 0.034665693
0.4987531 0.24191345 0.034660317
0.49877992 0.24279577 0.034654941
0.49880674 0.24367811 0.034649562
0.49883357 0.24456044 0.034644186
0.49886036 0.24544276 0.034638811
0.49888718 0.24632509 0.034633435
0.49975297 0.24679956 0.035169628
0.49977973 0.24768028 0.035164259
0.49980649 0.24856102 0.035158891
0.49983329 0.24944176 0.035153527
0.49986005 0.25032252 0.035148159
0.49988681 0.25120324 0.035142791
0.4999136 0.25208396 0.035137426
0.49994037 0.25296474 0.035132058
0.49996713 0.25384545 0.03512669
0.49999389 0.2547262 0.035121325
0.50002068 0.25560692 0.035115957
0.50004745 0.25648767 0.035110589
0.50091261 0.25694141 0.035646908
0.50093931 0.25782055 0.035641551
0.50096601 0.25869972 0.035636194
0.50099277 0.25957885 0.035630837
0.50101948 0.26045799 0.03562548
0.50104618 0.26133713 0.035620123
0.50107294 0.2622163 0.035614766
0.50109965 0.26309544 0.035609409
0.50112635 0.26397458 0.035604052
0.50199109 0.26441237 0.036140498
0.50201774 0.2652899 0.036135152
0.50204444 0.26616746 0.036129802
0.50207108 0.26704502 0.036124457
0.50209779 0.26792258 0.036119107
0.50212443 0.26880014 0.036113761
0.50215113 0.26967767 0.036108412
0.5030154 0.27010277 0.036644906
0.50304204 0.27097872 0.036639571
0.50306863 0.27185467 0.036634233
0.50309527 0.27273062 0.036628895
0.50312191 0.2736066 0.036623556
0.40314111 0.099344477 -0.023508888
0.40317318 0.10039882 -0.023515312
0.48472768 0.18171258 0.026239352
0.48559695 0.18233518 0.026775874
0.48646614 0.18295459 0.027312418
0.48649359 0.18385763 0.027306916
0.48736259 0.18447228 0.027843488
0.48823157 0.18508372 0.028380111
0.48825893 0.18598357 0.028374627
0.48828629 0.1868834 0.028369144
0.48915502 0.18748851 0.028905775
0.49002364 0.1880904 0.029442424
0.49005091 0.18898706 0.029436961
0.49091941 0.18958417 0.029973639
0.49094659 0.19047925 0.029968185
0.4909738 0.19137433 0.029962732
0.49184212 0.19196507 0.030499449
0.49186927 0.19285856 0.030494004
0.49189642 0.19375204 0.03048856
0.49276459 0.19433638 0.031025348
0.49279168 0.19522828 0.031019913
0.4928188 0.19612017 0.031014478
0.49284589 0.19701205 0.031009043
0.49287301 0.19790393 0.031003607
0.49290013 0.19879584 0.030998172
0.49292722 0.19968772 0.030992739
0.49295434 0.2005796 0.030987304
0.49298146 0.20147148 0.030981869
0.49384907 0.20203994 0.031518724
0.49387613 0.20293023 0.031513296
0.49390319 0.20382053 0.031507872
0.49393025 0.20471083 0.031502448
0.49395731 0.20560111 0.03149702
0.49398437 0.20649141 0.031491596
0.49401143 0.2073817 0.031486172
0.49487868 0.20793742 0.032023102
0.49490568 0.20882612 0.032017685
0.49493271 0.20971482 0.032012273
0.49495971 0.21060352 0.032006856
0.49498671 0.21149223 0.032001439
0.49585366 0.21203837 0.032538429
0.49588063 0.21292549 0.032533024
0.4959076 0.2138126 0.032527618
0.49593455 0.2146997 0.032522213
0.49596152 0.21558681 0.032516807
0.49598849 0.21647391 0.032511402
0.49685508 0.21700893 0.033048451
0.49688202 0.21789443 0.033043057
0.49690893 0.21877995 0.033037659
0.49693584 0.21966548 0.033032265
0.49696276 0.220551 0.033026867
0.49698967 0.2214365 0.033021472
0.49701658 0.22232202 0.033016074
0.49704349 0.22320755 0.03301068
0.49707043 0.22409306 0.033005282
0.49793658 0.22461212 0.033542469
0.49796346 0.22549604 0.033537082
0.49799031 0.22637996 0.033531696
0.49801719 0.22726388 0.033526313
0.49804404 0.2281478 0.033520926
0.49807093 0.22903174 0.033515539
0.49809781 0.22991565 0.033510152
0.49812466 0.23079959 0.033504765
0.49815154 0.23168351 0.033499379
0.49817839 0.23256743 0.033493992
0.49820527 0.23345135 0.033488605
0.49823213 0.23433527 0.033483218
0.49825901 0.2352192 0.033477832
0.49828586 0.23610312 0.033472449
0.49831274 0.23698704 0.033467062
0.49833959 0.23787098 0.033461675
0.49836648 0.23875488 0.033456288
0.49839333 0.23963882 0.033450902
0.49842021 0.24052273 0.033445515
0.49844706 0.24140666 0.033440128
0.49847394 0.24229057 0.033434741
0.49850079 0.24317451 0.033429354
0.49852768 0.24405842 0.033423971
0.49855453 0.24494235 0.033418585
0.49858141 0.24582627 0.033413198
0.49944627 0.24630395 0.033950604
0.49947309 0.24718627 0.033945225
0.49949989 0.2480686 0.03393985
0.49952671 0.24895094 0.033934474
0.49955353 0.24983326 0.033929098
0.49958035 0.25071561 0.033923719
0.50044489 0.25118211 0.034461197
0.50047165 0.25206286 0.034455828
0.50049841 0.25294361 0.03445046
0.50052518 0.25382432 0.034445092
0.50055194 0.25470507 0.034439728
0.5005787 0.25558579 0.03443436
0.50060552 0.25646657 0.034428991
0.50063229 0.25734729 0.034423627
0.50065905 0.258228 0.034418259
0.50068581 0.25910878 0.034412891
0.50154978 0.25955775 0.034950472
0.50157654 0.26043692 0.034945115
0.50160325 0.26131606 0.034939758
0.50162995 0.2621952 0.034934402
0.50165671 0.26307434 0.034929045
0.50168341 0.26395351 0.034923688
0.50171012 0.26483265 0.034918331
0.50173688 0.26571178 0.034912974
0.50176358 0.26659092 0.034907617
0.50179029 0.26747006 0.03490226
0.50265384 0.26790154 0.035439979
0.50268048 0.2687791 0.03543463
0.50270718 0.26965663 0.035429284
0.50273383 0.27053422 0.035423934
0.50276053 0.27141175 0.035418589
0.50278717 0.27228931 0.035413239
0.50281388 0.27316684 0.035407893
0.50284052 0.27404439 0.035402544
0.40468699 0.100254 -0.023788942
0.48530188 0.18169086 0.025538038
0.48532945 0.18259709 0.025532516
0.48619765 0.18321814 0.026070284
0.48706576 0.18383598 0.026608068
0.48709321 0.18473901 0.026602566
0.48796117 0.18535212 0.027140381
0.48798856 0.18625355 0.027134888
0.48885643 0.18686183 0.027672758
0.48888379 0.18776169 0.027667275
0.48975149 0.18836522 0.028205149
0.48977879 0.18926346 0.028199675
0.4906463 0.18986222 0.028737579
0.49067357 0.1907589 0.028732114
0.49154094 0.19135286 0.029270045
0.49156815 0.19224794 0.029264592
0.49159536 0.19314303 0.029259136
0.49162257 0.19403809 0.029253682
0.49248973 0.1946241 0.029791662
0.49251688 0.19551757 0.029786218
0.49254403 0.19641106 0.029780773
0.49257118 0.19730453 0.029775329
0.49259835 0.19819801 0.029769884
0.49346524 0.19877446 0.030307949
0.49349236 0.19966634 0.030302513
0.49351946 0.20055822 0.030297078
0.49354658 0.20145009 0.030291645
0.4935737 0.202342 0.03028621
0.49360079 0.20323388 0.030280774
0.49362791 0.20412576 0.030275339
0.49365503 0.20501766 0.030269904
0.49368212 0.20590955 0.030264469
0.4945485 0.20647006 0.030802606
0.49457556 0.20736036 0.03079718
0.49460262 0.20825066 0.030791754
0.49462968 0.20914094 0.03078633
0.49465674 0.21003123 0.030780904
0.4946838 0.21092154 0.030775478
0.49554983 0.21147092 0.031313684
0.49557683 0.21235961 0.031308267
0.49560386 0.21324831 0.031302851
0.49563086 0.21413703 0.031297434
0.49565789 0.21502572 0.031292021
0.49652362 0.21556553 0.031830281
0.49655059 0.21645264 0.031824876
0.49657753 0.21733975 0.03181947
0.4966045 0.21822688 0.031814065
0.49663147 0.21911398 0.031808659
0.49665844 0.22000109 0.031803254
0.49668542 0.2208882 0.031797849
0.49671236 0.22177529 0.03179244
0.49673933 0.2226624 0.031787034
0.4967663 0.22354953 0.031781629
0.49763149 0.22407183 0.032319993
0.49765843 0.22495733 0.032314595
0.49768534 0.22584286 0.032309201
0.49771225 0.22672836 0.032303803
0.49773917 0.2276139 0.032298408
0.49776608 0.2284994 0.032293011
0.49779299 0.22938493 0.032287616
0.4978199 0.23027043 0.032282218
0.49784684 0.23115596 0.032276824
0.49787375 0.23204148 0.032271426
0.49790066 0.23292698 0.032266032
0.49792758 0.2338125 0.032260634
0.49795449 0.234698 0.03225524
0.4979814 0.23558354 0.032249842
0.49800831 0.23646905 0.032244448
0.49803525 0.23735456 0.03223905
0.49806216 0.23824008 0.032233655
0.49808908 0.23912561 0.032228258
0.49811599 0.24001111 0.032222863
0.49898028 0.24050154 0.032761458
0.49900714 0.24138546 0.032756072
0.49903402 0.24226938 0.032750685
0.49906087 0.2431533 0.032745298
0.49908775 0.24403723 0.032739911
0.4991146 0.24492115 0.032734524
0.49914148 0.24580508 0.032729138
0.49916834 0.24668899 0.032723751
0.49919522 0.24757293 0.032718368
0.49922207 0.24845685 0.032712981
0.49924895 0.24934077 0.032707594
0.4992758 0.25022468 0.032702208
0.50013942 0.25069445 0.033240896
0.50016624 0.25157678 0.03323552
0.50019306 0.25245911 0.033230141
0.50021988 0.25334144 0.033224765
0.5002467 0.25422376 0.03321939
0.50111002 0.25468397 0.033758137
0.50113678 0.25556469 0.033752769
0.50116354 0.25644544 0.033747401
0.5011903 0.25732616 0.033742037
0.50121713 0.2582069 0.033736669
0.50124389 0.25908765 0.0337313
0.50127065 0.25996837 0.033725932
0.50129741 0.26084912 0.033720568
0.50132418 0.26172984 0.0337152
0.50218701 0.26217413 0.034254044
0.50221372 0.26305327 0.034248687
0.50224048 0.26393241 0.03424333
0.50226718 0.26481158 0.034237973
0.50229388 0.26569071 0.034232616
0.50232065 0.26656985 0.034227256
0.50234735 0.26744899 0.034221899
0.50237405 0.26832813 0.034216542
0.50240082 0.2692073 0.034211185
0.50242752 0.27008644 0.034205828
0.50245422 0.27096558 0.034200471
0.50248098 0.27184471 0.034195114
0.50334322 0.27226827 0.034734115
0.50253439 0.27360299 0.0341844
0.48587608 0.18166913 0.024836726
0.48590365 0.18257536 0.024831204
0.48677084 0.18319644 0.025370203
0.48679835 0.18410106 0.025364691
0.48766539 0.18471736 0.025903715
0.48769283 0.18562041 0.025898213
0.48855975 0.18623194 0.02643727
0.48858714 0.18713339 0.026431777
0.48945397 0.18774012 0.026970897
0.48948133 0.18863997 0.026965413
0.49034795 0.18924193 0.027504524
0.49037525 0.19014019 0.02749905
0.49040255 0.19103846 0.027493576
0.49126896 0.19163406 0.028032731
0.49129623 0.19253072 0.028027266
0.49132347 0.1934274 0.028021803
0.49218971 0.19401664 0.028560998
0.49221691 0.19491169 0.028555542
0.49224412 0.19580676 0.028550088
0.49227133 0.19670184 0.028544635
0.49229854 0.19759691 0.028539181
0.49232575 0.19849199 0.028533725
0.49319163 0.19907007 0.029072981
0.49321878 0.19996354 0.029067537
0.49324596 0.20085703 0.029062092
0.49327311 0.2017505 0.029056648
0.49330026 0.20264399 0.029051203
0.49332741 0.20353746 0.029045759
0.49419302 0.20410438 0.029585121
0.49422014 0.20499627 0.029579686
0.49424726 0.20588817 0.029574251
0.49427435 0.20678005 0.029568816
0.49430147 0.20767193 0.02956338
0.49432856 0.20856382 0.029557947
0.49435568 0.20945571 0.029552512
0.49522084 0.21000989 0.030091919
0.4952479 0.21090019 0.030086493
0.49527496 0.21179049 0.030081069
0.49530202 0.21268077 0.030075643
0.49532908 0.21357106 0.030070217
0.49535614 0.21446137 0.030064793
0.4953832 0.21535167 0.030059367
0.49624801 0.21589312 0.030598847
0.49627501 0.21678181 0.030593432
0.49630201 0.21767052 0.030588016
0.49632904 0.21855922 0.030582601
0.49635604 0.21944791 0.030577185
0.49638307 0.22033662 0.03057177
0.49724749 0.22086693 0.031111322
0.49727446 0.22175403 0.031105917
0.49730143 0.22264113 0.031100512
0.4973284 0.22352827 0.031095106
0.49735534 0.22441536 0.031089699
0.49738231 0.22530247 0.031084293
0.49740928 0.22618958 0.031078888
0.49743626 0.22707668 0.031073483
0.4974632 0.22796379 0.031068077
0.49749017 0.22885089 0.03106267
0.49751714 0.22973803 0.031057265
0.49754411 0.23062512 0.031051859
0.49757105 0.23151222 0.031046454
0.49759802 0.23239934 0.031041047
0.49762499 0.23328644 0.031035641
0.49765196 0.23417355 0.031030236
0.49767891 0.23506066 0.03102483
0.49854249 0.23556231 0.031564556
0.4985694 0.23644783 0.031559162
0.49859631 0.23733333 0.031553764
0.49862322 0.23821884 0.03154837
0.49865016 0.23910438 0.031542972
0.49867707 0.23998988 0.031537578
0.49870399 0.24087539 0.03153218
0.4987309 0.24176091 0.031526785
0.49875781 0.24264644 0.031521387
0.49878472 0.24353194 0.031515993
0.49881163 0.24441746 0.031510595
0.49883857 0.24530298 0.031505201
0.49886549 0.24618848 0.031499803
0.4988924 0.24707401 0.031494409
0.49891931 0.24795952 0.031489011
0.49894622 0.24884504 0.031483617
0.49980903 0.24931958 0.032023534
0.49983588 0.25020349 0.032018151
0.49986276 0.25108743 0.032012764
0.49988961 0.25197136 0.032007378
0.49991649 0.25285527 0.032001991
0.50077897 0.25332031 0.032541942
0.50080574 0.2542026 0.032536566
0.50083256 0.25508493 0.032531187
0.50085938 0.25596726 0.032525811
0.5008862 0.25684962 0.032520436
0.50091302 0.25773191 0.032515056
0.50177515 0.25818577 0.033055078
0.50180191 0.25906655 0.03304971
0.50182867 0.25994727 0.033044342
0.50185549 0.26082802 0.033038978
0.50188226 0.26170874 0.033033609
0.50190902 0.26258948 0.033028241
0.50193578 0.26347023 0.033022873
0.50196254 0.26435095 0.033017509
0.50198931 0.2652317 0.033012141
0.50285095 0.26566964 0.033552252
0.50287765 0.26654878 0.033546895
0.50290442 0.26742792 0.033541538
0.50293112 0.26830706 0.033536181
0.50295782 0.26918623 0.033530824
0.50298458 0.27006534 0.033525463
0.50301129 0.27094451 0.033520106
0.50303799 0.27182364 0.033514749
0.50306475 0.27270278 0.033509392
0.50309145 0.27358192 0.033504035
0.48645031 0.18164741 0.024135413
0.48647785 0.18255363 0.024129892
0.48734403 0.18317476 0.024670118
0.48737153 0.18407936 0.024664607
0.48823759 0.18469571 0.025204869
0.48826504 0.18559876 0.025199365
0.48829249 0.18650179 0.025193863
0.48831993 0.18740483 0.02518836
0.48918572 0.18801321 0.025728665
0.48921314 0.18891466 0.025723172
0.49007884 0.18951823 0.026263544
0.4901062 0.19041808 0.026258061
0.49013352 0.19131795 0.026252577
0.49016088 0.19221778 0.026247093
0.49102631 0.19281343 0.026787477
0.49105361 0.1937117 0.026782002
0.49108091 0.19460995 0.02677653
0.49194613 0.19519922 0.027316956
0.4919734 0.19609588 0.027311493
0.49200064 0.19699255 0.027306028
0.49202791 0.19788921 0.027300565
0.49289289 0.19847052 0.027841035
0.4929201 0.19936562 0.02783558
0.49294728 0.20026067 0.027830126
0.49297449 0.20115574 0.027824672
0.49383923 0.20172907 0.028365197
0.49386638 0.20262256 0.028359752
0.49389356 0.20351605 0.028354308
0.49392071 0.20440952 0.028348863
0.49394786 0.20530301 0.028343417
0.49397501 0.20619649 0.028337972
0.49483946 0.20675866 0.028878598
0.49486658 0.20765054 0.028873162
0.4948937 0.20854244 0.028867727
0.49492079 0.20943433 0.028862292
0.49494791 0.21032621 0.028856859
0.49497503 0.2112181 0.028851423
0.49500212 0.21210997 0.028845988
0.49586615 0.21265942 0.029386653
0.49589321 0.21354972 0.029381227
0.49592027 0.21444003 0.029375801
0.49594733 0.21533032 0.029370377
0.49597439 0.21622062 0.029364951
0.49600145 0.21711089 0.029359527
0.49602851 0.2180012 0.029354101
0.49605557 0.2188915 0.029348675
0.49608263 0.21978179 0.029343251
0.49694616 0.22031531 0.029884018
0.49697316 0.22120401 0.029878601
0.49700019 0.2220927 0.029873187
0.49702719 0.22298142 0.029867772
0.49705422 0.22387013 0.029862355
0.49708122 0.22475882 0.029856941
0.49710822 0.22564752 0.029851524
0.49713525 0.22653623 0.029846109
0.49799833 0.22705542 0.030386958
0.4980253 0.22794251 0.030381553
0.49805227 0.22882962 0.030376146
0.49807924 0.22971675 0.03037074
0.49810618 0.23060386 0.030365335
0.49813315 0.23149095 0.030359929
0.49816012 0.23237807 0.030354522
0.49818709 0.23326518 0.030349117
0.49821404 0.23415227 0.030343711
0.49824101 0.2350394 0.030338306
0.49826798 0.23592651 0.030332901
0.49829495 0.2368136 0.030327493
0.49832192 0.23770072 0.030322088
0.49834886 0.23858783 0.030316683
0.49837583 0.23947494 0.030311277
0.4984028 0.24036205 0.030305872
0.49842978 0.24124914 0.030300464
0.49845672 0.24213627 0.030295059
0.49848369 0.24302337 0.030289654
0.49851066 0.24391048 0.030284248
0.49853763 0.24479757 0.030278841
0.49856457 0.2456847 0.030273436
0.49859154 0.24657181 0.03026803
0.49861851 0.2474589 0.030262625
0.4994804 0.24793831 0.030803721
0.49950731 0.24882381 0.030798325
0.49953422 0.24970932 0.030792929
0.49956113 0.25059485 0.030787533
0.49958804 0.25148037 0.030782137
0.49961498 0.25236586 0.030776741
0.50047654 0.25283408 0.031317931
0.50050342 0.25371802 0.031312548
0.5005303 0.25460193 0.031307161
0.50055718 0.25548586 0.031301774
0.50058401 0.25636977 0.031296387
0.50144529 0.25682846 0.031837609
0.50147212 0.25771078 0.031832233
0.50149894 0.25859311 0.031826857
0.50152576 0.25947544 0.031821478
0.50155258 0.26035777 0.031816103
0.50241351 0.26080689 0.03235738
0.50244027 0.26168761 0.032352012
0.5024671 0.26256838 0.032346644
0.50249386 0.2634491 0.032341279
0.50252062 0.26432982 0.032335911
0.50254738 0.2652106 0.032330543
0.50257415 0.26609132 0.032325178
0.50260091 0.26697206 0.03231981
0.50346142 0.26740685 0.032861181
0.50265443 0.26873353 0.032309078
0.50351489 0.26916513 0.032850463
0.50354159 0.27004427 0.032845106
0.50273478 0.27137575 0.032292977
0.50276154 0.27225649 0.032287609
0.50362176 0.27268171 0.032829035
0.48788974 0.18224843 0.023975546
0.48791724 0.18315306 0.023970034
0.48794472 0.18405768 0.023964521
0.48797223 0.18496232 0.023959009
0.48883721 0.18557711 0.024500513
0.48886466 0.18648013 0.024495011
0.48889211 0.18738317 0.024489509
0.48891956 0.18828622 0.024484005
0.488947 0.18918926 0.024478503
0.48981172 0.18979448 0.025020061
0.48983911 0.19069593 0.025014568
0.4907037 0.19129638 0.025556192
0.49073106 0.19219622 0.025550708
0.49075842 0.19309607 0.025545225
0.49078575 0.19399592 0.025539743
0.49081311 0.19489577 0.025534259
0.49167737 0.19548666 0.026075903
0.49170467 0.19638492 0.026070431
0.49173197 0.19728319 0.026064957
0.49175927 0.19818144 0.026059482
0.4926233 0.19876438 0.026601177
0.49265057 0.19966106 0.026595712
0.49351445 0.20023921 0.027137442
0.49354163 0.20113428 0.027131986
0.49356884 0.20202935 0.027126532
0.49359605 0.20292443 0.027121078
0.49362326 0.2038195 0.027115624
0.49365047 0.20471455 0.027110169
0.49451399 0.20528159 0.02765196
0.49454117 0.20617507 0.027646516
0.49456832 0.20706853 0.027641071
0.49459547 0.20796201 0.027635626
0.49462262 0.20885549 0.027630182
0.49548593 0.20941295 0.028172068
0.49551302 0.21030483 0.028166633
0.49554014 0.21119672 0.028161198
0.49556726 0.21208858 0.028155765
0.49559435 0.21298048 0.028150329
0.49562147 0.21387236 0.028144894
0.49564859 0.21476425 0.028139459
0.49567568 0.21565613 0.028134024
0.4957028 0.21654803 0.028128589
0.49656555 0.21708953 0.028670534
0.49659261 0.21797986 0.02866511
0.49661967 0.21887015 0.028659685
0.49664673 0.21976043 0.028654259
0.49667379 0.22065075 0.028648835
0.49670085 0.22154103 0.028643409
0.49672791 0.22243132 0.028637985
0.49675497 0.22332162 0.028632559
0.49678206 0.22421192 0.028627133
0.49680912 0.2251022 0.028621709
0.49683619 0.22599249 0.028616283
0.49769837 0.22651492 0.029158346
0.49772537 0.22740361 0.02915293
0.49775237 0.22829232 0.029147515
0.4977794 0.22918101 0.029142099
0.4978064 0.23006971 0.029136684
0.4978334 0.23095842 0.029131269
0.49786043 0.23184711 0.029125853
0.49788743 0.23273583 0.029120438
0.49791446 0.23362453 0.029115021
0.49794146 0.23451322 0.029109607
0.49796847 0.23540193 0.02910419
0.4979955 0.23629063 0.029098775
0.4980225 0.23717932 0.029093361
0.49804953 0.23806803 0.029087944
0.49807653 0.23895673 0.029082529
0.49810353 0.23984542 0.029077113
0.49896491 0.24034078 0.029619347
0.49899185 0.24122788 0.02961394
0.49901882 0.24211501 0.029608535
0.49904579 0.2430021 0.029603129
0.49907276 0.2438892 0.029597724
0.4990997 0.24477631 0.029592318
0.49912667 0.24566343 0.029586911
0.49915364 0.24655055 0.029581506
0.49918061 0.24743764 0.0295761
0.49920756 0.24832475 0.029570695
0.49923453 0.24921186 0.029565288
0.4992615 0.25009897 0.029559882
0.49928847 0.25098607 0.029554477
0.49931544 0.2518732 0.029549072
0.50017607 0.25234464 0.030091444
0.50020295 0.25323015 0.030086048
0.5002299 0.2541157 0.030080652
0.50109035 0.25458074 0.030623103
0.50111723 0.25546464 0.030617716
0.50114411 0.25634858 0.030612329
0.50117099 0.25723249 0.030606942
0.50119787 0.25811642 0.030601555
0.5012247 0.25900033 0.030596171
0.50208479 0.25945428 0.031138649
0.50211161 0.26033661 0.031133274
0.50213844 0.26121894 0.031127896
0.50216526 0.26210126 0.031122521
0.50302511 0.26254725 0.031665049
0.50305188 0.26342797 0.031659681
0.50307864 0.26430872 0.031654313
0.50310546 0.26518947 0.031648949
0.50313222 0.26607019 0.031643581
0.50315899 0.26695094 0.031638213
0.50318575 0.26783168 0.031632848
0.50321251 0.26871243 0.03162748
0.50323927 0.26959315 0.031622112
0.50326604 0.27047387 0.031616744
0.50329286 0.27135465 0.031611379
0.50331962 0.27223536 0.031606011
0.48762625 0.18251018 0.02272726
0.48849043 0.18313138 0.023269955
0.48851794 0.18403599 0.023264442
0.48854542 0.18494062 0.02325893
0.48857293 0.18584526 0.023253417
0.4886004 0.18674988 0.023247905
0.48862791 0.18765451 0.023242392
0.48949176 0.18826456 0.023785153
0.48951921 0.1891676 0.023779651
0.48954666 0.19007063 0.023774149
0.4895741 0.19097367 0.023768645
0.48960155 0.19187671 0.023763143
0.489629 0.19277973 0.02375764
0.48965645 0.19368276 0.023752136
0.49051988 0.19428009 0.024294982
0.49054727 0.19518153 0.024289489
0.49141064 0.19577405 0.02483239
0.49143797 0.19667388 0.024826907
0.49146533 0.19757375 0.024821423
0.49149269 0.1984736 0.024815939
0.49235573 0.19905816 0.025358858
0.49238306 0.19995643 0.025353383
0.49324596 0.20053621 0.025896329
0.49327323 0.20143287 0.025890866
0.49330047 0.20232953 0.025885401
0.49416319 0.20290297 0.026428392
0.49419039 0.20379804 0.026422938
0.4942176 0.20469309 0.026417485
0.49424481 0.20558818 0.026412029
0.49427202 0.20648324 0.026406575
0.49513444 0.2070471 0.026949618
0.49516159 0.20794058 0.026944173
0.49518877 0.20883408 0.026938729
0.49521592 0.20972756 0.026933284
0.49524307 0.21062103 0.02692784
0.49527022 0.21151452 0.026922395
0.49613237 0.2120672 0.027465539
0.49615949 0.2129591 0.027460104
0.49618658 0.21385098 0.027454671
0.4962137 0.21474287 0.027449235
0.49624082 0.21563475 0.0274438
0.49626791 0.21652664 0.027438365
0.49629503 0.21741852 0.02743293
0.49632215 0.21831042 0.027427495
0.49634925 0.21920229 0.027422059
0.49637637 0.22009419 0.027416626
0.49640346 0.22098608 0.027411191
0.49643058 0.22187796 0.027405756
0.49729204 0.22240998 0.027948992
0.4973191 0.22330026 0.027943568
0.49734616 0.22419056 0.027938142
0.49737322 0.22508086 0.027932717
0.49740028 0.22597115 0.027927293
0.49742734 0.22686145 0.027921867
0.4974544 0.22775175 0.027916443
0.49748147 0.22864203 0.027911017
0.49750853 0.22953232 0.027905591
0.49753559 0.23042263 0.027900167
0.49756265 0.23131292 0.027894741
0.49758971 0.2322032 0.027889315
0.49761677 0.2330935 0.027883891
0.49764383 0.2339838 0.027878465
0.49767089 0.23487408 0.027873039
0.49769795 0.23576437 0.027867615
0.49855858 0.23626933 0.028411023
0.49858561 0.23715802 0.028405609
0.49861261 0.23804672 0.028400192
0.49863961 0.23893543 0.028394777
0.49866664 0.23982412 0.028389361
0.49869365 0.24071282 0.028383946
0.49872068 0.24160151 0.028378529
0.49874768 0.24249023 0.028373115
0.49877468 0.24337894 0.0283677
0.49880171 0.24426763 0.028362283
0.49882871 0.24515633 0.028356869
0.49885574 0.24604504 0.028351452
0.49888274 0.24693373 0.028346037
0.49890974 0.24782243 0.028340621
0.49893677 0.24871114 0.028335206
0.49979663 0.24919058 0.028878763
0.4998236 0.25007769 0.028873358
0.49985057 0.25096479 0.028867953
0.49987751 0.25185192 0.028862547
0.49990448 0.25273904 0.028857142
0.49993145 0.25362614 0.028851734
0.50079095 0.25409445 0.02939536
0.50081789 0.25497997 0.029389964
0.50084484 0.25586548 0.029384568
0.50087172 0.25675097 0.029379172
0.50173104 0.2572113 0.029922878
0.50175792 0.25809523 0.029917493
0.5017848 0.25897914 0.029912107
0.50181168 0.25986308 0.02990672
0.50183851 0.26074702 0.029901333
0.50269753 0.26119781 0.030445069
0.50272435 0.2620801 0.030439692
0.50275117 0.26296246 0.030434316
0.50360996 0.26340687 0.030978089
0.50363672 0.26428759 0.030972723
0.50366348 0.26516837 0.030967357
0.50369024 0.26604909 0.030961988
0.50371706 0.26692984 0.030956622
0.50374383 0.26781055 0.030951256
0.50377059 0.2686913 0.030945888
0.50379735 0.26957205 0.030940522
0.50382411 0.27045277 0.030935155
0.50385088 0.27133352 0.030929787
0.50387764 0.27221423 0.030924421
0.48906362 0.18310969 0.022569874
0.48909113 0.18401431 0.022564363
0.48911861 0.18491894 0.022558849
0.48914611 0.18582357 0.022553338
0.48917362 0.18672818 0.022547824
0.4892011 0.18763281 0.022542313
0.48922861 0.18853745 0.022536799
0.48925611 0.18944208 0.022531288
0.48928359 0.1903467 0.022525774
0.4893111 0.19125134 0.022520263
0.48933858 0.19215596 0.022514749
0.48936608 0.19306058 0.022509238
0.49022862 0.19366111 0.02305329
0.49025607 0.19456416 0.023047788
0.49028352 0.19546719 0.023042286
0.49031097 0.19637023 0.023036782
0.49117327 0.19696279 0.023580885
0.49120066 0.19786423 0.023575392
0.49206287 0.19845203 0.024119554
0.4920902 0.19935186 0.02411407
0.49211755 0.20025173 0.024108587
0.49297953 0.20083314 0.024652757
0.49300683 0.2017314 0.024647284
0.49386862 0.20230804 0.025191484
0.49389589 0.20320472 0.025186019
0.49392313 0.20410137 0.025180556
0.49478474 0.20467164 0.025724797
0.49481195 0.20556672 0.025719341
0.49483916 0.20646179 0.025713887
0.49486637 0.20735686 0.025708433
0.49489358 0.20825194 0.025702979
0.49492079 0.20914702 0.025697524
0.49578205 0.20970613 0.02624183
0.4958092 0.2105996 0.026236385
0.49583638 0.2114931 0.026230941
0.49586353 0.21238658 0.026225496
0.49589068 0.21328005 0.026220052
0.49591783 0.21417353 0.026214607
0.49594501 0.21506701 0.026209163
0.49680594 0.21561337 0.026753582
0.49683306 0.21650526 0.026748147
0.49686015 0.21739714 0.026742712
0.49688727 0.21828903 0.026737276
0.49691436 0.21918091 0.026731841
0.49694148 0.22007281 0.026726406
0.4969686 0.2209647 0.026720971
0.49699569 0.22185658 0.026715538
0.49702281 0.22274846 0.026710102
0.49704993 0.22364035 0.026704667
0.49707702 0.22453225 0.026699232
0.49710414 0.22542413 0.026693797
0.49713126 0.226316 0.026688362
0.49799144 0.22684011 0.027232882
0.4980185 0.22773039 0.027227456
0.49804556 0.22862068 0.027222032
0.49807265 0.22951098 0.027216606
0.49809971 0.23040128 0.02721118
0.49812678 0.23129156 0.027205756
0.49815384 0.23218186 0.02720033
0.4981809 0.23307216 0.027194906
0.49820796 0.23396245 0.02718948
0.49823502 0.23485275 0.027184054
0.49826208 0.23574303 0.02717863
0.49828914 0.23663333 0.027173204
0.4983162 0.23752362 0.027167778
0.49834326 0.23841392 0.027162354
0.49837032 0.23930421 0.027156929
0.49839738 0.2401945 0.027151503
0.49842444 0.2410848 0.027146079
0.4984515 0.24197508 0.027140653
0.49847856 0.24286538 0.027135229
0.49850562 0.24375568 0.027129803
0.49853268 0.24464597 0.027124377
0.49855974 0.24553625 0.027118953
0.4985868 0.24642655 0.027113527
0.49861386 0.24731685 0.027108101
0.49947286 0.24780113 0.027652863
0.49949986 0.24868983 0.027647449
0.49952689 0.24957852 0.027642032
0.49955389 0.25046721 0.027636617
0.49958092 0.25135592 0.027631203
0.49960792 0.25224465 0.027625786
0.49963492 0.25313333 0.027620371
0.50049353 0.25360486 0.02816521
0.50052053 0.25449198 0.028159805
0.50054747 0.25537908 0.028154399
0.50057441 0.25626618 0.028148994
0.50060141 0.2571533 0.028143588
0.50145972 0.25761527 0.028688485
0.50148666 0.25850078 0.028683089
0.50151354 0.2593863 0.028677693
0.50237173 0.25984189 0.029222665
0.50239861 0.26072583 0.029217279
0.50242549 0.26160973 0.029211892
0.50328338 0.26205897 0.029756868
0.5033102 0.2629413 0.029751491
0.50333703 0.26382363 0.029746115
0.5041948 0.26426649 0.030291129
0.50339067 0.26558831 0.02973536
0.50424832 0.26602796 0.030280394
0.50427508 0.26690871 0.030275028
0.50430185 0.26778942 0.030269662
0.50432861 0.2686702 0.030264294
0.50435543 0.26955092 0.030258927
0.50438219 0.27043164 0.030253561
0.50440896 0.27131242 0.030248193
0.48963681 0.183088 0.021869794
0.48966432 0.18399261 0.02186428
0.48969182 0.18489724 0.021858769
0.4897193 0.18580188 0.021853255
0.48974681 0.1867065 0.021847744
0.48893994 0.18790403 0.021291498
0.48896748 0.18881026 0.021285977
0.48899502 0.18971649 0.021280454
0.48902258 0.1906227 0.021274932
0.48905012 0.1915289 0.021269409
0.48907766 0.19243515 0.021263888
0.48910519 0.19334136 0.021258365
0.48913276 0.19424757 0.021252843
0.4891603 0.1951538 0.02124732
0.49002177 0.19575278 0.021792617
0.49088314 0.19634858 0.022337934
0.49091059 0.1972516 0.02233243
0.49093804 0.19815466 0.022326928
0.49179924 0.19874407 0.022872282
0.49182662 0.1996455 0.022866789
0.49268773 0.20023015 0.023412205
0.49271506 0.20112999 0.023406722
0.49274242 0.20202984 0.023401238
0.49360329 0.20260812 0.023946662
0.49363059 0.20350638 0.023941187
0.49449128 0.20407987 0.024486639
0.49451855 0.20497653 0.024481175
0.49454579 0.20587321 0.02447571
0.4954063 0.20644033 0.025021203
0.49543351 0.2073354 0.025015747
0.49546072 0.20823048 0.025010293
0.49548793 0.20912556 0.02500484
0.49551511 0.21002062 0.024999386
0.49554232 0.21091568 0.02499393
0.49556953 0.21181077 0.024988476
0.49642965 0.21236515 0.025534045
0.4964568 0.21325864 0.0255286
0.49648398 0.21415211 0.025523156
0.49651113 0.2150456 0.025517711
0.49653828 0.21593906 0.025512267
0.49656543 0.21683253 0.025506822
0.49659261 0.21772601 0.025501376
0.49661976 0.21861951 0.025495932
0.49664691 0.21951298 0.025490487
0.49667406 0.22040646 0.025485042
0.49670124 0.22129995 0.025479598
0.49756083 0.2218352 0.026025316
0.49758792 0.22272708 0.026019881
0.49761504 0.22361897 0.026014445
0.49764216 0.22451086 0.02600901
0.49766925 0.22540274 0.026003575
0.49769637 0.22629462 0.025998142
0.49772349 0.22718653 0.025992706
0.49775058 0.22807841 0.025987271
0.4977777 0.22897029 0.025981836
0.49780479 0.22986215 0.025976401
0.49783191 0.23075406 0.025970966
0.49785903 0.23164594 0.025965532
0.49788612 0.23253782 0.025960097
0.49791324 0.23342972 0.025954662
0.49794036 0.23432159 0.025949227
0.49796745 0.23521349 0.025943791
0.49799457 0.23610537 0.025938356
0.49885324 0.23661199 0.026484216
0.4988803 0.23750228 0.026478792
0.49890736 0.23839256 0.026473366
0.49893442 0.23928288 0.02646794
0.49896148 0.24017316 0.026462516
0.49898854 0.24106345 0.02645709
0.4990156 0.24195375 0.026451666
0.49904266 0.24284405 0.02644624
0.49906972 0.24373433 0.026440814
0.49909678 0.24462461 0.02643539
0.49912384 0.24551491 0.026429964
0.4991509 0.24640521 0.026424538
0.49917796 0.2472955 0.026419114
0.49920502 0.2481858 0.026413688
0.49923208 0.2490761 0.026408263
0.49925914 0.24996638 0.026402839
0.4992862 0.25085667 0.026397413
0.49931327 0.25174695 0.026391989
0.49934033 0.25263727 0.026386563
0.50019801 0.25311202 0.026932616
0.50022507 0.25400072 0.026927201
0.50025207 0.25488943 0.026921785
0.50027907 0.25577813 0.02691637
0.50113654 0.25624493 0.027462471
0.50116348 0.25713202 0.027457066
0.50119048 0.25801915 0.02745166
0.50121742 0.25890625 0.027446255
0.50124437 0.25979334 0.027440848
0.50210154 0.2602506 0.027987007
0.50212848 0.26113611 0.027981611
0.50298554 0.26158854 0.028527835
0.50301242 0.26247245 0.028522449
0.5030393 0.26335639 0.028517062
0.50306612 0.26424032 0.028511675
0.50392294 0.2646848 0.029057914
0.50394976 0.26556715 0.029052537
0.50397658 0.26644948 0.029047159
0.50483316 0.26688761 0.029593434
0.50485992 0.26776832 0.029588068
0.50488669 0.26864907 0.0295827
0.50491345 0.26952982 0.029577333
0.4902375 0.18397093 0.021164197
0.49026501 0.18487556 0.021158686
0.49029252 0.1857802 0.021153172
0.4894866 0.18697609 0.020595709
0.48951414 0.1878823 0.020590186
0.48870832 0.18908302 0.020032657
0.48873591 0.18999083 0.020027125
0.48876351 0.19089863 0.020021593
0.48879111 0.19180644 0.020016061
0.48881871 0.19271427 0.020010529
0.4888463 0.19362207 0.020004997
0.48887387 0.19452988 0.019999465
0.4897345 0.19513208 0.020546008
0.48976204 0.19603829 0.020540485
0.49062246 0.19663572 0.021087022
0.49064997 0.19754033 0.021081509
0.49067745 0.19844498 0.021075998
0.49153769 0.19903603 0.021622576
0.49156514 0.19993907 0.021617074
0.4924252 0.20052536 0.02216368
0.49245262 0.20142679 0.022158187
0.4933126 0.20200826 0.022704856
0.49333996 0.20290811 0.022699373
0.49419972 0.20348483 0.023246035
0.49422705 0.20438309 0.023240563
0.49425435 0.20528135 0.023235088
0.49511394 0.20585172 0.023781793
0.49514118 0.20674838 0.023776328
0.49516845 0.20764503 0.023770865
0.49519569 0.20854169 0.0237654
0.49605507 0.20910411 0.024312152
0.49608228 0.20999916 0.024306696
0.49610946 0.21089423 0.024301242
0.49613667 0.21178931 0.024295788
0.49616387 0.21268438 0.024290334
0.49619108 0.21357945 0.024284879
0.49621829 0.2144745 0.024279425
0.4962455 0.2153696 0.024273971
0.49627271 0.21626467 0.024268517
0.49713159 0.21681112 0.024815368
0.49715874 0.21770459 0.024809923
