# .PCD v0.7 - Point Cloud Data file format
VERSION 0.7
FIELDS x y z
SIZE 4 4 4
TYPE F F F
COUNT 1 1 1
WIDTH 1340
HEIGHT 1
VIEWPOINT 0 0 0 1 0 0 0
POINTS 1340
DATA ascii
0.5546065 0.019426072 0.02272933
0.55463135 0.020244695 0.02272434
0.55386043 0.021062979 0.022112431
0.55308962 0.021884447 0.021500541
0.55231887 0.022709101 0.020888628
0.55154824 0.023536941 0.020276697
0.55077767 0.024367966 0.019664712
0.55000722 0.025202176 0.019052742
0.54923689 0.026039571 0.018440753
0.54846668 0.026880151 0.017828746
0.54769653 0.027723916 0.017216718
0.54772186 0.028556874 0.017211642
0.54695183 0.029405419 0.016599551
0.54618192 0.030257149 0.015987474
0.54541212 0.031112062 0.015375379
0.54464239 0.031970162 0.014763264
0.5446679 0.032809492 0.014758149
0.54389834 0.033672366 0.014146005
0.54392391 0.034513291 0.014140881
0.54315448 0.035380945 0.013528671
0.54238516 0.036251787 0.012916478
0.54241079 0.037095893 0.012911335
0.54164159 0.037971511 0.012299113
0.54087257 0.038850315 0.011686872
0.54089832 0.03969761 0.011681709
0.5401293 0.040581193 0.011069402
0.53936046 0.041467957 0.010457112
0.53938633 0.042318437 0.01045193
0.53861767 0.043209981 0.0098396111
0.53784907 0.04410471 0.0092272731
0.53708059 0.045002628 0.0086149154
0.53710657 0.04585788 0.0086097037
0.53633815 0.046760578 0.0079972818
0.53556991 0.047666457 0.0073848758
0.53480178 0.048575521 0.0067724502
0.53482789 0.049435556 0.0067672096
0.53326571 0.050403211 0.0055475044
0.53249782 0.051321827 0.0049350206
0.53173006 0.052243631 0.0043225177
0.53016835 0.053227212 0.0031027519
0.52940083 0.054156981 0.002490164
0.52783948 0.055151708 0.0012703305
0.52707219 0.056089438 0.00065773021
0.52471733 0.057160277 -0.0011694893
0.56434315 -0.017251534 0.030224804
0.56436741 -0.016453613 0.030219942
0.56439167 -0.015655693 0.030215079
0.56441593 -0.014857773 0.030210217
0.56444019 -0.014059853 0.030205354
0.56446445 -0.013261932 0.030200493
0.56528556 -0.012396738 0.030803375
0.56530976 -0.011600411 0.030798521
0.5661307 -0.010740001 0.031401396
0.56615484 -0.0099452678 0.031396553
0.56617898 -0.0091505311 0.03139171
0.56699973 -0.0082964916 0.031994626
0.56702381 -0.0075033447 0.031989794
0.56704795 -0.0067102052 0.031984959
0.56707203 -0.0059170625 0.031980127
0.56709617 -0.0051239231 0.031975292
0.56712025 -0.0043307799 0.03197046
0.56714439 -0.0035376407 0.031965628
0.56716847 -0.0027444975 0.031960793
0.56719261 -0.0019513582 0.031955961
0.56721669 -0.0011582114 0.031951126
0.56724083 -0.00036507208 0.031946294
0.56726491 0.00042807098 0.031941462
0.56649303 0.0011810183 0.031328753
0.56651717 0.0019757512 0.03132391
0.56574541 0.002733476 0.030711174
0.56497371 0.0034943854 0.030098384
0.56499797 0.0042923037 0.030093521
0.56422651 0.0050579929 0.029480737
0.56425077 0.0058575049 0.029475864
0.56347942 0.0066279713 0.028863052
0.5635038 0.0074290754 0.02885817
0.56273258 0.0082043186 0.028245326
0.56196147 0.0089827478 0.027632464
0.56198591 0.0097870389 0.027627563
0.56121486 0.010570245 0.027014636
0.560444 0.011356637 0.026401725
0.56046855 0.012164114 0.026396804
0.55969781 0.012955285 0.025783865
0.55892718 0.01374964 0.025170904
0.55895185 0.014560299 0.025165964
0.55818129 0.015359434 0.024552941
0.5574109 0.016161753 0.023939934
0.55664062 0.016967256 0.023326905
0.55666542 0.017782696 0.023321936
0.55589527 0.018592978 0.02270888
0.55512518 0.019406445 0.022095803
0.5543552 0.020223096 0.021482673
0.55358535 0.021042936 0.020869559
0.55281556 0.021865956 0.020256424
0.55204594 0.022692166 0.019643271
0.55207098 0.023517162 0.019638244
0.55130142 0.024348147 0.019025026
0.55053198 0.02518232 0.018411823
0.54976267 0.026019676 0.017798603
0.54899347 0.026860218 0.017185362
0.54822433 0.027703946 0.016572101
0.54745525 0.02855086 0.015958786
0.54668629 0.029400958 0.015345487
0.54591745 0.030254241 0.014732169
0.5459429 0.031091977 0.014727064
0.54517424 0.031950038 0.014113716
0.54440564 0.032811284 0.01350035
0.54443121 0.033652205 0.013495225
0.54366267 0.034518234 0.012881793
0.5428943 0.035387442 0.012268377
0.54291999 0.036231548 0.012263234
0.54215175 0.037105538 0.011649789
0.54138368 0.03798271 0.011036324
0.54140943 0.038830001 0.011031162
0.54064137 0.039711956 0.010417633
0.53987354 0.040597092 0.0098041212
0.53989935 0.041447569 0.0097989384
0.53913164 0.042337481 0.0091853961
0.53836399 0.043230582 0.0085718352
0.53759646 0.044126868 0.0079582548
0.53762245 0.044982124 0.0079530431
0.53685504 0.045883186 0.0073393974
0.53608775 0.046787437 0.006725769
0.53532058 0.047694869 0.0061121201
0.53534669 0.048554901 0.0061068791
0.53457963 0.049467113 0.0054932022
0.53301948 0.050436284 0.0042710225
0.53225267 0.051356457 0.0036572972
0.53148597 0.052279815 0.003043551
0.5299263 0.053264912 0.0018212743
0.52836692 0.05425638 0.00059899641
0.52760059 0.055192478 -1.4827408e-05
0.52604145 0.056195095 -0.0012372109
0.56482446 -0.01806858 0.029612165
0.56484872 -0.017270664 0.029607302
0.56487298 -0.016472744 0.02960244
0.56489724 -0.015674824 0.029597577
0.5649215 -0.014876903 0.029592715
0.56494576 -0.014078983 0.029587852
0.56576592 -0.013212156 0.030191958
0.56579012 -0.01241583 0.030187106
0.56581432 -0.011619504 0.030182254
0.56663424 -0.010759055 0.030786362
0.56665838 -0.0099643217 0.030781519
0.56668258 -0.0091695851 0.030776676
0.56750226 -0.0083155073 0.031380821
0.5675264 -0.0075223604 0.031375989
0.56755048 -0.006729221 0.031371154
0.56757462 -0.0059360783 0.031366322
0.5675987 -0.0051429388 0.03136149
0.56762284 -0.0043497956 0.031356655
0.56764692 -0.0035566564 0.031351823
0.56767106 -0.0027635132 0.031346988
0.56769514 -0.001970374 0.031342156
0.56771928 -0.0011772271 0.031337325
0.56774336 -0.00038408779 0.031332489
0.56697243 0.0003672296 0.030718561
0.56699657 0.0011619645 0.030713718
0.56622583 0.0019180572 0.030099759
0.56625003 0.0027143839 0.030094907
0.56547934 0.0034752551 0.029480882
0.5655036 0.0042731734 0.029476019
0.56473309 0.0050388244 0.028862001
0.5639627 0.0058076591 0.028247965
0.56398702 0.0066087646 0.028243084
0.56321681 0.0073823766 0.02762902
0.56244659 0.0081591755 0.027014934
0.56247109 0.0089634648 0.027010033
0.561701 0.0097450409 0.026395883
0.56093109 0.010529803 0.025781749
0.56095564 0.011337277 0.025776828
0.56018585 0.012126818 0.025162665
0.55941617 0.012919543 0.024548484
0.55944085 0.013730204 0.024543542
0.5586713 0.014527705 0.023929296
0.55790186 0.015328393 0.023315066
0.5579266 0.01614224 0.023310106
0.55715728 0.016947705 0.022695847
0.55638808 0.017756358 0.022081567
0.555619 0.018568194 0.021467268
0.55484998 0.019383214 0.020852914
0.55408108 0.020201422 0.020238576
0.55410606 0.021023232 0.02023357
0.55333734 0.021846216 0.019619202
0.55256867 0.022672387 0.019004818
0.55180007 0.023501743 0.018390376
0.55103159 0.024334284 0.017775951
0.55026323 0.02517001 0.017161507
0.54949498 0.026008921 0.016547043
0.5487268 0.026851017 0.01593256
0.54795867 0.0276963 0.015318021
0.54719067 0.028544767 0.0147035
0.54721612 0.029380912 0.014698406
0.54644829 0.030234156 0.014083854
0.54568052 0.031090587 0.013469283
0.54491287 0.031950202 0.012854694
0.54493845 0.032791123 0.012849569
0.54417092 0.033655521 0.012234914
0.54340351 0.0345231 0.011620276
0.5434292 0.035367206 0.011615132
0.54266191 0.036239561 0.011000465
0.54189479 0.037115104 0.010385779
0.54192054 0.037962396 0.010380615
0.54115349 0.038842719 0.0097658634
0.54038656 0.039726224 0.0091511281
0.53961974 0.040612914 0.0085363733
0.53964561 0.041464984 0.0085311811
0.53887898 0.042356454 0.0079163974
0.5381124 0.043251108 0.0073015937
0.53734589 0.044148948 0.0066867345
0.53737193 0.045005798 0.006681513
0.5366056 0.045908414 0.0060666627
0.53583938 0.046814218 0.0054517915
0.53507322 0.047723204 0.0048369006
0.53509939 0.04858483 0.0048316498
0.53433335 0.049498599 0.0042166938
0.53277534 0.050469279 0.0029920756
0.5320096 0.051391009 0.0023771073
0.53124392 0.052315924 0.0017621209
0.52968633 0.053302538 0.00053736911
0.52812898 0.054295518 -0.00068738504
0.56533009 -0.018087711 0.028994663
0.56535435 -0.017289795 0.028989799
0.56537861 -0.016491873 0.028984938
0.56540281 -0.015693953 0.028980074
0.56542706 -0.014896033 0.028975213
0.56545132 -0.014098113 0.028970351
0.56627047 -0.013231249 0.029575689
0.56629467 -0.012434922 0.029570837
0.56631887 -0.011638596 0.029565984
0.56713784 -0.010778109 0.030171325
0.56716198 -0.0099833757 0.030166483
0.56798071 -0.0091276662 0.030771852
0.56800485 -0.0083345231 0.030767018
0.56802893 -0.0075413762 0.030762184
0.56805307 -0.0067482367 0.030757351
0.56807715 -0.005955094 0.030752517
0.56810129 -0.0051619546 0.030747686
0.56812537 -0.0043688114 0.030742852
0.56814951 -0.0035756719 0.030738018
0.56817359 -0.002782529 0.030733185
0.56819773 -0.0019893895 0.030728353
0.56822181 -0.0011962429 0.03072352
0.56745183 -0.0004465573 0.030108366
0.56747597 0.0003481757 0.030103523
0.56670618 0.0011026384 0.029488342
0.56673038 0.0018989651 0.02948349
0.56596065 0.0026582025 0.028868243
0.5659849 0.0034561248 0.02886338
0.56521535 0.0042201439 0.028248141
0.56444591 0.0049873465 0.027632881
0.56447029 0.0057884525 0.027627999
0.56370097 0.006560436 0.02701271
0.56372541 0.0073631317 0.027007818
0.56295621 0.0081398925 0.026392503
0.56218714 0.008919837 0.025777128
0.56141818 0.0097029684 0.025161773
0.56144273 0.010510444 0.025156852
0.56067395 0.011298351 0.024541466
0.55990523 0.012089447 0.023926061
0.55992985 0.012900108 0.023921121
0.55916125 0.013695979 0.023305651
0.55839276 0.014495034 0.022690197
0.5584175 0.015308881 0.022685239
0.5576492 0.016112717 0.022069756
0.55688095 0.016919738 0.021454254
0.55611283 0.017729942 0.020838732
0.55534476 0.018543333 0.020223156
0.55536968 0.01936355 0.020218156
0.55460179 0.020181719 0.019602587
0.55383402 0.021003073 0.018986998
0.55306631 0.021827612 0.01837139
0.55229867 0.022655338 0.017755724
0.5515312 0.023486247 0.017140077
0.55076379 0.024320344 0.01652441
0.54999644 0.025157623 0.015908724
0.55002171 0.025988989 0.015903657
0.5492546 0.026831048 0.015287942
0.54848748 0.027676292 0.014672171
0.54772049 0.028524721 0.014056418
0.54695362 0.029376335 0.013440643
0.54618686 0.030231135 0.01282485
0.54542017 0.03108912 0.012209038
0.54544574 0.031930041 0.012203914
0.54467916 0.032792807 0.011588035
0.54391271 0.033658754 0.010972175
0.54393834 0.03450286 0.010967031
0.54317206 0.035373587 0.010351141
0.5424059 0.036247499 0.0097352304
0.54163975 0.037124597 0.0091192657
0.54166555 0.037973482 0.0091140931
0.54089957 0.038855355 0.008498135
0.54013371 0.039740417 0.0078821564
0.54015964 0.040592484 0.0078769643
0.5393939 0.041482322 0.0072609582
0.53862834 0.042375345 0.006644933
0.53786278 0.043271556 0.0060288501
0.53788882 0.044128407 0.0060236286
0.53712344 0.045029391 0.0054075546
0.53635818 0.045933563 0.0047914609
0.53559297 0.046840921 0.0041753468
0.53482783 0.047751464 0.003559178
0.53485411 0.048614684 0.0035539179
0.53408915 0.049530007 0.0029377565
0.53253317 0.050502203 0.0017106632
0.5317685 0.051425487 0.0010944533
0.53100383 0.052351959 0.00047818758
0.52944839 0.053340085 -0.00074900268
0.56583565 -0.018106841 0.02837716
0.56585991 -0.017308924 0.028372297
0.56588417 -0.016511004 0.028367436
0.56590843 -0.015713084 0.028362574
0.56593269 -0.014915164 0.028357711
0.56675088 -0.014046668 0.028964272
0.56677508 -0.013250341 0.02895942
0.56679928 -0.012454014 0.028954567
0.56761724 -0.011591895 0.02956113
0.56764138 -0.010797163 0.029556287
0.56766552 -0.01000243 0.029551445
0.56768966 -0.0092076929 0.029546602
0.56850737 -0.0083535388 0.030153213
0.56853151 -0.0075603919 0.03014838
0.56855559 -0.0067672525 0.030143548
0.56857973 -0.0059741093 0.030138714
0.56860381 -0.0051809703 0.030133881
0.56862795 -0.0043878271 0.030129047
0.56865203 -0.0035946877 0.030124214
0.56867617 -0.0028015447 0.030119382
0.56870025 -0.0020084053 0.030114548
0.56793123 -0.0012603479 0.029498173
0.56795537 -0.0004656112 0.02949333
0.56718653 0.00028721971 0.028876925
0.56721073 0.0010835464 0.028872073
0.56644195 0.0018411539 0.028255602
0.56646621 0.0026390722 0.028250741
0.56569767 0.0034014634 0.027634278
0.56492919 0.0041670362 0.027017795
0.56495351 0.0049681398 0.027012914
0.5641852 0.0057384917 0.026396403
0.56420958 0.0065411911 0.026391512
0.5634414 0.0073163183 0.025774971
0.56267327 0.0080946321 0.025158376
0.56269777 0.0089005157 0.025153464
0.56192982 0.009683609 0.024536874
0.56116199 0.010469886 0.023920266
0.56039423 0.011259349 0.023303639
0.5604189 0.012070011 0.023298699
0.5596512 0.012864251 0.022682006
0.55888373 0.013661676 0.02206533
0.55890846 0.014475522 0.02206037
0.55814111 0.015277728 0.021443665
0.55737382 0.016083118 0.020826939
0.55660665 0.016891692 0.020210195
0.55663157 0.017710315 0.020205207
0.55586445 0.018523667 0.019588398
0.55509752 0.019340208 0.018971605
0.55433071 0.02015993 0.018354792
0.55356395 0.020982839 0.017737962
0.55358905 0.021807833 0.017732935
0.55282241 0.02263552 0.017116036
0.55205595 0.023466391 0.016499158
0.55128956 0.024300449 0.015882257
0.55052322 0.025137691 0.015265339
0.549757 0.025978118 0.0146484
0.54899091 0.026821733 0.014031406
0.54822487 0.02766853 0.01341443
0.54745895 0.028518515 0.012797433
0.54669315 0.029371683 0.012180417
0.54671866 0.030211011 0.012175302
0.54595298 0.031068958 0.011558257
0.54518735 0.031930093 0.010941157
0.54442191 0.032794409 0.010324073
0.54444754 0.033638515 0.010318928
0.54368222 0.03450761 0.0097018164
0.54291701 0.03537989 0.0090846838
0.54215181 0.03625536 0.0084674954
0.54217762 0.037104245 0.0084623219
0.54141265 0.037984487 0.0078451419
0.54064775 0.038867917 0.007227941
0.53988296 0.039754532 0.0066107218
0.53990889 0.040608194 0.0066055199
0.53914422 0.041499585 0.0059882705
0.53837961 0.042394165 0.0053709662
0.53761518 0.04329193 0.0047536786
0.53764129 0.044150371 0.0047484473
0.53687698 0.045052912 0.0041311309
0.53611273 0.045958634 0.0035137944
0.53534859 0.046867549 0.002896402
0.53458452 0.047779646 0.0022790276
0.53382063 0.048694927 0.0016616328
0.53384697 0.049561333 0.0016563531
0.53229308 0.050535049 0.00042678579
0.53152937 0.05145989 -0.00019070282
0.56634122 -0.018125972 0.027759658
0.56636548 -0.017328056 0.027754797
0.56638974 -0.016530134 0.027749935
0.566414 -0.015732214 0.027745072
0.56723124 -0.01486209 0.028352857
0.56725544 -0.014065759 0.028348004
0.56727964 -0.013269433 0.02834315
0.56730384 -0.012473106 0.028338298
0.56812078 -0.011610949 0.028946094
0.56814492 -0.010816216 0.028941251
0.56816912 -0.010021484 0.028936408
0.56898582 -0.0091656977 0.029544244
0.56900996 -0.0083725546 0.02953941
0.56903404 -0.0075794077 0.029534576
0.56905818 -0.0067862682 0.029529743
0.56908226 -0.005993125 0.029524911
0.5691064 -0.005199986 0.029520078
0.56913048 -0.0044068429 0.029515244
0.56915462 -0.0036137034 0.029510411
0.5691787 -0.0028205602 0.029505577
0.56841063 -0.0020741385 0.02888798
0.56843483 -0.0012794018 0.028883137
0.56845897 -0.00048466507 0.028878294
0.56769109 0.00026812765 0.028260658
0.56692332 0.0010241034 0.027642963
0.56694758 0.0018220237 0.027638102
0.56617993 0.002582781 0.027020415
0.56620425 0.0033822949 0.027015544
0.56543678 0.0041478295 0.02639783
0.56466943 0.0049165497 0.025780095
0.56469381 0.0057192473 0.025775203
0.56392658 0.0064927461 0.02515744
0.56315941 0.0072694281 0.024539622
0.5631839 0.0080753118 0.024534712
0.56241691 0.0088567715 0.0239169
0.56165004 0.0096414201 0.023299068
0.56167465 0.010450489 0.023294138
0.5609079 0.011239913 0.022676278
0.56014121 0.012032523 0.022058362
0.55937463 0.012828318 0.021440463
0.55939937 0.013642164 0.021435503
0.55863297 0.014442736 0.020817574
0.55786669 0.015246497 0.020199627
0.55710047 0.016053442 0.019581661
0.55712533 0.016872065 0.019576672
0.55635923 0.017683787 0.018958639
0.55559325 0.018498695 0.018340623
0.55482739 0.019316787 0.01772259
0.55485243 0.020140188 0.017717572
0.55408669 0.02096306 0.017099507
0.55332106 0.021789115 0.016481388
0.5525555 0.022618355 0.015863284
0.55179006 0.023450783 0.015245162
0.55102473 0.024286393 0.01462702
0.55025947 0.025125191 0.014008859
0.54949433 0.025967173 0.013390643
0.54872924 0.026812341 0.012772443
0.54875469 0.027648484 0.012767348
0.54798979 0.02849843 0.012149119
0.547225 0.02935156 0.01153087
0.54646027 0.030207876 0.010912603
0.5456956 0.031067379 0.010294278
0.54493111 0.031930067 0.0096759722
0.54495674 0.032774173 0.0096708285
0.54419237 0.033641636 0.0090524917
0.54342812 0.034512285 0.0084341373
0.54266387 0.035386123 0.0078157261
0.54268968 0.036235008 0.0078105531
0.54192567 0.037113622 0.0071921498
0.54116172 0.03799542 0.006573726
0.54039788 0.0388804 0.005955284
0.53963417 0.039768573 0.0053368215
0.53966016 0.040623825 0.0053316099
0.5388965 0.041516777 0.0047130827
0.53813303 0.042412907 0.0040945718
0.53815907 0.043271348 0.0040893406
0.53739578 0.044172257 0.0034708015
0.53663248 0.045076355 0.002852242
0.5358693 0.045983635 0.0022336277
0.53510624 0.046894103 0.0016150294
0.53434324 0.047807753 0.00099641248
0.53358036 0.048724588 0.00037777543
0.5328176 0.049644612 -0.00024088031
0.5320549 0.050567821 -0.00085959252
0.56684685 -0.018145101 0.027142158
0.56687105 -0.017347185 0.027137294
0.56689531 -0.016549265 0.027132433
0.56771159 -0.015677508 0.02774144
0.56773579 -0.014881182 0.027736587
0.56775999 -0.014084851 0.027731733
0.56778419 -0.013288525 0.027726881
0.56860018 -0.012424736 0.028335901
0.56862432 -0.011630003 0.028331058
0.56864852 -0.01083527 0.028326215
0.56946427 -0.0099778529 0.028935272
0.56948841 -0.0091847135 0.028930439
0.56951249 -0.0083915703 0.028925605
0.56953663 -0.0075984234 0.028920773
0.56956071 -0.0068052839 0.02891594
0.56958485 -0.0060121408 0.028911106
0.56960893 -0.0052190013 0.028906273
0.56963307 -0.0044258586 0.028901439
0.56965715 -0.0036327192 0.028896607
0.56889004 -0.0028879254 0.028277785
0.56891423 -0.0020931924 0.028272942
0.56893837 -0.0012984558 0.028268099
0.5681715 -0.00054729107 0.027649241
0.56740463 0.00020705462 0.027030325
0.56742889 0.0010049731 0.027025461
0.56666225 0.0017641004 0.026406553
0.56668657 0.0025636125 0.026401682
0.56592005 0.0033275171 0.025782743
0.56594437 0.0041286228 0.025777863
0.56517804 0.0048973048 0.025158895
0.56441176 0.0056691719 0.02453991
0.5644362 0.006473463 0.024535008
0.56367004 0.0072501069 0.023915958
0.562904 0.0080299368 0.023296922
0.56213808 0.0088129528 0.022677869
0.5621627 0.0096220225 0.022672938
0.5613969 0.010409817 0.022053855
0.56063116 0.011200795 0.021434717
0.55986559 0.011994961 0.020815594
0.55989033 0.012808806 0.020810634
0.55912489 0.013607749 0.020191483
0.55835956 0.014409875 0.019572314
0.5575943 0.015215191 0.018953124
0.55761915 0.016033815 0.018948136
0.55685401 0.016843906 0.018328881
0.55608904 0.017657181 0.017709641
0.55611402 0.018478991 0.017704634
0.55534911 0.019297045 0.017085366
0.55458438 0.020118285 0.016466079
0.55381966 0.02094271 0.015846737
0.55305511 0.021770319 0.015227411
0.55229062 0.022601115 0.014608066
0.55152625 0.023435095 0.013988702
0.55076194 0.024272261 0.013369318
0.55078727 0.025105219 0.013364241
0.55002308 0.025947165 0.012744792
0.54925907 0.026792293 0.01212536
0.54849511 0.027640609 0.011505907
0.54773128 0.028492108 0.010886436
0.54696751 0.029346794 0.010266946
0.54620385 0.030204665 0.0096473992
0.54622942 0.031047178 0.0096422648
0.54546595 0.031909827 0.0090227267
0.54470253 0.032775659 0.0084031681
0.54393923 0.03364468 0.0077835894
0.54317594 0.034516886 0.0071639558
0.54320174 0.035365772 0.0071587828
0.54243869 0.036242753 0.0065391562
0.54167575 0.03712292 0.0059195105
0.54091287 0.038006272 0.0052998452
0.54015005 0.038892809 0.00468016
0.54017603 0.039748065 0.0046749483
0.53941339 0.040639386 0.0040551983
0.53865087 0.041533887 0.0034354646
0.53788841 0.042431571 0.002815712
0.53791457 0.043291606 0.0028104712
0.53715223 0.044194069 0.0021906898
0.53639001 0.045099724 0.0015708517
0.5356279 0.046008557 0.00095103122
0.53486592 0.046920579 0.00033119073
0.53410399 0.047835782 -0.0002886685
0.53334218 0.048754174 -0.00090854708
0.56816775 -0.017289255 0.027134877
0.56819195 -0.016492927 0.027130023
0.56821615 -0.0156966 0.02712517
0.56824034 -0.014900275 0.027120318
0.56905544 -0.01403326 0.027730551
0.5682888 -0.013307617 0.027110612
0.56910378 -0.01244379 0.027720865
0.56912792 -0.011649057 0.027716022
0.56915206 -0.010854324 0.027711179
0.56996685 -0.0099968677 0.028321467
0.56999093 -0.0092037292 0.028316636
0.57001507 -0.008410586 0.028311802
0.57003915 -0.0076174391 0.028306969
0.57006329 -0.0068242997 0.028302135
0.57008737 -0.0060311565 0.028297301
0.57011151 -0.0052380171 0.02829247
0.57013559 -0.0044448744 0.028287636
0.56936949 -0.0037017122 0.027667591
0.56939363 -0.0029069793 0.027662748
0.56941777 -0.0021122464 0.027657906
0.56865185 -0.0013627098 0.027037824
0.56788599 -0.00060999597 0.026417686
0.56791019 0.00018792438 0.026412822
0.56714451 0.00094541989 0.025792692
0.56716883 0.001744932 0.025787819
0.56640327 0.0025072047 0.025167659
0.56642765 0.0033083104 0.025162779
0.56566226 0.0040753623 0.024542589
0.56489694 0.0048455996 0.02392238
0.56492138 0.0056498889 0.023917478
0.56415617 0.0064249029 0.023297204
0.56339109 0.007203103 0.022676947
0.56341565 0.0080105774 0.022672025
0.56265074 0.0087935552 0.022051739
0.56188589 0.00957972 0.021431433
0.56112117 0.010369067 0.020811072
0.56114584 0.011181321 0.020806123
0.56038123 0.011975449 0.020185769
0.5596168 0.012772759 0.019565394
0.55885237 0.013573255 0.018945001
0.55808812 0.014376937 0.018324589
0.55811298 0.015195564 0.018319599
0.55734879 0.016004022 0.017699121
0.55658478 0.016815668 0.01707866
0.55660975 0.017637478 0.017073652
0.55584586 0.018453902 0.016453162
0.55508202 0.01927351 0.015832651
0.55431831 0.020096304 0.015212087
0.55355465 0.020922285 0.014591538
0.55357987 0.021750465 0.014586492
0.55281639 0.022581222 0.013965914
0.55205303 0.023415163 0.013345317
0.55128974 0.024252292 0.0127247
0.5505265 0.025092606 0.012104028
0.54976344 0.025936102 0.011483373
0.54900044 0.026782786 0.010862699
0.54823756 0.027632656 0.010242004
0.5474748 0.028485712 0.0096212905
0.54750037 0.029326633 0.0096161664
0.54673767 0.030184465 0.0089953868
0.54597515 0.031045483 0.0083746249
0.54521269 0.031909686 0.0077538439
0.54445034 0.032777075 0.0071330429
0.54447609 0.033624366 0.0071278801
0.54371381 0.034496535 0.006507013
0.5429517 0.035371885 0.005886164
0.54218972 0.03625042 0.0052652955
0.54142779 0.037132144 0.0046444065
0.54066598 0.038017049 0.0040234993
0.54069197 0.038872305 0.0040182876
0.53993028 0.039761994 0.0033973146
0.53916866 0.040654864 0.002776358
0.53840721 0.041550919 0.0021553827
0.53764582 0.04245016 0.0015343878
0.53688449 0.043352589 0.00091333664
0.53691071 0.044215806 0.00090807641
0.53614956 0.045123011 0.00028703312
0.53538853 0.046033401 -0.00033402958
0.53462762 0.046946976 -0.0009551117
0.56867236 -0.017308347 0.026518606
0.56869656 -0.01651202 0.026513753
0.56872076 -0.015715692 0.026508901
0.56874496 -0.014919367 0.026504049
0.56876916 -0.014123036 0.026499197
0.56958318 -0.013257581 0.02711067
0.56960732 -0.012462844 0.027105827
0.57042116 -0.011602166 0.02771733
0.56965566 -0.010873378 0.027096141
0.57046938 -0.010015883 0.027707664
0.57049352 -0.009222745 0.027702831
0.5705176 -0.0084296018 0.027697997
0.57054174 -0.0076364549 0.027693164
0.57056582 -0.0068433154 0.027688332
0.57058996 -0.0060501723 0.027683498
0.57061404 -0.0052570328 0.027678665
0.5698489 -0.0045155031 0.027057398
0.56987303 -0.0037207662 0.027052555
0.56989717 -0.0029260332 0.027047712
0.56913221 -0.0021781323 0.026426407
0.56915641 -0.0013818019 0.026421554
0.56839156 -0.00062912621 0.025800183
0.56762683 0.00012673929 0.025178829
0.56765109 0.00092625141 0.025173957
0.56688654 0.0016868942 0.024552574
0.56691086 0.002487998 0.024547692
0.56614643 0.0032534199 0.02392628
0.56538212 0.0040220255 0.023304848
0.56540656 0.0048263166 0.023299947
0.56464231 0.0055996967 0.02267845
0.56387818 0.0063762688 0.022056971
0.56390274 0.0071837436 0.02205205
0.56313878 0.0079650907 0.021430541
0.56237495 0.0087496219 0.020809012
0.56161112 0.0095373392 0.020187426
0.56163579 0.010349593 0.020182477
0.5608722 0.011142089 0.0195609
0.56010866 0.011937771 0.018939303
0.55934525 0.012736636 0.018317688
0.55858195 0.013538687 0.017696053
0.5586068 0.014357311 0.017691063
0.55784357 0.015164141 0.017069362
0.55708051 0.015974155 0.016447678
0.55710548 0.016795965 0.01644267
0.55634254 0.017610759 0.015820958
0.55557972 0.018428735 0.015199225
0.5548169 0.019249899 0.014577436
0.55484205 0.020076487 0.014572399
0.55407941 0.020902429 0.013950618
0.55331695 0.021731554 0.013328818
0.55255455 0.022563865 0.012706998
0.5517922 0.023399364 0.012085158
0.55102998 0.024238046 0.011463263
0.55026782 0.025079913 0.010841385
0.54950583 0.025924966 0.010219488
0.54953128 0.026762702 0.010214383
0.54876941 0.027612533 0.0095924558
0.54800761 0.02846555 0.0089705102
0.54724592 0.029321752 0.0083485087
0.54648435 0.030181138 0.0077265231
0.54572284 0.03104371 0.0071045188
0.54574853 0.031889409 0.0070993653
0.5449872 0.032756761 0.0064773322
0.54422593 0.033627298 0.0058552432
0.54346478 0.034501016 0.0052331705
0.54270369 0.035377923 0.0046110786
0.54272962 0.036229994 0.0046058865
0.5419687 0.037111677 0.0039837658
0.54120791 0.037996545 0.0033616261
0.54044712 0.038884602 0.0027394295
0.5396865 0.039775841 0.0021172506
0.53892601 0.040670265 0.0014950524
0.53816557 0.041567877 0.00087283476
0.53740519 0.042468674 0.00025056067
0.53743142 0.043331891 0.00024530044
0.53667128 0.044237465 -0.00037696573
0.5359112 0.045146227 -0.00099925126
0.56920111 -0.016531112 0.025897486
0.56922531 -0.015734784 0.025892632
0.57003844 -0.014866104 0.026505319
0.57006258 -0.014071368 0.026500477
0.57008672 -0.013276635 0.026495634
0.57011086 -0.012481898 0.026490791
0.57013506 -0.011687165 0.026485948
0.5701592 -0.010892432 0.026481105
0.57018334 -0.010097699 0.026476262
0.57099605 -0.0092417598 0.027089028
0.57102019 -0.0084486175 0.027084194
0.57104427 -0.0076554702 0.027079361
0.57106841 -0.0068623312 0.027074527
0.57030416 -0.0061240229 0.026452048
0.5703283 -0.0053292899 0.026447205
0.57035244 -0.004534557 0.026442362
0.57037657 -0.0037398201 0.026437519
0.56961256 -0.0029935509 0.025814991
0.56963682 -0.0021972244 0.025810139
0.56887287 -0.0014461768 0.025187545
0.56889713 -0.00064825645 0.025182681
0.56813341 0.00010757087 0.024560096
0.56736976 0.0008665818 0.02393749
0.56739414 0.0016676876 0.023932608
0.56663066 0.0024314758 0.023309972
0.56665504 0.0032341753 0.023305081
0.56589174 0.0040027425 0.022682417
0.56512845 0.0047744946 0.022059698
0.56436533 0.0055494308 0.021436995
0.56438982 0.0063569094 0.021432074
0.56362683 0.0071366248 0.020809341
0.56286395 0.0079195257 0.02018659
0.56210113 0.0087056113 0.019563783
0.5621258 0.0095178653 0.019558832
0.56136316 0.01030873 0.018936032
0.56060058 0.01110278 0.018313214
0.55983812 0.011900016 0.017690375
0.55907577 0.012700438 0.017067516
0.55910063 0.013519061 0.017062528
0.55833834 0.014324258 0.016439604
0.55757624 0.015132644 0.015816696
0.55760121 0.015954452 0.015811689
0.55683923 0.016767614 0.015188753
0.55607736 0.017583963 0.014565798
0.55610245 0.018408956 0.01456077
0.55534065 0.019230083 0.013937749
0.55457902 0.020054393 0.013314745
0.55381745 0.020881888 0.012691722
0.553056 0.021712568 0.01206868
0.55229467 0.022546435 0.011445617
0.5515334 0.023383485 0.010822499
0.55077225 0.024223723 0.010199399
0.55079764 0.025059866 0.010194303
0.55003661 0.025904881 0.0095711732
0.5492757 0.026753081 0.0089480244
0.5485149 0.027604466 0.008324855
0.54775411 0.028459039 0.0077016298
0.54699349 0.029316794 0.0070784222
0.54701918 0.0301609 0.0070732785
0.54625869 0.031023435 0.0064500417
0.54549831 0.031889156 0.0058267857
0.54473799 0.032758061 0.0052034734
0.5439778 0.033630148 0.0045801783
0.54400367 0.034480628 0.0045749955
0.54324359 0.035357494 0.0039516715
0.54248369 0.036237545 0.003328328
0.54172379 0.037120786 0.0027049652
0.54096401 0.038007211 0.0020815458
0.54020435 0.038896821 0.001458144
0.5394448 0.039789613 0.00083472295
0.53868532 0.040685594 0.00021128241
0.5379259 0.04158476 -0.00041221388
0.53716666 0.042487111 -0.0010356932
0.53719294 0.043351922 -0.0010409631
0.57051784 -0.015679892 0.025895126
0.57054198 -0.014885158 0.025890283
0.57056612 -0.014090422 0.02588544
0.57059032 -0.013295689 0.025880598
0.57061446 -0.012500952 0.025875755
0.5706386 -0.011706219 0.025870912
0.57145041 -0.010847058 0.02648489
0.57068694 -0.010116753 0.025861226
0.57071108 -0.0093220165 0.025856383
0.57073522 -0.0085272836 0.02585154
0.57075936 -0.0077325464 0.025846697
0.57078356 -0.0069378098 0.025841855
0.5708077 -0.0061430768 0.025837012
0.57083184 -0.0053483439 0.025832169
0.57006878 -0.0046052965 0.025208427
0.57009298 -0.0038089696 0.025203574
0.57011718 -0.003012643 0.025198722
0.56935424 -0.0022632272 0.024574904
0.56937844 -0.0014653071 0.024570042
0.56861567 -0.00071111153 0.023946233
0.56785303 4.6271238e-05 0.023322403
0.56787741 0.00084737514 0.023317521
0.56711489 0.0016095352 0.022693666
0.56713927 0.0024122309 0.022688774
0.56637692 0.0031791702 0.022064887
0.56561458 0.0039492901 0.021440944
0.56563908 0.0047551733 0.021436032
0.56487691 0.0055300714 0.020812096
0.56411493 0.0063081589 0.020188142
0.56335294 0.0070894295 0.019564167
0.56259108 0.0078738835 0.018940138
0.56261575 0.0086861374 0.018935189
0.56185406 0.0094753727 0.018311165
0.5610925 0.010267792 0.017687123
0.56033099 0.011063395 0.017063061
0.5595696 0.011862187 0.01643898
0.55959445 0.012680812 0.016433991
0.55883312 0.013484376 0.015809843
0.55807197 0.014291129 0.015185715
0.55809695 0.015112941 0.015180707
0.55733597 0.01592447 0.014556548
0.556575 0.016739188 0.01393237
0.55660009 0.017564183 0.013927342
0.5558393 0.018383676 0.013303098
0.55507863 0.019206356 0.012678872
0.55431801 0.020032221 0.012054626
0.55355752 0.020861272 0.01143036
0.55358279 0.021692635 0.011425294
0.55282247 0.022526463 0.010801
0.55206215 0.023363477 0.010176648
0.55130202 0.024203677 0.0095523149
0.550542 0.02504706 0.0089279627
0.54978204 0.025893629 0.0083035911
0.5490222 0.026743384 0.0076791989
0.54904771 0.027584305 0.0076740747
0.54828799 0.028438838 0.0070496169
0.54752839 0.029296556 0.0064251767
0.54676884 0.03015746 0.005800717
0.54600942 0.031021548 0.0051762378
0.54525006 0.031888824 0.0045517031
0.54527587 0.032737706 0.0045465305
0.54451668 0.033609759 0.0039220029
0.54375762 0.034484997 0.0032974558
0.54299861 0.035363417 0.0026728895
0.54223973 0.036245026 0.0020483036
0.5414809 0.037129819 0.0014236614
0.54072219 0.038017798 0.00079903676
0.5399636 0.038908962 0.00017439277
0.53998971 0.039768994 0.00016915196
0.53844666 0.040700845 -0.0010749898
0.53847289 0.041564062 -0.00108025
0.57104552 -0.014904212 0.025275247
0.57106972 -0.014109476 0.025270404
0.57109386 -0.013314743 0.025265561
0.571118 -0.012520006 0.025260719
0.57192886 -0.011659213 0.025875919
0.57116634 -0.01093054 0.025251033
0.57119048 -0.010135807 0.02524619
0.57200116 -0.0092797913 0.02586142
0.57123882 -0.0085463366 0.025236504
0.57126296 -0.0077516004 0.025231661
0.5712871 -0.0069568637 0.025226818
0.57131124 -0.0061621307 0.025221976
0.57054913 -0.0054207151 0.024597012
0.57057333 -0.0046243886 0.024592157
0.56981128 -0.0038781983 0.023967128
0.56983554 -0.0030802779 0.023962265
0.5698598 -0.0022823575 0.023957403
0.569098 -0.0015297902 0.02333237
0.56833631 -0.00077403925 0.022707321
0.56836063 2.7064651e-05 0.022702439
0.568385 0.00082816859 0.022697557
0.5676235 0.0015902905 0.022072466
0.56686205 0.0023555958 0.021447357
0.56688654 0.0031598872 0.021442454
0.56612521 0.0039299689 0.02081728
0.565364 0.0047032372 0.020192122
0.56460297 0.0054796929 0.019566944
0.563842 0.0062593338 0.018941747
0.56386662 0.0070699942 0.018936805
0.56310576 0.0078544095 0.018311543
0.56234503 0.0086420132 0.017686296
0.56158435 0.009432802 0.017061032
0.56082386 0.010226775 0.016435748
0.56084865 0.011043807 0.016430769
0.56008828 0.01184256 0.015805455
0.5593279 0.012644497 0.015180086
0.5585677 0.013449618 0.014554732
0.55859268 0.014271426 0.014549725
0.55783266 0.015081327 0.013924344
0.5570727 0.015894413 0.013298943
0.55709773 0.016719408 0.013293915
0.55633789 0.017537272 0.012668449
0.55557817 0.01835832 0.012042999
0.55481857 0.019182555 0.01141753
0.55484378 0.020012327 0.011412474
0.5540843 0.02084134 0.010786976
0.55332494 0.021673536 0.010161459
0.55256557 0.022508919 0.0095358845
0.55180639 0.023347486 0.0089103281
0.55104733 0.024189239 0.0082847532
0.55028832 0.025034178 0.0076591582
0.55031383 0.025873506 0.0076540434
0.549555 0.026723223 0.0070284191
0.54879618 0.027576124 0.0064027384
0.54803753 0.028432213 0.0057770754
0.547279 0.029291485 0.0051513934
0.54652053 0.030153941 0.0045256917
0.54654628 0.031001234 0.0045205285
0.54578793 0.031868469 0.0038947603
0.5450297 0.03273889 0.00326901
0.54427159 0.033612497 0.0026432408
0.5435136 0.034489289 0.0020174515
0.54275566 0.035369266 0.0013916428
0.54199779 0.036252428 0.00076577772
0.54202384 0.037109274 0.00076055632
0.54126614 0.037997216 0.0001346991
0.54050851 0.038888343 -0.00049117679
0.53975105 0.039782651 -0.0011170728
0.5715974 -0.013333797 0.024650525
0.5716216 -0.01253906 0.024645682
0.57164574 -0.011744327 0.02464084
0.57245553 -0.01088509 0.025257282
0.57169402 -0.010154861 0.024631154
0.57171822 -0.0093601244 0.024626311
0.57174236 -0.0085653905 0.024621468
0.5717665 -0.0077706543 0.024616625
0.57100528 -0.0070324605 0.023990447
0.57102948 -0.0062361336 0.023985595
0.57105368 -0.0054398072 0.023980742
0.57029259 -0.0046952488 0.023354489
0.57031685 -0.0038973284 0.023349626
0.57034111 -0.0030994082 0.023344764
0.56958026 -0.0023484726 0.02271851
0.56881952 -0.0015943497 0.022092234
0.5688439 -0.00079324591 0.022087352
0.56886822 7.8580297e-06 0.022082472
0.56810766 0.00076834805 0.021456158
0.56734723 0.0015320217 0.020829827
0.56737167 0.0023363128 0.020824924
0.56661135 0.003104765 0.020198526
0.56585115 0.0038764032 0.019572144
0.56587565 0.0046838778 0.019567225
0.56511563 0.0054602954 0.018940814
0.56435561 0.006239898 0.018314384
0.56359571 0.0070226816 0.017687898
0.56283593 0.0078086555 0.017061429
0.56207627 0.0085978126 0.016434941
0.56210107 0.0094132526 0.016429974
0.56134152 0.010207186 0.015803456
0.5605821 0.011004308 0.01517692
0.55982268 0.011804615 0.014550326
0.55984765 0.012624832 0.014545329
0.55908847 0.013429915 0.013918743
0.55832934 0.014238184 0.013292138
0.55757034 0.01504964 0.012665516
0.55759543 0.015874634 0.012660488
0.55683655 0.016690865 0.012033799
0.55607778 0.017510284 0.011407126
0.55531913 0.018332887 0.010780435
0.55534434 0.01916266 0.010775378
0.55458581 0.01999004 0.010148657
0.5538274 0.020820608 0.0095219165
0.55306906 0.021654358 0.0088951206
0.55231082 0.022491297 0.0082683414
0.55233622 0.02332744 0.0082632462
0.55157816 0.024169154 0.0076364377
0.55082017 0.025014054 0.0070096101
0.5500623 0.025862141 0.0063827639
0.54930443 0.026713412 0.0057558599
0.54854673 0.027567867 0.0051289741
0.54857242 0.028411975 0.0051238304
0.54781485 0.029271208 0.0044969157
0.54705739 0.030133627 0.0038699815
0.54629999 0.030999234 0.0032429905
0.54554272 0.031868022 0.0026160171
0.54478556 0.032739997 0.0019890252
0.54481149 0.033592068 0.0019838328
0.54405445 0.034468822 0.0013568109
0.54329753 0.035348758 0.00072976964
0.54254067 0.036231887 0.00010267263
0.54178399 0.037118193 -0.00052440749
0.54102731 0.038007688 -0.0011515069
0.57212514 -0.012558114 0.024030644
0.57214928 -0.011763381 0.024025802
0.57217348 -0.010968648 0.024020959
0.57219762 -0.010173915 0.024016116
0.57222176 -0.0093791774 0.024011273
0.57146144 -0.0086442092 0.023383884
0.57148564 -0.0078478791 0.023379032
0.57150984 -0.0070515526 0.023374178
0.5707497 -0.0063102162 0.022746712
0.57077396 -0.0055122958 0.02274185
0.57079822 -0.0047143791 0.022736987
0.57003826 -0.0039666654 0.02210952
0.57006258 -0.003167155 0.022104647
0.5693028 -0.0024146677 0.02147715
0.56932712 -0.0016135564 0.021472268
0.56856751 -0.00085629191 0.020844743
0.56859189 -5.3594325e-05 0.020839851
0.56783241 0.00070844928 0.020212295
0.56785685 0.0015127386 0.020207394
0.56709749 0.0022795589 0.019579772
0.56633824 0.003049569 0.018952169
0.56636274 0.0038570438 0.018947247
0.56560367 0.0046318294 0.018319614
0.56484467 0.0054098 0.017691962
0.56408572 0.0061909556 0.017064253
0.5641104 0.0070032077 0.017059304
0.56335163 0.0077891434 0.016431604
0.56259298 0.0085782623 0.015803883
0.56183439 0.0093705673 0.015176143
0.56107593 0.010166057 0.014548384
0.56031746 0.010964732 0.013920568
0.56034243 0.01178495 0.01391557
0.5595842 0.012588403 0.013287762
0.55882603 0.013395041 0.012659935
0.55806804 0.014204864 0.012032088
0.55809307 0.015029861 0.012027061
0.55733514 0.015844461 0.011399148
0.55657732 0.016662247 0.010771253
0.55660254 0.017490428 0.010766206
0.55584484 0.018312993 0.010138283
0.55508733 0.019138744 0.0095103383
0.55432987 0.019967679 0.0088823754
0.55357248 0.020799801 0.0082543558
0.55359781 0.02163435 0.0082492707
0.55284059 0.022471249 0.0076212585
0.55208349 0.023311334 0.0069932276
0.55132645 0.024154603 0.0063651777
0.55056953 0.025001058 0.0057371077
0.5505951 0.025841979 0.0057319836
0.54983824 0.026693212 0.005103847
0.54908156 0.02754763 0.0044757291
0.548325 0.028405234 0.0038475913
0.5475685 0.029266022 0.0032194343
0.54681206 0.030129997 0.0025912204
0.54683787 0.030978881 0.0025860476
0.5460816 0.031847633 0.0019578419
0.54532546 0.032719571 0.001329617
0.54456943 0.033594694 0.00070137263
0.54381347 0.034472998 7.3108851e-05
0.54305756 0.035354495 -0.00055521179
0.57265288 -0.011782435 0.023410765
0.57267702 -0.010987702 0.023405923
0.57191759 -0.010255955 0.022777319
0.57194179 -0.0094596287 0.022772467
0.57196605 -0.0086633014 0.022767615
0.57199025 -0.0078669712 0.022762762
0.57201445 -0.0070706448 0.022757908
0.57125527 -0.006329346 0.02212921
0.57127953 -0.0055314261 0.022124348
0.57052058 -0.0047853477 0.021495657
0.57054484 -0.0039858338 0.021490784
0.56978607 -0.0032349783 0.020862065
0.56981039 -0.0024338744 0.020857183
0.56905174 -0.0016782343 0.020228434
0.56907612 -0.0008755367 0.020223543
0.56831759 -0.00011512304 0.019594764
0.56755912 0.00064847351 0.01896593
0.56758362 0.0014543547 0.01896102
0.56682533 0.002222731 0.018332193
0.56684989 0.0030302096 0.018327272
0.56609172 0.0038033633 0.017698416
0.56533366 0.0045797043 0.017069541
0.56457567 0.0053592264 0.016440609
0.56460035 0.0061714821 0.016435659
0.56384254 0.0069557838 0.015806735
0.56308484 0.0077432729 0.015177792
0.56232727 0.0085339453 0.01454883
0.56156975 0.0093278075 0.013919847
0.56081229 0.01012485 0.013290809
0.56083721 0.010945067 0.01328581
0.56007993 0.01174689 0.01265678
0.55932277 0.012551898 0.01202773
0.55856568 0.01336009 0.011398661
0.55859077 0.014185085 0.011393634
0.55783379 0.014998056 0.010764498
0.55707693 0.015814211 0.01013538
0.55710208 0.016642392 0.010130333
0.5563454 0.017463326 0.0095011862
0.55558884 0.018287446 0.0088720201
0.55483234 0.019114751 0.0082428344
0.5540759 0.01994524 0.0076135914
0.55410123 0.020779792 0.0076085059
0.55334496 0.021615058 0.0069792713
0.55258882 0.022453513 0.0063500176
0.5518328 0.023295151 0.0057207444
0.55185831 0.024134479 0.00571563
0.55110234 0.024980897 0.0050863274
0.55034649 0.025830498 0.004456969
0.54959077 0.026683286 0.0038276277
0.54883516 0.027539259 0.0031982672
0.54886085 0.028384957 0.0031931137
0.54810536 0.029245708 0.0025637241
0.54734993 0.030109644 0.0019342776
0.54659468 0.030976765 0.0013048492
0.54583949 0.031847071 0.0006754013
0.54508436 0.032720562 4.5934026e-05
0.5443294 0.033597238 -0.00058355264
0.54435539 0.034452494 -0.00058876438
0.57315642 -0.011801489 0.022795729
0.57239801 -0.011071374 0.022165904
0.57242221 -0.010275047 0.02216105
0.57244641 -0.0094787199 0.022156198
0.57247061 -0.0086823935 0.022151345
0.57171237 -0.0079443175 0.021521434
0.57173663 -0.0071463967 0.021516571
0.57097852 -0.0064035403 0.020886667
0.57100284 -0.0056040264 0.020881794
0.57024497 -0.0048563927 0.020251863
0.57026929 -0.0040552886 0.020246981
0.56951153 -0.003302878 0.019617017
0.56953591 -0.0025001804 0.019612126
0.56877834 -0.0017429848 0.018982135
0.56880277 -0.00093869725 0.018977234
0.56804526 -0.00017673067 0.018347176
0.56806976 0.00062915235 0.018342266
0.56731242 0.0013958969 0.017712217
0.5665552 0.0021658286 0.017082147
0.56657976 0.0029748972 0.017077217
0.56582266 0.0037496062 0.016447119
0.56506562 0.0045274985 0.015816964
0.56509036 0.0053397524 0.015812015
0.5643335 0.0061224257 0.015181867
0.56357676 0.0069082831 0.014551701
0.56282008 0.0076973257 0.013921516
0.56284493 0.0085143568 0.013916537
0.56208843 0.0093081808 0.013286323
0.56133199 0.010105185 0.012656052
0.56057566 0.010905377 0.012025799
0.55981946 0.011708754 0.011395525
0.55984449 0.012532157 0.011390508
0.55908841 0.01334031 0.010760206
0.55833238 0.01415165 0.010129848
0.55757654 0.014966177 0.009499507
0.55760169 0.015794355 0.0094944602
0.55684596 0.016613659 0.0088640898
0.55609035 0.017436149 0.0082337009
0.55533481 0.018261822 0.0076032924
0.55536014 0.01909478 0.0075982162
0.55460465 0.019925231 0.0069677415
0.5538494 0.020758869 0.0063372841
0.55309421 0.02159569 0.0057068076
0.55311966 0.022433428 0.0057017026
0.55236459 0.023275027 0.0050711972
0.55160964 0.024119813 0.0044406722
0.55085474 0.024967784 0.00381009
0.55088031 0.025810299 0.0038049561
0.55012566 0.026663048 0.0031743823
0.549371 0.027518982 0.0025437896
0.54861647 0.028378101 0.0019131771
0.54786205 0.029240407 0.0012825077
0.5478878 0.030089293 0.0012773348
0.54713356 0.030956374 0.00064667413
0.54637939 0.031826641 1.5993648e-05
0.54562527 0.032700095 -0.00061470625
0.57290256 -0.011090466 0.021549635
0.57292676 -0.010294139 0.021544782
0.57216942 -0.0095592877 0.020913657
0.57219368 -0.0087613678 0.020908793
0.57221794 -0.0079634469 0.020903932
0.57146084 -0.0072222189 0.020272804
0.57070386 -0.0064778109 0.019641658
0.57072818 -0.0056767031 0.019636776
0.56997132 -0.0049275178 0.019005602
0.56999576 -0.0041248202 0.019000711
0.56923902 -0.0033708538 0.018369505
0.56926346 -0.0025665627 0.018364605
0.5685069 -0.0018078178 0.017733334
0.56853139 -0.0010019367 0.017728424
0.56777495 -0.00023841213 0.01709716
0.56779951 0.00056906271 0.017092239
0.56704324 0.0013373627 0.016460948
0.5670678 0.0021464312 0.016456017
0.56631172 0.0029195102 0.015824696
0.56555563 0.0036957723 0.015193319
0.56558031 0.0045080245 0.015188369
0.56482446 0.0052890661 0.014557
0.56406868 0.0060732951 0.013925611
0.56409341 0.0068887328 0.013920642
0.5633378 0.0076777376 0.013289224
0.56258225 0.0084699271 0.012657787
0.56182677 0.0092653036 0.012026293
0.5610714 0.010063865 0.011394816
0.56109637 0.010885674 0.011389809
0.56034118 0.011689013 0.010758303
0.55958605 0.012495537 0.010126779
0.55883104 0.013305245 0.0094951969
0.55807608 0.01411814 0.0088636335
0.5581013 0.014946321 0.0088585867
0.55734652 0.015763992 0.0082269944
0.55659181 0.016584851 0.0075953822
0.55583727 0.017408894 0.0069637508
0.55586261 0.018241851 0.0069586751
0.55510807 0.019070674 0.0063269772
0.55435377 0.019902678 0.0056952969
0.55359954 0.020737872 0.0050635976
0.55362499 0.021575605 0.0050584925
0.55287093 0.022415577 0.0044267643
0.55211693 0.023258731 0.0037950161
0.55214244 0.024099652 0.003789892
0.55138856 0.024947586 0.0031580776
0.5506348 0.025798704 0.0025262809
0.54988116 0.026653007 0.0018944654
0.54912758 0.027510496 0.00126263
0.54915339 0.028357787 0.0012574669
0.54839993 0.029220056 0.00062556483
0.54764658 0.030085508 -6.3187326e-06
0.54689336 0.030954145 -0.00063822209
0.54691929 0.031806216 -0.00064341439
0.57187021 -0.01043944 0.019673558
0.57189453 -0.009639929 0.019668687
0.57191885 -0.0088404156 0.019663814
0.57116276 -0.0080992253 0.019031456
0.57118708 -0.0072981212 0.019026574
0.57043117 -0.0065521542 0.018394185
0.57045555 -0.0057494603 0.018389294
0.57047993 -0.0049467627 0.018384403
0.5697242 -0.0041944245 0.017751975
0.56896853 -0.0034389088 0.017119491
0.56899303 -0.002633024 0.01711458
0.56823748 -0.0018727211 0.016482104
0.56826204 -0.0010652463 0.016477184
0.56750667 -0.00030016995 0.015844679
0.56753129 0.00050889666 0.015839748
0.5667761 0.0012787521 0.015207214
0.56680071 0.0020894124 0.015202275
0.56604558 0.0028640444 0.014569675
0.56607032 0.0036762983 0.014564725
0.56531537 0.0044557084 0.013932132
0.5653401 0.005269554 0.013927173
0.56458533 0.0060537453 0.013294552
0.56383067 0.0068411175 0.012661911
0.56307608 0.0076316777 0.012029251
0.56232154 0.0084254211 0.011396534
0.56234646 0.0092456387 0.011391535
0.5615921 0.010044162 0.010758827
0.56083786 0.010845868 0.010126099
0.56008375 0.011650763 0.009493351
0.55932963 0.01245884 0.0088605471
0.55857569 0.013270102 0.00822776
0.55860084 0.014098284 0.0082227141
0.55784702 0.014914325 0.0075898981
0.55709332 0.015733553 0.0069570635
0.55633974 0.016555965 0.0063242088
0.55636501 0.017388923 0.0063191331
0.55561155 0.018216113 0.0056862123
0.55485815 0.019046489 0.0050533097
0.55410486 0.019880049 0.0044203876
0.55413032 0.020717787 0.0044152825
0.55337721 0.021556124 0.003782331
0.55262417 0.022397649 0.0031493604
0.55264974 0.023238569 0.003144236
0.55189681 0.024084872 0.0025111989
0.551144 0.024934359 0.0018781794
0.55039132 0.025787031 0.0012451408
0.55041701 0.026632732 0.0012399874
0.5496645 0.027490182 0.00060691935
0.54891199 0.028350819 -2.6205105e-05
0.5481596 0.029214639 -0.0006593116
0.54818547 0.030065117 -0.00066449417
0.57164598 -0.0089195399 0.018416371
0.57089096 -0.0081767943 0.017782768
0.57013607 -0.0074308687 0.017149149
0.56938118 -0.0066817584 0.016515469
0.57018495 -0.0058222897 0.017139345
0.56943017 -0.0050699962 0.016505649
0.56867552 -0.0043145125 0.01587197
0.56870008 -0.0035070376 0.015867049
0.56872463 -0.0026995628 0.015862128
0.56797016 -0.0019377045 0.01522841
0.56799477 -0.001128636 0.01522348
0.56724048 -0.00036200415 0.014589733
0.56726509 0.00044865612 0.014584793
0.56651092 0.0012200627 0.013950979
0.56653559 0.0020323165 0.013946029
0.56578159 0.0028085047 0.013312224
0.56580633 0.0036223505 0.013307265
0.56505245 0.004403316 0.01267343
0.56507725 0.0052187536 0.012668462
0.56432348 0.0060044979 0.012034598
0.5635699 0.0067934263 0.011400715
0.56281632 0.007585539 0.010766774
0.56284124 0.0084057562 0.010761776
0.56208789 0.0092026489 0.010127845
0.56133461 0.010002725 0.0094938939
0.56058139 0.010805987 0.008859924
0.55982828 0.011612435 0.0082258964
0.55985337 0.012439023 0.0082208598
0.55910045 0.013250247 0.0075868405
0.55834758 0.014064659 0.0069528022
0.55759484 0.014882256 0.0063187447
0.55762011 0.015713621 0.0063136783
0.55686748 0.016535994 0.0056795916
0.55611497 0.017361553 0.005045448
0.55536252 0.018190298 0.0044113225
0.55538797 0.019026441 0.0044062273
0.5546357 0.019859964 0.0037720725
0.55388349 0.020696674 0.0031378982
0.553909 0.021536002 0.0031327836
0.55315703 0.022377487 0.0024985804
0.55240506 0.023222158 0.0018643201
0.55165321 0.024070015 0.0012300781
0.55167884 0.024914121 0.0012249344
0.55092716 0.025766756 0.00059066305
0.55017561 0.026622577 -4.3627519e-05
0.54942405 0.02748158 -0.00067797507
0.54944986 0.028330466 -0.00068314793
0.52794343 0.13943775 -0.021490846
0.52797079 0.1403376 -0.021496329
0.52799815 0.14123745 -0.021501813
0.52802551 0.1421373 -0.021507297
0.52805287 0.14303716 -0.02151278
0.52808022 0.14393701 -0.021518262
0.52810758 0.14483684 -0.021523746
0.52813494 0.14573671 -0.021529229
0.56984282 -0.0083128456 0.015901627
0.56986731 -0.0075069643 0.015896717
0.56911355 -0.0067562964 0.015261834
0.56991631 -0.0058951983 0.015886895
0.56916261 -0.0051413467 0.015251993
0.56918716 -0.0043338719 0.015247072
0.56843364 -0.0035752426 0.014612141
0.5684582 -0.0027661743 0.014607211
0.5677048 -0.0020027605 0.013972251
0.56772947 -0.001192102 0.013967311
0.56697619 -0.00042391726 0.013332284
0.56700087 0.00038833483 0.013327334
0.56702554 0.0012005888 0.013322384
0.5662725 0.0019751452 0.012687356
