# .PCD v0.7 - Point Cloud Data file format
VERSION 0.7
FIELDS x y z
SIZE 4 4 4
TYPE F F F
COUNT 1 1 1
WIDTH 1385
HEIGHT 1
VIEWPOINT 0 0 0 1 0 0 0
POINTS 1385
DATA ascii
0.47873777 0.037724644 0.048020367
0.47963536 0.038580563 0.04852958
0.47966227 0.039466079 0.048524186
0.47968918 0.040351596 0.048518788
0.47971609 0.041237112 0.048513394
0.479743 0.042122629 0.048507996
0.47889957 0.043047294 0.04798793
0.47892651 0.043934405 0.047982525
0.47895348 0.044821512 0.04797712
0.47811022 0.045752551 0.047457017
0.47813722 0.046641253 0.0474516
0.47729412 0.047577072 0.046931468
0.47732118 0.048467364 0.046926044
0.47647822 0.049407963 0.046405882
0.47650534 0.050299849 0.046400446
0.47566244 0.051245224 0.045880228
0.47568962 0.052138705 0.045874782
0.47484693 0.053088855 0.045354564
0.47487414 0.053983927 0.04534911
0.4740316 0.054938853 0.044828858
0.47405887 0.055835519 0.044823393
0.47321647 0.056795228 0.044303115
0.47237417 0.057758119 0.043782819
0.47240153 0.05865797 0.043777335
0.47155932 0.059625644 0.043256983
0.47158673 0.060527086 0.043251488
0.47074473 0.061499536 0.042731132
0.47077218 0.062402569 0.04272563
0.46993032 0.063379794 0.042205244
0.46908855 0.064360209 0.04168484
0.46911609 0.06526643 0.041679315
0.46914366 0.066172644 0.041673794
0.46830204 0.067159437 0.041153327
0.46746057 0.068149403 0.040632863
0.4674882 0.069058813 0.040627319
0.46664688 0.070053555 0.040106829
0.46667457 0.070964552 0.040101279
0.4658334 0.071964078 0.039580755
0.46499231 0.072966784 0.03906022
0.46502009 0.07388097 0.039054651
0.4641791 0.07488846 0.038534049
0.46333829 0.075899132 0.038013458
0.46336615 0.076816499 0.03800787
0.46252546 0.077831954 0.03748725
0.46168485 0.078850582 0.036966618
0.46171284 0.079771139 0.036961008
0.46087235 0.080794558 0.036440309
0.46090037 0.081716709 0.036434691
0.46006006 0.082744896 0.035913996
0.46008813 0.083668642 0.035908367
0.45924798 0.084701605 0.035387643
0.45927611 0.085626937 0.035382003
0.45843607 0.086664684 0.034861255
0.45759615 0.087705612 0.034340482
0.45675629 0.088749737 0.033819657
0.45678458 0.089679852 0.033813987
0.4559449 0.090728745 0.033293165
0.4551053 0.091780826 0.032772329
0.45513368 0.092714123 0.032766644
0.45429423 0.093770981 0.032245774
0.45345491 0.09483102 0.031724881
0.45348337 0.095767505 0.031719174
0.45351183 0.096703984 0.031713471
0.45267263 0.0977704 0.031192508
0.45270115 0.098708481 0.031186791
0.45272967 0.099646561 0.031181075
0.45275816 0.10058463 0.031175358
0.45191926 0.10165901 0.030654388
0.45194784 0.10259867 0.030648662
0.45197639 0.10353833 0.030642936
0.45200494 0.104478 0.030637208
0.45203352 0.10541767 0.030631483
0.45119491 0.1065016 0.030110447
0.45122352 0.10744286 0.030104712
0.45125213 0.10838412 0.030098977
0.4504137 0.10947442 0.029577902
0.45044237 0.11041728 0.029572155
0.45047101 0.11136013 0.029566411
0.47356409 0.020844111 0.044342577
0.47359133 0.021740776 0.044337116
0.4736186 0.022637442 0.044331651
0.47451627 0.023530027 0.044841871
0.47454348 0.024425101 0.044836417
0.47457069 0.02532017 0.044830963
0.47459787 0.026215242 0.044825505
0.47549531 0.027099866 0.045335781
0.47639272 0.027981304 0.045846101
0.47641984 0.02887319 0.045840666
0.47731701 0.029749852 0.046350986
0.47734407 0.030640146 0.046345562
0.47824112 0.031512029 0.046855912
0.47826815 0.032400727 0.046850495
0.47829515 0.033289429 0.046845082
0.47919202 0.034154944 0.047355466
0.47921899 0.035042051 0.04735006
0.47924593 0.035929158 0.047344655
0.48014259 0.0367883 0.047855083
0.4801695 0.037673816 0.047849685
0.48019645 0.038559332 0.047844291
0.48022336 0.039444849 0.047838893
0.48025027 0.040330365 0.047833499
0.48027718 0.041215882 0.047828101
0.4794347 0.042138919 0.047306813
0.47946164 0.043026026 0.047301408
0.47948861 0.043913137 0.047296003
0.47864631 0.044842545 0.046774678
0.47867334 0.045731246 0.046769265
0.47783118 0.046665434 0.046247907
0.47785825 0.047555726 0.046242483
0.47788531 0.048446018 0.046237055
0.47704333 0.04938658 0.04571566
0.47707045 0.050278466 0.045710228
0.47622856 0.051223803 0.045188777
0.47538686 0.052172326 0.044667333
0.47541407 0.053067394 0.044661876
0.47544128 0.053962465 0.044656422
0.47459975 0.054917358 0.044134945
0.47375831 0.055875435 0.043613445
0.47378561 0.056773692 0.043607969
0.47294435 0.057736546 0.043086439
0.47297168 0.058636393 0.043080956
0.47213051 0.059604034 0.04255937
0.47128946 0.060574848 0.042037789
0.4713169 0.061477885 0.042032287
0.470476 0.062453479 0.041510683
0.47050351 0.063358106 0.041505169
0.46966276 0.064338483 0.040983532
0.46969029 0.065244704 0.040978011
0.46884966 0.066229858 0.04045631
0.46800914 0.067218192 0.039934631
0.46803677 0.068127602 0.039929088
0.4671964 0.069120713 0.039407372
0.46722412 0.07003171 0.039401822
0.4663839 0.071029603 0.038880076
0.46554378 0.072030686 0.03835832
0.46557155 0.072944865 0.038352747
0.46473154 0.073950723 0.037830923
0.46389166 0.07495977 0.037309114
0.46305186 0.075971998 0.036787283
0.46307981 0.07689096 0.036781684
0.46224016 0.077907957 0.036259823
0.46226814 0.078828514 0.036254212
0.46142861 0.079850301 0.035732295
0.46145663 0.080772452 0.035726678
0.46061727 0.081799008 0.035204757
0.46064538 0.082722746 0.035199128
0.45980617 0.083754085 0.034677178
0.45983428 0.084679425 0.034671541
0.45899522 0.08571554 0.034149569
0.45815629 0.086754836 0.03362757
0.45818451 0.087683357 0.033621915
0.45734563 0.088727437 0.03309986
0.45650691 0.089774705 0.032577816
0.4556683 0.090825155 0.03205575
0.45569667 0.091758452 0.032050062
0.45485818 0.092813678 0.031527974
0.45401981 0.093872093 0.031005861
0.45404828 0.094808571 0.031000154
0.45407674 0.095745049 0.030994447
0.45323852 0.096809842 0.030472264
0.45326701 0.097747914 0.030466547
0.45329553 0.098685987 0.030460831
0.45245755 0.09975715 0.029938644
0.4524861 0.10069681 0.029932918
0.45251465 0.10163648 0.029927192
0.45254323 0.10257614 0.029921466
0.45257178 0.1035158 0.029915741
0.45260033 0.10445548 0.029910015
0.45176271 0.10553777 0.029387755
0.45179132 0.10647903 0.02938202
0.45181993 0.1074203 0.029376283
0.45098245 0.10850897 0.028853986
0.45101112 0.10945182 0.02884824
0.45103976 0.11039467 0.028842494
0.45106843 0.11133752 0.028836749
0.47413224 0.020822613 0.043648656
0.47502899 0.021718424 0.044160094
0.47418675 0.022615943 0.043637726
0.47508341 0.023508567 0.044149186
0.47511062 0.024403641 0.044143729
0.47513783 0.025298711 0.044138275
0.47603431 0.026184967 0.044649769
0.47606146 0.027078444 0.044644322
0.47695783 0.02795992 0.045155875
0.47785407 0.028838214 0.045667421
0.47788113 0.029728506 0.045661997
0.47877723 0.030602021 0.046173569
0.47880423 0.031490721 0.046168156
0.47883123 0.032379422 0.046162739
0.47972715 0.033246566 0.046674345
0.47975412 0.034133673 0.046668939
0.47978106 0.035020784 0.046663534
0.47980803 0.035907891 0.046658128
0.48070368 0.036767069 0.04716979
0.48073059 0.037652586 0.047164395
0.4807575 0.038538102 0.047158998
0.48078445 0.039423618 0.047153603
0.48081136 0.040309135 0.047148205
0.48083827 0.041194651 0.047142811
0.47999677 0.042117652 0.046620287
0.48002374 0.043004759 0.046614882
0.48005071 0.043891869 0.046609476
0.47920942 0.044821236 0.046086922
0.47923642 0.045709942 0.046081506
0.47839528 0.046644088 0.045558915
0.47842234 0.04753438 0.045553491
0.47758135 0.04847331 0.045030873
0.47760847 0.049365196 0.045025438
0.47676754 0.050308902 0.044502761
0.47679472 0.051202383 0.044497319
0.475954 0.052150864 0.043974645
0.47598121 0.053045936 0.043969192
0.47514063 0.053999193 0.043446485
0.4751679 0.054895859 0.043441024
0.47432747 0.0558539 0.042918291
0.47348717 0.056815121 0.042395536
0.4735145 0.057714973 0.042390052
0.47267428 0.058680978 0.041867245
0.47183421 0.059650164 0.041344441
0.47186166 0.060553201 0.041338935
0.47102171 0.061527163 0.04081611
0.47104922 0.06243179 0.040810596
0.47020942 0.063410535 0.040287737
0.47023696 0.064316757 0.040282212
0.46939728 0.065300278 0.039759297
0.46855772 0.066286989 0.039236385
0.46858537 0.067196392 0.039230846
0.46774596 0.068187878 0.038707912
0.46777365 0.069098867 0.038702361
0.46693438 0.070095137 0.03817939
0.46609524 0.071094587 0.037656412
0.46612301 0.072008766 0.037650838
0.46528396 0.073012993 0.037127789
0.46444502 0.074020408 0.036604758
0.46360621 0.075030997 0.036081705
0.46363416 0.075949967 0.036076102
0.46279547 0.076965339 0.035553023
0.46282345 0.077885889 0.035547417
0.46198487 0.078906052 0.03502427
0.46201292 0.079828195 0.035018649
0.46117452 0.080853119 0.034495514
0.46120259 0.081776865 0.034489885
0.46036434 0.082806565 0.033966713
0.46039248 0.083731905 0.033961073
0.45955437 0.084766388 0.033437878
0.45958257 0.085693315 0.033432227
0.45874462 0.086732581 0.032908998
0.45790669 0.087775029 0.032385722
0.45706895 0.088820666 0.031862453
0.45709726 0.089752369 0.031856775
0.45625967 0.090802781 0.031333484
0.45542213 0.091856375 0.030810164
0.45545056 0.092791267 0.030804468
0.45461318 0.093849637 0.030281126
0.45464164 0.094786115 0.030275419
0.45380437 0.095849276 0.029752012
0.45383289 0.096787348 0.029746296
0.45299581 0.097855285 0.029222896
0.45302439 0.098794945 0.029217171
0.45305294 0.099734619 0.029211445
0.45308149 0.10067428 0.029205717
0.45311007 0.10161395 0.029199991
0.45227328 0.10269143 0.028676528
0.45230189 0.1036327 0.028670793
0.4523305 0.10457395 0.028665056
0.45235911 0.1055152 0.028659321
0.45152256 0.10660066 0.028135816
0.4515512 0.10754351 0.028130069
0.45157987 0.10848637 0.028124323
0.45074347 0.10957819 0.027600741
0.45077217 0.11052264 0.027594985
0.4508009 0.11146709 0.02758923
0.47556892 0.020801893 0.043472864
0.47559613 0.021696964 0.04346741
0.47562334 0.022592036 0.043461952
0.47565055 0.023487108 0.043456499
0.47567776 0.024382181 0.043451045
0.47570497 0.025277251 0.043445591
0.47660044 0.026163545 0.043958314
0.47662759 0.027057024 0.043952871
0.47752297 0.027938537 0.044465661
0.47755006 0.028830424 0.044460226
0.47844523 0.029707162 0.044973008
0.47934031 0.030580714 0.045485813
0.47936735 0.031469416 0.045480397
0.48026228 0.032338187 0.045993235
0.48028922 0.033225298 0.045987826
0.48031619 0.034112405 0.04598242
0.48034316 0.034999512 0.045977015
0.48123786 0.035860326 0.046489894
0.48126477 0.036745839 0.0464845
0.48129168 0.037631355 0.046479102
0.48131859 0.038516872 0.046473708
0.48134553 0.039402388 0.04646831
0.48050496 0.040322166 0.045944583
0.4805319 0.041209273 0.045939177
0.48055887 0.042096384 0.045933768
0.48058584 0.042983491 0.045928363
0.47974551 0.04391123 0.045404579
0.47977254 0.044799931 0.045399163
0.47893235 0.04573245 0.044875357
0.47895941 0.046622742 0.04486993
0.47811937 0.04756004 0.044346094
0.47814646 0.048451927 0.044340659
0.47817358 0.049343813 0.044335224
0.47733369 0.050287481 0.04381131
0.47649392 0.051234335 0.043287415
0.47652113 0.052129406 0.043281961
0.47568154 0.053081032 0.042758036
0.47570878 0.053977698 0.042752571
0.47486934 0.054934103 0.042228613
0.47402996 0.055893701 0.04170464
0.47405732 0.056793548 0.041699156
0.47321805 0.057757922 0.041175123
0.47237894 0.058725476 0.040651098
0.47240639 0.059628513 0.040645596
0.47156742 0.060600847 0.040121544
0.4715949 0.061505474 0.040116031
0.47075608 0.062482588 0.039591946
0.47078362 0.06338881 0.039586425
0.46994489 0.064370699 0.039062284
0.46910629 0.065355778 0.038538154
0.46913394 0.066265181 0.038532615
0.46829551 0.067255035 0.038008451
0.4683232 0.068166032 0.038002901
0.46748489 0.069160663 0.037478711
0.4666467 0.070158482 0.036954507
0.46667448 0.071072668 0.036948938
0.46583638 0.072075263 0.036424663
0.46499842 0.073081039 0.03590041
0.46416056 0.074090004 0.035376135
0.46418849 0.075008966 0.035370536
0.46335077 0.076022714 0.034846228
0.46337876 0.076943263 0.034840617
0.46254113 0.077961795 0.034316253
0.46256918 0.078883938 0.034310635
0.46173173 0.079907238 0.033786274
0.46175981 0.080830976 0.033780646
0.46092254 0.081859052 0.033256248
0.46095067 0.082784384 0.033250611
0.46011353 0.083817244 0.032726191
0.46014172 0.084744163 0.032720543
0.45930472 0.085781798 0.03219609
0.45846778 0.086822622 0.031671587
0.45849603 0.08775273 0.031665921
0.4576593 0.088798329 0.031141425
0.45682263 0.08984711 0.030616902
0.45598608 0.090899073 0.030092366
0.45601451 0.091833964 0.03008667
0.45517811 0.09289071 0.029562104
0.45520657 0.093827188 0.029556397
0.45437026 0.094888717 0.029031767
0.45439875 0.09582679 0.02902605
0.45356265 0.096893087 0.028501427
0.4535912 0.097832754 0.028495701
0.45361978 0.098772421 0.028489975
0.45364833 0.099712089 0.028484249
0.45281246 0.10078635 0.027959578
0.45284107 0.1017276 0.027953841
0.45286968 0.10266887 0.027948106
0.452034 0.10374951 0.027423389
0.45206267 0.10469235 0.027417645
0.45209131 0.1056352 0.027411899
0.45211998 0.10657805 0.027406154
0.45128447 0.10766666 0.026881363
0.4513132 0.1086111 0.026875608
0.4513419 0.10955555 0.026869852
0.4513706 0.11049999 0.026864097
0.4513993 0.11144444 0.026858341
0.47697645 0.01988777 0.043304976
0.4770036 0.020781249 0.04329953
0.47616327 0.021675505 0.042774718
0.47619048 0.022570577 0.042769264
0.47621769 0.023465648 0.042763811
0.4762449 0.024360722 0.042758353
0.47627211 0.025255792 0.042752899
0.47716656 0.026142124 0.043266863
0.47719371 0.027035603 0.04326142
0.47808808 0.027917154 0.043775439
0.4781152 0.028809041 0.043770004
0.47900936 0.029685816 0.04428402
0.47990343 0.030559408 0.044798054
0.47993043 0.031448107 0.044792637
0.48082438 0.032316919 0.045306705
0.48085132 0.033204027 0.045301296
0.48087829 0.034091137 0.04529589
0.48090526 0.034978244 0.045290485
0.48093224 0.035865355 0.04528508
0.48095918 0.036752462 0.045279674
0.48098615 0.037639569 0.045274269
0.48101312 0.03852668 0.045268863
0.48104009 0.039413787 0.045263458
0.48106706 0.040300895 0.045258053
0.481094 0.041188005 0.045252644
0.48112097 0.042075112 0.045247238
0.48028159 0.043001223 0.044722237
0.48030862 0.043889925 0.04471682
0.47946939 0.044820812 0.044191789
0.47949645 0.045711104 0.044186365
0.47865736 0.04664677 0.043661304
0.47868448 0.047538657 0.043655869
0.47871161 0.048430543 0.043650433
0.47787267 0.04937258 0.043125305
0.47789982 0.050266061 0.043119859
0.47706109 0.051212873 0.042594723
0.47708827 0.052107945 0.04258927
0.47624969 0.053059537 0.042064112
0.47541118 0.054014314 0.041538935
0.47543851 0.054912567 0.041533463
0.47460014 0.055872124 0.041008256
0.47376183 0.056834869 0.040482994
0.47378924 0.057736311 0.040477499
0.47295111 0.058703825 0.039952245
0.4721131 0.059674531 0.039426971
0.47214061 0.060579158 0.039421458
0.47130275 0.061554641 0.038896155
0.47133029 0.062460858 0.038890634
0.47049251 0.063441128 0.038365267
0.46965489 0.064424567 0.037839912
0.46968251 0.06533397 0.037834369
0.46884504 0.066322193 0.037308991
0.46887273 0.06723319 0.037303437
0.4680354 0.068226196 0.036778029
0.46719816 0.069222376 0.036252599
0.46722594 0.070136562 0.036247026
0.46638882 0.071137533 0.035721533
0.46555182 0.072141685 0.035196055
0.46471491 0.073149011 0.034670558
0.46474284 0.074067973 0.034664955
0.46390608 0.075080082 0.034139432
0.46393406 0.076000638 0.034133822
0.46309739 0.077017538 0.033608232
0.46312544 0.077939682 0.033602614
0.46228898 0.07896135 0.033077024
0.46231705 0.079885088 0.033071395
0.46148074 0.080911539 0.032545783
0.46150887 0.081836864 0.032540143
0.46067268 0.082868092 0.0320145
0.46070087 0.083795018 0.032008853
0.45986483 0.084831022 0.031483181
0.45902884 0.085870214 0.030957457
0.45905712 0.086800322 0.030951789
0.45822132 0.08784429 0.030426063
0.45738563 0.088891432 0.029900322
0.457414 0.089824729 0.029894635
0.45657846 0.090876654 0.029368866
0.45574301 0.091931775 0.028843071
0.45577148 0.092868254 0.028837364
0.45493612 0.093928151 0.028311515
0.45496464 0.094866224 0.028305799
0.45412949 0.095930897 0.027779952
0.45415804 0.096870564 0.027774226
0.45418662 0.097810224 0.0277685
0.45335165 0.09888126 0.027242616
0.45338026 0.099822529 0.027236879
0.45254543 0.10089834 0.026710965
0.4525741 0.10184119 0.026705218
0.45173937 0.1029218 0.026179243
0.45263141 0.1037269 0.026693728
0.45179677 0.10481068 0.026167734
0.4518255 0.10575513 0.026161978
0.4518542 0.10669957 0.026156222
0.45101982 0.10778973 0.025630215
0.45104858 0.10873576 0.02562445
0.45107731 0.1096818 0.025618685
0.45110607 0.11062784 0.025612921
0.47840923 0.019868795 0.043134134
0.47756973 0.020759827 0.042608079
0.47759691 0.021653308 0.042602636
0.47675762 0.022549117 0.042076584
0.47678483 0.023444189 0.04207113
0.47681203 0.024339262 0.042065676
0.47683924 0.025234332 0.042060222
0.47773269 0.026120702 0.042575411
0.47775984 0.027014181 0.042569969
0.47865319 0.027895771 0.043085217
0.47868031 0.028787658 0.043079786
0.47957346 0.029664472 0.043595035
0.47960052 0.030554766 0.043589607
0.48049355 0.031426802 0.044104885
0.48052055 0.032315504 0.044099472
0.48141342 0.033182759 0.044614781
0.4814404 0.03406987 0.044609372
0.48146737 0.034956977 0.044603966
0.48149431 0.035844084 0.044598561
0.48152128 0.036731195 0.044593155
0.48154825 0.037618302 0.04458775
0.48157522 0.038505409 0.044582345
0.48160216 0.03939252 0.044576939
0.48162913 0.040279627 0.044571534
0.48079067 0.041202515 0.044045318
0.48081771 0.042091217 0.044039901
0.4799794 0.043018878 0.043513656
0.48000646 0.043909173 0.043508232
0.48003352 0.044799466 0.043502804
0.47919539 0.0457335 0.042976521
0.47922251 0.046625387 0.042971086
0.4792496 0.047517274 0.042965651
0.47841161 0.048457678 0.042439297
0.47843879 0.049351159 0.04243385
0.47760102 0.050296344 0.0419075
0.4776282 0.051191416 0.041902047
0.47679058 0.052141376 0.041375663
0.47681785 0.053038038 0.041370202
0.47598034 0.053992778 0.040843789
0.47514296 0.054950699 0.040317353
0.47517031 0.055850551 0.040311869
0.47433302 0.056813255 0.039785381
0.47349587 0.057779144 0.039258901
0.47352332 0.058682177 0.039253399
0.47268629 0.059652843 0.038726892
0.47184941 0.060626693 0.038200364
0.47187695 0.061532915 0.038194843
0.47104013 0.062511548 0.037668254
0.47020346 0.063493364 0.037141681
0.47023112 0.064402767 0.037136137
0.46939459 0.065389358 0.036609534
0.46942228 0.066300355 0.036603983
0.46858591 0.067291729 0.03607735
0.46774963 0.068286277 0.035550695
0.4677774 0.069200464 0.035545126
0.46694124 0.070199803 0.035018411
0.46610519 0.071202315 0.03449171
0.46526927 0.072208025 0.033964984
0.46529719 0.073126979 0.033959385
0.46446139 0.074137457 0.033432633
0.46448937 0.075058013 0.033427022
0.46365368 0.076073281 0.032900214
0.4636817 0.076995432 0.032894593
0.46284619 0.078015469 0.032367785
0.46287426 0.078939207 0.032362156
0.4620389 0.079964019 0.031835318
0.46206704 0.080889352 0.031829681
0.46123183 0.08191894 0.031302813
0.46125999 0.082845867 0.031297166
0.46042493 0.083880246 0.03077027
0.4595899 0.084917806 0.030243322
0.45961818 0.085847914 0.030237654
0.45878336 0.08689025 0.02971071
0.45794863 0.087935761 0.029183747
0.457977 0.088869058 0.029178061
0.45714241 0.089919358 0.028651068
0.45630792 0.090972841 0.028124049
0.45633638 0.091909327 0.028118344
0.455502 0.092967592 0.027591269
0.45466775 0.094029032 0.02706421
0.45469633 0.094968699 0.027058484
0.45472488 0.095908366 0.027052758
0.45389083 0.096976183 0.026525658
0.45391944 0.097917438 0.026519923
0.45308554 0.098990038 0.025992794
0.45311418 0.099932887 0.025987048
0.45228037 0.10101026 0.02545986
0.45230907 0.10195471 0.025454104
0.4523378 0.10289916 0.025448348
0.45150423 0.1039829 0.024921153
0.45153299 0.10492893 0.024915388
0.45156172 0.10587496 0.024909623
0.45072836 0.10696508 0.024382386
0.45075718 0.10791271 0.024376612
0.451648 0.10871308 0.024892328
0.45081478 0.10980797 0.024365064
0.45170552 0.11060515 0.024880799
0.47983992 0.019849896 0.042965721
0.47986698 0.020740189 0.042960294
0.47902855 0.021631185 0.042433038
0.47819018 0.022525365 0.041905731
0.47821736 0.023418844 0.041900288
0.47824451 0.024312323 0.041894842
0.47740638 0.025212873 0.041367531
0.47829881 0.026099281 0.041883953
0.47832599 0.026992761 0.04187851
0.47835314 0.027886238 0.041873064
0.47924542 0.028766274 0.04238956
0.47927254 0.029658161 0.042384125
0.48016465 0.03053342 0.042900618
0.48019171 0.031423714 0.04289519
0.48108366 0.032294195 0.043411713
0.48111066 0.033182897 0.043406297
0.4820025 0.034048598 0.043922849
0.48202944 0.034935709 0.043917444
0.48205641 0.035822816 0.043912038
0.48208338 0.036709927 0.043906633
0.48211035 0.037597034 0.043901224
0.48127276 0.038515102 0.043373805
0.48129976 0.039403804 0.043368388
0.48132676 0.040292505 0.043362975
0.48048937 0.041216947 0.042835515
0.48051643 0.042107239 0.042830091
0.48054349 0.042997532 0.042824663
0.48057055 0.043887828 0.042819239
0.47973341 0.04482023 0.042291731
0.4797605 0.045712117 0.042286295
0.47892344 0.0466493 0.041758727
0.47895062 0.047542781 0.041753285
0.47811374 0.048484739 0.041225716
0.47814095 0.049379811 0.041220263
0.47816816 0.050274882 0.041214809
0.47733149 0.051223211 0.040687203
0.47735873 0.052119877 0.040681738
0.47652221 0.053072985 0.040154107
0.47568578 0.054029275 0.039626453
0.47571313 0.054929126 0.039620969
0.47487679 0.055890203 0.039093256
0.4740406 0.056854457 0.038565554
0.47406805 0.057757493 0.038560051
0.473232 0.058726527 0.038032319
0.47239608 0.059698746 0.037504569
0.47242361 0.060604967 0.037499048
0.47158775 0.061581966 0.036971234
0.47075203 0.062562153 0.036443442
0.47077969 0.063471556 0.036437899
0.46994412 0.064456515 0.035910074
0.46997181 0.065367512 0.035904523
0.46913642 0.066357255 0.035376664
0.46830109 0.067350179 0.034848787
0.46832886 0.068264358 0.034843218
0.46749365 0.069262065 0.034315281
0.46665856 0.070262954 0.033787355
0.46582359 0.071267024 0.03325941
0.46585152 0.072185993 0.033253811
0.46501669 0.073194839 0.032725837
0.46504468 0.074115388 0.032720227
0.46420994 0.075129025 0.032192193
0.46423796 0.076051176 0.032186572
0.46340343 0.077069581 0.031658541
0.46343151 0.077993318 0.031652912
0.4625971 0.079016507 0.031124851
0.46262524 0.079941832 0.031119213
0.46179098 0.080969796 0.030591123
0.46181914 0.081896722 0.030585473
0.46098503 0.082929462 0.030057354
0.46015099 0.083965398 0.029529184
0.46017927 0.084895507 0.029523516
0.4593454 0.085936211 0.028995348
0.45851162 0.08698009 0.028467162
0.45853999 0.087913387 0.028461475
0.45770636 0.088962056 0.027933259
0.45687285 0.090013906 0.027405022
0.45690131 0.090950385 0.027399316
0.45606789 0.092007026 0.026871018
0.45523459 0.093066841 0.026342735
0.45526317 0.094006501 0.026337009
0.45529172 0.094946168 0.026331283
0.45445862 0.096012354 0.025802961
0.45448723 0.096953616 0.025797224
0.45365429 0.098024569 0.025268871
0.45368296 0.098967433 0.025263127
0.4528501 0.10004318 0.024734719
0.4520174 0.1011221 0.024206318
0.45118478 0.10220422 0.023677899
0.4512136 0.10315184 0.023672124
0.45124239 0.10409947 0.02366635
0.45127121 0.10504711 0.023660574
0.4513 0.10599474 0.0236548
0.45046768 0.1070864 0.023126323
0.45049652 0.10803563 0.023120537
0.45052537 0.10898484 0.023114754
0.48126858 0.019831073 0.042799775
0.48129562 0.020719774 0.042794358
0.47959369 0.021609802 0.041742817
0.47875634 0.022503944 0.041214276
0.47878349 0.023397421 0.04120883
0.47794631 0.024296343 0.040680293
0.47797352 0.025191413 0.040674839
0.47800073 0.026086485 0.040669385
0.47889212 0.026971338 0.041187052
0.47891927 0.027864818 0.041181609
0.47894642 0.028758297 0.041176163
0.47983766 0.029636778 0.0416939
0.48072875 0.030512076 0.042211626
0.48075584 0.031402368 0.042206202
0.4807829 0.032292664 0.042200778
0.48167378 0.033161588 0.042718541
0.48170078 0.03405029 0.042713124
0.48172781 0.034938991 0.042707708
0.48175481 0.035827693 0.042702295
0.48178184 0.036716394 0.042696878
0.48180884 0.037605096 0.042691462
0.48183584 0.038493797 0.042686049
0.48099938 0.039415013 0.042157374
0.48102644 0.040305305 0.04215195
0.4810535 0.041195601 0.042146523
0.48108056 0.042085893 0.042141099
0.48024431 0.043015074 0.041612376
0.48027143 0.043906961 0.041606944
0.47943527 0.044840921 0.041078158
0.47946241 0.045734402 0.041072715
0.47948959 0.046627879 0.041067269
0.47865367 0.047568209 0.040538482
0.47868088 0.048463278 0.040533025
0.47870809 0.049358349 0.040527571
0.47787237 0.05030505 0.039998751
0.47703677 0.051254936 0.039469901
0.47706407 0.052153192 0.039464429
0.47622859 0.053107854 0.03893555
0.47625595 0.054007702 0.038930066
0.47542056 0.054967146 0.038401131
0.47458535 0.055929773 0.037872203
0.4737502 0.05689558 0.03734326
0.47377771 0.057800211 0.037337746
0.47294271 0.058770798 0.036808778
0.47297028 0.05967702 0.036803257
0.47213537 0.06065239 0.036274221
0.47130063 0.061630942 0.0357452
0.47132826 0.062540345 0.035739657
0.47049367 0.06352368 0.035210606
0.47052136 0.064434677 0.035205055
0.46968693 0.065422781 0.034675974
0.46885255 0.066414073 0.034146875
0.46888036 0.067328259 0.034141302
0.46804607 0.068324335 0.033612147
0.46721196 0.069323592 0.033082999
0.46723986 0.07024096 0.033077408
0.46640587 0.071244992 0.03254823
0.465572 0.072252214 0.032019034
0.46559998 0.073172763 0.032013424
0.4647662 0.074184768 0.031484172
0.46479425 0.075106919 0.03147855
0.46396065 0.076123692 0.030949296
0.46398872 0.077047437 0.030943668
0.4631553 0.078068987 0.030414384
0.46318343 0.078994319 0.030408744
0.46235013 0.080020644 0.02987943
0.46237829 0.080947571 0.029873783
0.46154517 0.081978679 0.02934444
0.46071208 0.083012976 0.028815046
0.46074033 0.083943099 0.028809378
0.45990741 0.084982172 0.028279992
0.45907462 0.086024426 0.027750582
0.45910299 0.086957715 0.027744895
0.45827031 0.088004753 0.027215455
0.45743775 0.089054972 0.026685994
0.45746621 0.08999145 0.026680289
0.45663375 0.09104646 0.026150769
0.45580143 0.092104644 0.02562126
0.45583001 0.093044311 0.025615534
0.45499781 0.09410727 0.025086002
0.45502642 0.095048532 0.025080267
0.4541944 0.096116275 0.024550701
0.45422304 0.097059123 0.024544956
0.4533911 0.098131649 0.024015328
0.4534198 0.099076092 0.024009574
0.45258808 0.10015339 0.02347995
0.45175642 0.10123387 0.022950307
0.45092487 0.10231753 0.022420648
0.45095372 0.10326675 0.022414865
0.45098257 0.10421598 0.02240908
0.45015123 0.10530601 0.021879379
0.45018011 0.10625683 0.021873584
0.45020902 0.10720764 0.021867789
0.47929528 0.021589043 0.040528275
0.47932246 0.022482522 0.040522829
0.47848624 0.02337981 0.039993066
0.47851345 0.024274884 0.039987613
0.47854066 0.025169954 0.039982159
0.47856787 0.026065025 0.039976705
0.47859508 0.026960097 0.039971251
0.47862229 0.027855169 0.039965797
0.4786495 0.028750241 0.039960343
0.47953972 0.029630354 0.040479273
0.48042989 0.030507281 0.040998247
0.48131993 0.031381026 0.041517217
0.48134699 0.032271318 0.041511789
0.48137406 0.03316161 0.041506365
0.48140112 0.034051906 0.041500941
0.48142818 0.034942199 0.041495517
0.48145524 0.035832494 0.041490089
0.4814823 0.036722787 0.041484665
0.48150936 0.037613083 0.041479241
0.48153642 0.038503375 0.041473813
0.48156348 0.039393667 0.041468389
0.48159054 0.040283963 0.041462965
0.48075521 0.041209918 0.040933028
0.48078233 0.042101804 0.040927593
0.48080942 0.042993691 0.040922157
0.47997424 0.043926019 0.040392157
0.48000139 0.0448195 0.040386714
0.47916639 0.045756605 0.03985671
0.4791936 0.046651676 0.039851256
0.47922081 0.047546748 0.039845802
0.47838601 0.048490223 0.03931576
0.47841325 0.049386889 0.039310295
0.47757861 0.050335143 0.038780224
0.47760591 0.0512334 0.038774751
0.47677141 0.05218643 0.038244653
0.47593695 0.053142648 0.037714504
0.47596434 0.054044094 0.037709009
0.47513008 0.055005085 0.037178863
0.47429591 0.055969268 0.036648698
0.47432339 0.056873895 0.036643185
0.47348937 0.057842851 0.036112987
0.47351691 0.058749072 0.036107466
0.47268298 0.059722811 0.035577208
0.4718492 0.060699735 0.035046969
0.47187686 0.061609138 0.035041425
0.4710432 0.062590837 0.034511149
0.47107092 0.063501835 0.034505598
0.4702374 0.064488314 0.033975296
0.47026515 0.065400906 0.033969734
0.46943179 0.066392154 0.033439405
0.46859848 0.067386605 0.032909021
0.46776536 0.06838423 0.032378647
0.46779323 0.069301598 0.03237306
0.46696022 0.070303999 0.031842664
0.46698815 0.071222961 0.031837061
0.46615529 0.072230145 0.031306632
0.46532246 0.073240511 0.030776151
0.46535051 0.074162662 0.030770531
0.46451789 0.075177804 0.030240057
0.46454597 0.076101549 0.030234428
0.46371347 0.077121466 0.029703921
0.4637416 0.078046799 0.029698282
0.46290928 0.079071499 0.029167745
0.46293744 0.079998426 0.029162096
0.46210527 0.081027903 0.028631531
0.46127313 0.082060568 0.028100917
0.46044114 0.083096422 0.027570313
0.46046945 0.084028125 0.027564636
0.45963761 0.085068755 0.027034001
0.45966598 0.086002052 0.027028313
0.45883426 0.08704745 0.026497656
0.45800266 0.088096038 0.025966974
0.45803115 0.089032523 0.025961267
0.45719963 0.090085894 0.025430523
0.45636827 0.091142446 0.024899798
0.45639682 0.09208212 0.024894072
0.4555656 0.093143448 0.024363311
0.45559421 0.094084702 0.024357574
0.45476314 0.095150813 0.023826785
0.45393211 0.096220113 0.02329595
0.45396084 0.097164556 0.023290195
0.45313001 0.098238632 0.022759357
0.45229927 0.099315889 0.0222285
0.45146862 0.10039634 0.021697627
0.45149747 0.10134555 0.021691844
0.45066699 0.10243078 0.021160938
0.45069587 0.10338159 0.021155143
0.45072478 0.1043324 0.02114935
0.44989443 0.105424 0.020618374
0.4499234 0.1063764 0.02061257
0.4790262 0.022463279 0.039305832
0.47819105 0.023362122 0.038774833
0.47821829 0.024258789 0.038769368
0.47824556 0.025155451 0.038763907
0.4782728 0.026052115 0.038758442
0.47830006 0.02694878 0.038752977
0.4783273 0.027845444 0.038747512
0.47921664 0.028728781 0.039267652
0.48010585 0.029608933 0.039787814
0.480133 0.030502412 0.039782371
0.48102212 0.031377785 0.04030259
0.48104924 0.032269672 0.040297154
0.48193815 0.033140268 0.040817376
0.48196521 0.03403056 0.040811948
0.48199227 0.034920856 0.040806524
0.48201936 0.035811149 0.0408011
0.48204643 0.036701441 0.040795673
0.48207349 0.037591737 0.040790249
0.48123899 0.038512874 0.040259108
0.48126611 0.039404761 0.040253673
0.48129323 0.040296648 0.040248238
0.48132032 0.041188534 0.040242802
0.48048607 0.04211764 0.039711591
0.48051322 0.043011121 0.039706144
0.47967914 0.043945003 0.039174929
0.47970635 0.044840071 0.039169472
0.47973356 0.045735147 0.039164018
0.47889966 0.046675395 0.038632769
0.4789269 0.047572061 0.038627304
0.47809318 0.048517093 0.038096018
0.47812048 0.04941535 0.038090546
0.47728688 0.050365154 0.03755923
0.47731423 0.051265005 0.037553746
0.47648072 0.052219596 0.037022378
0.47650811 0.053121038 0.037016883
0.47567481 0.054080401 0.036485512
0.47484159 0.055042949 0.035954125
0.4748691 0.055947579 0.035948612
0.47403604 0.056914903 0.035417192
0.47406358 0.057821125 0.035411671
0.4732306 0.058793232 0.034880195
0.4723978 0.059768524 0.034348723
0.47242543 0.060677931 0.034343183
0.47159275 0.061657995 0.033811688
0.47162044 0.062568992 0.033806138
0.47078791 0.06355384 0.03327461
0.46995547 0.064541876 0.032743063
0.46998328 0.065456055 0.03273749
0.46915093 0.066448867 0.032205887
0.46917877 0.067364648 0.032200307
0.46834663 0.068362236 0.031668704
0.46751457 0.069363005 0.031137083
0.4675425 0.070281968 0.031131484
0.4667106 0.07128752 0.030599829
0.46587875 0.072296262 0.030068129
0.46590677 0.073218405 0.03006251
0.46507511 0.074231915 0.029530808
0.46510318 0.075155661 0.029525179
0.46427166 0.076173954 0.028993452
0.4642998 0.077099286 0.028987814
0.46346843 0.078122355 0.028456053
0.4634966 0.079049282 0.028450405
0.46266538 0.080077127 0.02791862
0.46183419 0.08110816 0.027386779
0.46100318 0.082142375 0.026854951
0.4610315 0.083074078 0.026849274
0.46020061 0.084113084 0.026317421
0.46022898 0.085046373 0.026311733
0.45939824 0.086090147 0.025779847
0.45856759 0.087137111 0.025247946
0.457737 0.088187255 0.024715988
0.45776549 0.089125328 0.024710272
0.45693511 0.090180248 0.024178322
0.45696366 0.091119915 0.024172597
0.4561334 0.092179619 0.023640612
0.45616201 0.09312088 0.023634877
0.45533189 0.09418536 0.023102868
0.45450184 0.095253028 0.022570804
0.4536719 0.096323878 0.022038758
0.45370066 0.097269915 0.022032993
0.45287091 0.098345533 0.021500912
0.45204124 0.099424347 0.020968812
0.45121166 0.10050635 0.020436697
0.45124054 0.10145716 0.020430904
0.45041105 0.10254394 0.019898722
0.45044002 0.10349636 0.019892918
0.44961071 0.10458791 0.019360747
0.44878152 0.10568264 0.018828548
0.44881058 0.10663824 0.018822726
0.47789785 0.023344358 0.037554137
0.47795245 0.025140874 0.037543189
0.47797975 0.026039129 0.037537716
0.47800705 0.026937388 0.037532244
0.47803435 0.027835645 0.037526768
0.47892272 0.028720612 0.03804813
0.47981098 0.029602394 0.038569517
0.48069912 0.030480992 0.039090917
0.4807263 0.031374469 0.039085474
0.48161435 0.032248288 0.039606936
0.48164147 0.033140175 0.039601501
0.48166859 0.034032062 0.039596066
0.48169568 0.034923948 0.039590631
0.4817228 0.035815835 0.039585195
0.48174992 0.036707722 0.03957976
0.48177701 0.037599608 0.039574325
0.48180413 0.038491491 0.03956889
0.48183122 0.039383378 0.039563455
0.48099786 0.040309262 0.039031029
0.48102504 0.041202743 0.039025582
0.48019186 0.042133398 0.038493156
0.48021907 0.04302847 0.038487703
0.48024628 0.043923542 0.038482249
0.4794133 0.044860572 0.037949778
0.47944054 0.045757234 0.037944313
0.47860771 0.046699043 0.03741182
0.47863501 0.0475973 0.037406348
0.47780234 0.048543882 0.036873817
0.47782969 0.049443733 0.036868334
0.47699711 0.050395098 0.036335751
0.4770245 0.05129654 0.036330257
0.47619212 0.05225268 0.03579767
0.47621956 0.053155717 0.035792168
0.47538731 0.054116633 0.03525956
0.47541481 0.05502126 0.035254046
0.4745827 0.055986959 0.034721408
0.47375065 0.056955844 0.03418871
0.47377825 0.057863656 0.034183178
0.47294638 0.058837313 0.033650491
0.47211462 0.059814159 0.033117779
0.47214231 0.060725156 0.033112228
0.47217 0.061636154 0.033106677
0.47133842 0.062619373 0.032573931
0.47050694 0.06360577 0.032041166
0.47053471 0.064519957 0.032035593
0.46970335 0.065511137 0.031502761
0.46973118 0.066426918 0.03149718
0.4689 0.067422874 0.030964358
0.46806893 0.068422012 0.030431511
0.46809685 0.069340974 0.03042591
0.4672659 0.070344895 0.029893039
0.46643502 0.071352005 0.029360116
0.46646303 0.072274156 0.029354496
0.46563235 0.073286034 0.028821569
0.46566042 0.074209772 0.02881594
0.46482986 0.075226434 0.028282991
0.464858 0.076151766 0.028277352
0.46402758 0.077173203 0.027744368
0.46405575 0.07810013 0.027738718
0.46322548 0.079126351 0.027205711
0.46239528 0.080155753 0.026672646
0.4615652 0.081188336 0.0261396
0.46159351 0.082120039 0.026133923
0.4607636 0.083157405 0.025600847
0.45993376 0.084197961 0.025067745
0.45996219 0.085132845 0.025062049
0.45913249 0.086178176 0.024528924
0.45830286 0.087226696 0.023995742
0.45833138 0.088164769 0.023990026
0.45750192 0.089218058 0.023456853
0.4575305 0.090157725 0.023451127
0.45670119 0.091215797 0.022917926
0.455872 0.09227705 0.022384698
0.45590067 0.093219899 0.022378953
0.45507154 0.094285943 0.02184567
0.45424259 0.095355161 0.021312395
0.45427135 0.096301198 0.02130663
0.45344254 0.097375192 0.020773331
0.45261383 0.098452374 0.020240007
0.45178521 0.099532738 0.019706668
0.45181412 0.10048356 0.019700876
0.45098558 0.10156871 0.019167475
0.4501572 0.10265703 0.018634085
0.44932893 0.10374855 0.018100679
0.44935796 0.10470414 0.018094854
0.44852984 0.10580043 0.017561415
0.44770175 0.10689992 0.017027928
0.4477309 0.1078587 0.017022086
0.47760668 0.023326518 0.036330968
0.47766137 0.025126219 0.036320005
0.47854891 0.026017593 0.036842559
0.47857621 0.02691585 0.036837086
0.47860351 0.027814109 0.03683161
0.47863081 0.028712366 0.036826137
0.47951812 0.029595779 0.037348747
0.48040533 0.030476006 0.037871372
0.48129243 0.031353049 0.038394015
0.48131958 0.032246526 0.038388573
0.48134676 0.033140007 0.038383126
0.4822337 0.034010679 0.03890584
0.48226082 0.034902565 0.038900405
0.48228791 0.035794452 0.03889497
0.48231503 0.036686338 0.038889535
0.48148254 0.037607402 0.038355902
0.48150969 0.038500883 0.038350459
0.48153684 0.03939436 0.038345013
0.48070458 0.040321797 0.037811376
0.48073179 0.041216869 0.037805919
0.48075899 0.042111941 0.037800465
0.47992694 0.043045744 0.037266787
0.47995418 0.04394241 0.037261322
0.47912228 0.04488099 0.036727611
0.47914958 0.045779251 0.036722139
0.4783178 0.04672261 0.036188401
0.47834516 0.047622461 0.036182918
0.47837251 0.048522308 0.036177434
0.47754088 0.049472045 0.035643626
0.4767094 0.05042496 0.035109825
0.47673684 0.051327996 0.035104323
0.47676429 0.052231029 0.035098821
0.47593302 0.053190317 0.034564987
0.4751018 0.05415279 0.034031134
0.47512937 0.055059008 0.034025609
0.47429827 0.056026265 0.033491697
0.47346732 0.056996699 0.032957789
0.47349495 0.057906106 0.032952249
0.47266415 0.05888132 0.032418318
0.47269183 0.059792317 0.032412767
0.47186118 0.060772311 0.031878807
0.47188893 0.061684899 0.031873245
0.4710584 0.062669672 0.031339251
0.4710862 0.063583858 0.031333681
0.47025576 0.064573407 0.030799631
0.4702836 0.06548918 0.030794051
0.46945339 0.066483505 0.030260002
0.46862325 0.067481019 0.029725937
0.46865121 0.068399981 0.029720336
0.46782121 0.06940227 0.029186236
0.4678492 0.070322819 0.029180625
0.46701932 0.071329899 0.028646469
0.46618956 0.072340146 0.028112326
0.46621764 0.073263884 0.028106695
0.46538806 0.074278913 0.027572522
0.46541616 0.075204246 0.027566884
0.46458673 0.076224059 0.027032675
0.4646149 0.077150986 0.027027028
0.46378559 0.078175567 0.026492797
0.46295634 0.079203345 0.025958514
0.46212724 0.080234297 0.025424236
0.46215555 0.081165999 0.025418559
0.4613266 0.082201734 0.024884261
0.46049771 0.083240651 0.024349941
0.46052614 0.084175549 0.024344245
0.4596974 0.085219242 0.023809897
0.45886874 0.08626613 0.023275491
0.45889726 0.087204203 0.023269774
0.45806876 0.088255867 0.02273538
0.45809734 0.089195535 0.022729652
0.45726898 0.090251967 0.022195227
0.45644075 0.091311596 0.021660777
0.45646942 0.092254445 0.021655031
0.45564127 0.093318857 0.021120526
0.45481327 0.094386443 0.020586032
0.45398536 0.095457211 0.020051518
0.45401418 0.096404843 0.020045744
0.45318642 0.097480386 0.019511197
0.45235875 0.098559126 0.018976634
0.45238766 0.09950994 0.018970842
0.45156011 0.10059347 0.018436218
0.45073268 0.10168017 0.017901609
0.44990537 0.10277005 0.017366974
0.44907814 0.10386312 0.016832324
0.44910723 0.1048203 0.016826492
0.44828013 0.10591815 0.016291782
0.44745314 0.10701919 0.015757078
0.44748232 0.10797955 0.015751226
0.44665548 0.10908537 0.0152165
0.47731745 0.023308601 0.035105314
0.47823155 0.025104644 0.035623625
0.47825888 0.026004493 0.035618141
0.47828624 0.026904343 0.035612658
0.4783136 0.027804192 0.035607174
0.47919998 0.02869083 0.036130991
0.48008627 0.029574281 0.03665483
0.48011354 0.030470945 0.036649365
0.48099968 0.031349618 0.037173234
0.48102686 0.03224469 0.037167776
0.48191288 0.033118587 0.037691675
0.48194003 0.034012064 0.037686229
0.48196718 0.034905545 0.037680786
0.48199433 0.035799023 0.03767534
0.48202151 0.036692504 0.037669897
0.48204866 0.037585981 0.037664451
0.48121732 0.038510192 0.0371296
0.48124453 0.039405264 0.037124142
0.48127171 0.040300336 0.037118688
0.48129892 0.041195408 0.037113234
0.48046783 0.042127583 0.036578335
0.4804951 0.043024246 0.03657287
0.47966412 0.043961201 0.036037937
0.47883326 0.044901337 0.035502989
0.47886062 0.045801185 0.035497505
0.47888798 0.046701036 0.035492022
0.47805727 0.047647547 0.034956999
0.47808465 0.048548989 0.034951508
0.47725412 0.049500275 0.034416489
0.47728157 0.050403308 0.034410987
0.47645122 0.051359374 0.033875931
0.4764787 0.052264001 0.033870421
0.47564846 0.053224843 0.033335343
0.47567603 0.054131065 0.033329822
0.47484589 0.055096686 0.032794684
0.47401589 0.056065492 0.032259557
0.47404352 0.056974899 0.032254018
0.4732137 0.057948481 0.031718861
0.47324139 0.058859479 0.031713311
0.47241169 0.05983784 0.031178128
0.47158208 0.060819384 0.030642919
0.47160986 0.06173357 0.030637348
0.47163767 0.062647752 0.030631777
0.47080821 0.063635677 0.030096505
0.4699789 0.064626776 0.029561244
0.47000676 0.065544143 0.029555652
0.4691776 0.066540025 0.029020363
0.46920553 0.067458987 0.029014762
0.46837652 0.068459645 0.028479444
0.4684045 0.069380201 0.028473834
0.46757558 0.070385642 0.027938453
0.46674678 0.071394265 0.027403086
0.46677488 0.072317995 0.027397458
0.46594623 0.073331401 0.026862061
0.46597436 0.074256733 0.026856422
0.46514589 0.075274907 0.02632099
0.46431747 0.07629627 0.025785545
0.46434569 0.077224791 0.025779886
0.4635174 0.078250937 0.025244379
0.46268925 0.079280257 0.024708886
0.46271759 0.08021196 0.024703208
0.46188956 0.081246063 0.024167687
0.46106166 0.082283355 0.023632143
0.46023387 0.083323829 0.023096582
0.46026233 0.084260307 0.023090875
0.4594346 0.085305564 0.022555247
0.45946312 0.086243637 0.02254953
0.4586356 0.08729367 0.02201391
0.45780817 0.088346884 0.021478271
0.45783678 0.089288145 0.021472534
0.45700952 0.090346135 0.020936865
0.45618227 0.091407321 0.020401146
0.45621097 0.092351772 0.020395391
0.45538396 0.093417726 0.019859673
0.454557 0.09448687 0.019323938
0.45373017 0.095559195 0.018788176
0.45375901 0.096508414 0.018782392
0.45293233 0.097585514 0.018246606
0.45296124 0.098536327 0.018240813
0.45213461 0.099618219 0.017704966
0.45130816 0.10070329 0.017169133
0.4504818 0.10179155 0.01663328
0.44965553 0.10288298 0.016097408
0.44968465 0.10384017 0.016091574
0.44885847 0.10493639 0.015555642
0.44803247 0.10603579 0.015019715
0.44806165 0.10699616 0.015013862
0.44809085 0.10795653 0.01500801
0.44726503 0.10906231 0.014472051
0.44729427 0.11002427 0.014466189
0.47794345 0.025089875 0.034396708
0.47882906 0.02598292 0.03492175
0.47885641 0.02688277 0.034916267
0.47888377 0.027782619 0.034910783
0.47891113 0.028682468 0.0349053
0.47979644 0.029567551 0.035430361
0.48068166 0.030449448 0.035955448
0.48070893 0.031346112 0.035949983
0.48159403 0.032223232 0.036475092
0.48162121 0.033118304 0.036469638
0.48164842 0.034013376 0.036464185
0.48167562 0.034908447 0.036458731
0.48170283 0.035803519 0.036453277
0.48173004 0.036698591 0.036447823
0.48175725 0.037593663 0.036442365
0.48178446 0.038488735 0.036436912
0.48181167 0.039383806 0.036431458
0.48098147 0.040312756 0.035895344
0.48100874 0.041209422 0.035889879
0.48017868 0.042143147 0.035353728
0.48020598 0.043041404 0.035348255
0.47937608 0.043979913 0.034812082
0.47940344 0.044879761 0.034806598
0.47857362 0.045823049 0.034270369
0.47860104 0.046724491 0.034264874
0.47777143 0.047672555 0.033728637
0.47779888 0.048575588 0.033723135
0.47696942 0.049528431 0.033186872
0.4769969 0.050433058 0.033181358
0.47616759 0.051390678 0.032645069
0.47619513 0.052296896 0.032639548
0.47536591 0.053259294 0.032103196
0.4753935 0.054167107 0.032097664
0.47456446 0.055134282 0.031561315
0.47373554 0.056104641 0.031024946
0.47376323 0.057015643 0.031019395
0.47293445 0.057990778 0.030482998
0.4729622 0.058903366 0.030477436
0.47213355 0.059883285 0.029941011
0.47216132 0.060797468 0.02993544
0.47133279 0.061782166 0.029398952
0.47136062 0.06269794 0.029393373
0.47053227 0.063687414 0.028856888
0.47056016 0.064604782 0.028851297
0.46973196 0.065599032 0.028314784
0.46975988 0.066517994 0.028309183
0.46893182 0.06751702 0.027772641
0.46895981 0.068437576 0.027767032
0.46813184 0.069441386 0.027230427
0.46730402 0.070448376 0.026693836
0.46733209 0.071372114 0.026688207
0.46650442 0.072383881 0.026151586
0.46653256 0.073309213 0.026145948
0.46570504 0.074325755 0.0256093
0.46487761 0.075345486 0.02507263
0.46490583 0.076274015 0.025066972
0.46407849 0.077298522 0.024530241
0.46325129 0.078326218 0.023993524
0.4632796 0.07925792 0.023987846
0.46245256 0.080290392 0.023451099
0.46162564 0.081326053 0.022914333
0.46079877 0.082364894 0.022377549
0.46082723 0.083301373 0.022371842
0.46000049 0.084345005 0.021834996
0.45917389 0.085391812 0.021298161
0.45920244 0.086331479 0.021292435
0.45837599 0.087383062 0.020755572
0.4584046 0.088324316 0.020749837
0.45757827 0.089380682 0.020212945
0.456752 0.090440236 0.019676
0.4567807 0.091384679 0.019670246
0.45595464 0.092449002 0.019133305
0.45512864 0.093516514 0.018596346
0.45430276 0.094587207 0.018059365
0.45433164 0.095536433 0.01805358
0.45350587 0.09661191 0.017516572
0.45353478 0.097562723 0.017510779
0.45270914 0.098642983 0.016973708
0.45188364 0.099726416 0.016436651
0.45191264 0.10068042 0.016430838
0.4510873 0.10176864 0.015893752
0.45026204 0.10286003 0.015356646
0.44943684 0.10395463 0.014819489
0.44946599 0.10491341 0.014813647
0.44864097 0.10601277 0.014276492
0.44867018 0.10697314 0.01427064
0.44784531 0.10807728 0.013733457
0.44787455 0.10903925 0.013727595
0.44704983 0.11014816 0.013190382
0.47851461 0.025068263 0.033699084
0.47854203 0.025969705 0.033693593
0.47942659 0.026861195 0.03421988
0.47945392 0.027761044 0.034214396
0.47948128 0.028660893 0.034208912
0.4803656 0.029546015 0.03473521
0.4803929 0.030444272 0.034729734
0.48127708 0.031324614 0.035256058
0.48130435 0.03222128 0.035250593
0.48133159 0.033117943 0.035245132
0.48221558 0.033991914 0.035771493
0.48224276 0.034886986 0.035766039
0.48226997 0.035782058 0.035760585
0.48229718 0.03667713 0.035755131
0.48146787 0.037601266 0.03521781
0.48149511 0.038497929 0.035212345
0.48152238 0.039394595 0.035206884
0.48069325 0.040325098 0.034669522
0.48072055 0.041223355 0.03466405
0.48074785 0.042121612 0.034658577
0.4799189 0.043058489 0.034121178
0.47994626 0.04395834 0.034115694
0.47911742 0.044899996 0.033578236
0.47914481 0.045801438 0.033572745
0.47831616 0.046747867 0.033035286
0.47834361 0.047650903 0.033029784
0.4775151 0.048602115 0.032492306
0.47754261 0.049506743 0.032486793
0.47671425 0.05046273 0.031949278
0.47674179 0.051368948 0.031943757
0.47591352 0.052329719 0.031406183
0.47594112 0.053237531 0.031400651
0.47511306 0.054203074 0.030863076
0.4742851 0.055171803 0.030325485
0.47431278 0.0560828 0.030319935
0.47348496 0.057056308 0.029782314
0.47351268 0.0579689 0.029776752
0.47268501 0.058947183 0.029239103
0.47185737 0.059928659 0.0287014
0.4718852 0.060844433 0.02869582
0.47105777 0.061830681 0.028158128
0.47108567 0.062748052 0.028152538
0.47025836 0.063739076 0.02761481
0.47028631 0.064658038 0.02760921
0.46945915 0.065653838 0.027071454
0.46948713 0.066574395 0.027065843
0.46866009 0.067574978 0.026528027
0.4686881 0.068497129 0.026522407
0.46786126 0.069502488 0.025984593
0.46788934 0.070426226 0.025978964
0.46706262 0.07143636 0.025441119
0.46709076 0.072361693 0.025435479
0.46626419 0.073376611 0.024897607
0.46543771 0.07439471 0.024359714
0.46461129 0.075415999 0.023821777
0.46463954 0.076346114 0.023816109
0.46381333 0.077372178 0.023278167
0.46298718 0.078401424 0.022740208
0.46301556 0.079334721 0.022734519
0.46218958 0.08036875 0.022196529
0.4613637 0.08140596 0.021658521
0.46139216 0.082342446 0.021652814
0.46056637 0.083384439 0.021114744
0.45974073 0.084429614 0.020576688
0.45976928 0.085369281 0.02057096
0.45894378 0.08641924 0.020032873
0.45897239 0.087360494 0.020027138
0.45814702 0.08841522 0.019489028
0.4573217 0.089473151 0.018950861
0.45735043 0.090417594 0.018945105
0.4565253 0.091480285 0.018406941
0.45570031 0.092546172 0.017868757
0.45487538 0.093615234 0.017330555
0.45490423 0.094564453 0.01732477
0.45407945 0.095638297 0.016786538
0.45410836 0.096589111 0.016780743
0.45328367 0.097667739 0.01624245
0.45331261 0.098620147 0.016236648
0.45248812 0.099703543 0.015698362
0.45166373 0.10079014 0.015160052
0.45083946 0.1018799 0.014621723
0.45086855 0.10283709 0.014615891
0.45004436 0.10393164 0.0140775
0.4492203 0.10502937 0.013539122
0.44839635 0.10613029 0.013000725
0.44671941 0.10737653 0.011929754
0.44589564 0.10848542 0.011391282
0.44421902 0.10974282 0.010320242
0.44254261 0.11100657 0.0092491647
0.43916053 0.11257374 0.0071128285
0.4790858 0.02504665 0.033001471
0.47911319 0.025948092 0.03299598
0.47914061 0.026849534 0.032990485
0.4800241 0.027739471 0.033518016
0.48005146 0.02863932 0.033512533
0.48007882 0.02953917 0.033507049
0.48096207 0.030422736 0.034034587
0.48098937 0.031320993 0.034029115
0.48101667 0.03221925 0.034023643
