# .PCD v0.7 - Point Cloud Data file format
VERSION 0.7
FIELDS x y z
SIZE 4 4 4
TYPE F F F
COUNT 1 1 1
WIDTH 1372
HEIGHT 1
VIEWPOINT 0 0 0 1 0 0 0
POINTS 1372
DATA ascii
0.40611279 0.018820412 0.049265355
0.40614241 0.01979512 0.049259417
0.40617204 0.020769823 0.049253475
0.40620166 0.021744529 0.049247537
0.40714222 0.022716813 0.04970799
0.40717182 0.023689924 0.049702059
0.40720138 0.024663035 0.049696129
0.40723097 0.025636148 0.049690198
0.40726054 0.026609259 0.049684267
0.40729013 0.027582372 0.049678341
0.40731969 0.028555483 0.04967241
0.40734929 0.029528594 0.049666479
0.40737885 0.030501707 0.049660549
0.40649793 0.031491574 0.049188141
0.40652755 0.032466277 0.049182203
0.40655717 0.033440981 0.049176261
0.4065868 0.034415685 0.049170323
0.40661642 0.035390392 0.049164381
0.40664604 0.036365096 0.049158443
0.40667567 0.037339799 0.049152505
0.40670532 0.038314503 0.049146563
0.40582487 0.039318703 0.048674095
0.40585455 0.040295001 0.048668146
0.40588421 0.041271295 0.048662197
0.40591389 0.042247593 0.048656248
0.40594357 0.043223891 0.048650298
0.40597326 0.044200189 0.048644349
0.40600291 0.045176484 0.0486384
0.40603259 0.046152782 0.04863245
0.40606228 0.04712908 0.048626501
0.4051823 0.048149202 0.048153933
0.40521204 0.049127094 0.048147973
0.40615129 0.05005797 0.048608653
0.40618098 0.051034268 0.048602704
0.40530121 0.052060764 0.048130095
0.40624031 0.05298686 0.048590805
0.40536064 0.054016542 0.048118178
0.40452382 0.0060765012 0.047653396
0.40455353 0.0070543899 0.047647439
0.40549389 0.0080537871 0.048108932
0.40461299 0.0090101678 0.047635522
0.4046427 0.0099880602 0.047629561
0.4055829 0.010982678 0.048091084
0.40561256 0.011958975 0.048085134
0.40564224 0.012935275 0.048079185
0.40567192 0.013911572 0.048073236
0.40661186 0.014898228 0.048534811
0.40664148 0.015872933 0.048528869
0.40667111 0.016847637 0.048522931
0.40670073 0.017822342 0.048516989
0.40673038 0.018797046 0.048511051
0.40767008 0.019774148 0.048972707
0.40769964 0.020747259 0.048966777
0.40772924 0.02172037 0.048960846
0.4077588 0.022693481 0.048954919
0.4077884 0.023666594 0.048948988
0.40781796 0.024639705 0.048943058
0.40784755 0.025612818 0.048937127
0.40787712 0.026585929 0.048931196
0.40790671 0.027559042 0.048925269
0.40793628 0.028532153 0.048919339
0.40796587 0.029505264 0.048913408
0.40799543 0.030478375 0.048907477
0.40802503 0.031451486 0.048901547
0.40805459 0.032424599 0.04889562
0.40808415 0.033397712 0.048889689
0.40720439 0.034392316 0.048416018
0.40723401 0.035367023 0.048410077
0.40726364 0.036341727 0.048404139
0.40729326 0.03731643 0.048398197
0.40732291 0.038291134 0.048392259
0.40735254 0.039265841 0.04838632
0.40738216 0.040240545 0.048380379
0.40741178 0.041215248 0.048374441
0.4065325 0.042224187 0.047900707
0.40656218 0.043200485 0.047894757
0.40659183 0.04417678 0.047888808
0.40662152 0.045153078 0.047882859
0.4066512 0.046129376 0.047876909
0.40668088 0.047105674 0.04787096
0.40671054 0.048081968 0.047865011
0.40674022 0.049058266 0.047859062
0.4067699 0.050034564 0.047853112
0.40679955 0.051010862 0.047847163
0.4059208 0.052037317 0.047373325
0.40685892 0.052963454 0.047835264
0.40598026 0.053993098 0.047361407
0.40601 0.054970987 0.047355447
0.40605313 0.0060777874 0.047365282
0.40608281 0.0070540835 0.047359332
0.40611249 0.0080303801 0.047353383
0.40614215 0.0090066772 0.047347434
0.40617183 0.0099829752 0.047341485
0.40620151 0.010959271 0.047335535
0.40623119 0.011935568 0.047329586
0.40626085 0.012911868 0.047323637
0.40719983 0.013900154 0.047786433
0.40722945 0.014874859 0.047780491
0.40725908 0.015849564 0.047774553
0.40728873 0.016824268 0.047768611
0.4082275 0.017804593 0.048231483
0.4082571 0.018777704 0.048225556
0.40828666 0.019750817 0.048219625
0.40831625 0.020723928 0.048213694
0.40834582 0.021697041 0.048207764
0.40837541 0.022670152 0.048201833
0.40840498 0.023643263 0.048195906
0.40934333 0.024610847 0.048658825
0.40937287 0.025582368 0.048652906
0.4094024 0.026553886 0.048646986
0.4094319 0.027525404 0.048641067
0.40946144 0.028496923 0.048635144
0.40858245 0.029481934 0.048160326
0.40861201 0.030455045 0.048154395
0.40864161 0.031428158 0.048148464
0.40867117 0.032401267 0.048142534
0.40870076 0.03337438 0.048136607
0.40873033 0.034347493 0.048130676
0.40785161 0.035343654 0.047655761
0.40788126 0.036318358 0.047649823
0.40791088 0.037293062 0.047643881
0.40794051 0.038267765 0.047637943
0.40797013 0.039242472 0.047632001
0.40799975 0.040217176 0.047626063
0.40802938 0.04119188 0.047620125
0.408059 0.042166583 0.047614183
0.40718079 0.043177076 0.047139209
0.40721047 0.044153374 0.047133259
0.40724012 0.045129672 0.04712731
0.40726981 0.04610597 0.047121361
0.40729949 0.047082268 0.047115412
0.40732914 0.048058562 0.047109462
0.40735883 0.04903486 0.047103513
0.406481 0.050058093 0.04662846
0.40651071 0.051035985 0.0466225
0.40654042 0.052013874 0.046616543
0.40657017 0.052991763 0.046610583
0.40659988 0.053969651 0.046604622
0.40662962 0.054947544 0.046598665
0.40664208 0.005078082 0.046615683
0.40758044 0.0060791494 0.047079634
0.40670142 0.0070306766 0.046603784
0.40763968 0.0080285585 0.047067754
0.40766931 0.009003262 0.047061812
0.40679044 0.0099595683 0.046585936
0.40682012 0.010935864 0.046579987
0.4068498 0.011912161 0.046574038
0.4077878 0.012902083 0.047038056
0.40781742 0.013876786 0.047032114
0.40784708 0.01485149 0.047026176
0.4078767 0.015826195 0.047020238
0.40881452 0.016808152 0.047484331
0.40884411 0.017781263 0.0474784
0.40887368 0.018754374 0.04747247
0.40890324 0.019727487 0.047466543
0.40893283 0.020700598 0.047460612
0.40987033 0.021672998 0.047924738
0.40989986 0.022644516 0.047918815
0.40992936 0.023616036 0.047912896
0.4099589 0.024587555 0.047906976
0.40998843 0.025559075 0.047901057
0.41001797 0.026530594 0.047895137
0.4100475 0.027502112 0.047889214
0.41007704 0.028473631 0.047883295
0.41010657 0.029445151 0.047877375
0.41013607 0.030416669 0.047871456
0.40925819 0.031404827 0.047395382
0.40928778 0.03237794 0.047389451
0.40931734 0.033351049 0.047383521
0.40934694 0.034324162 0.047377594
0.4093765 0.035297275 0.047371663
0.40849885 0.036294989 0.046895504
0.40852848 0.037269693 0.046889566
0.4085581 0.038244396 0.046883628
0.40858772 0.039219104 0.046877686
0.40861735 0.040193807 0.046871748
0.40864697 0.041168511 0.046865806
0.40867659 0.042143214 0.046859868
0.40779939 0.04315367 0.04638366
0.40782908 0.044129968 0.046377711
0.40785873 0.045106266 0.046371762
0.40788841 0.04608256 0.046365812
0.4079181 0.047058858 0.046359863
0.40794778 0.048035156 0.046353914
0.40797743 0.049011454 0.046347965
0.40710059 0.05003465 0.04587169
0.4080368 0.050964046 0.046336066
0.40716004 0.051990427 0.045859769
0.40718979 0.05296832 0.045853812
0.4072195 0.053946208 0.045847852
0.40634295 0.054978959 0.045371506
0.40813878 0.0041063712 0.046337195
0.40816841 0.0050810757 0.046331257
0.40729034 0.006030973 0.045854181
0.40822765 0.0070304852 0.046319377
0.40825728 0.0080051897 0.046313439
0.4082869 0.0089798933 0.046307497
0.40740904 0.0099361613 0.045830384
0.40743873 0.010912457 0.045824435
0.40746841 0.011888755 0.045818485
0.40840542 0.012878713 0.046283741
0.40843505 0.013853417 0.046277799
0.40846467 0.014828121 0.046271861
0.40849429 0.015802827 0.046265919
0.40852392 0.01677753 0.046259981
0.40946069 0.017757932 0.046725318
0.40949026 0.018731043 0.046719387
0.40951985 0.019704156 0.046713457
0.40954942 0.020677267 0.04670753
0.40957901 0.02165038 0.046701599
0.41051543 0.022621224 0.047166966
0.41054496 0.023592744 0.047161046
0.4105745 0.024564262 0.047155127
0.41060403 0.025535783 0.047149207
0.41063353 0.026507301 0.047143288
0.41066307 0.02747882 0.047137365
0.4106926 0.028450338 0.047131445
0.40981564 0.029435273 0.046654157
0.4098452 0.030408384 0.04664823
0.4098748 0.031381495 0.0466423
0.40990436 0.032354608 0.046636369
0.40993392 0.033327721 0.046630438
0.40996352 0.03430083 0.046624508
0.40999308 0.035273943 0.046618581
0.40911645 0.036271621 0.046141189
0.40914607 0.037246324 0.04613525
0.40917569 0.038221028 0.046129309
0.40920532 0.039195735 0.046123371
0.40923494 0.040170439 0.046117432
0.40926459 0.041145142 0.046111491
0.40838832 0.042153966 0.045634057
0.408418 0.043130264 0.045628108
0.40844768 0.044106562 0.045622159
0.40847734 0.045082856 0.04561621
0.40850702 0.046059154 0.04561026
0.4085367 0.047035452 0.045604311
0.40856639 0.04801175 0.045598362
0.4076905 0.049033314 0.045120865
0.40772021 0.050011203 0.045114905
0.40774995 0.050989095 0.045108948
0.40687427 0.052017029 0.044631395
0.40690404 0.052996509 0.044625428
0.40602845 0.054029226 0.044147823
0.40605828 0.055010304 0.044141844
0.4051829 0.056047793 0.043664239
0.40784961 0.0040549696 0.045110542
0.40787929 0.0050312681 0.045104593
0.40790895 0.0060075666 0.045098644
0.40793863 0.0069838632 0.045092694
0.40796831 0.0079601593 0.045086745
0.40799797 0.0089364564 0.045080796
0.40802765 0.0099127544 0.045074847
0.40805733 0.010889051 0.045068897
0.40808702 0.011865348 0.045062948
0.40811667 0.012841647 0.045056999
0.40814635 0.013817945 0.045051049
0.40908226 0.014804753 0.045517541
0.40911189 0.015779458 0.045511603
0.40914151 0.016754162 0.045505665
0.40917113 0.017728867 0.045499723
0.41010687 0.018707713 0.045966305
0.41013643 0.019680826 0.045960374
0.41016603 0.020653937 0.045954444
0.41019559 0.021627048 0.045948517
0.41022518 0.022600159 0.045942586
0.41025475 0.023573272 0.045936655
0.41119006 0.02454097 0.046403278
0.4112196 0.02551249 0.046397358
0.41124913 0.026484009 0.046391435
0.41037306 0.02746572 0.045912936
0.41040263 0.028438831 0.045907006
0.41043222 0.029411942 0.045901075
0.41046178 0.030385053 0.045895144
0.41049138 0.031358164 0.045889217
0.41052094 0.032331277 0.045883287
0.41055053 0.03330439 0.045877356
0.4105801 0.034277502 0.045871425
0.40970442 0.035273548 0.045392811
0.40973404 0.036248252 0.045386873
0.40976366 0.037222955 0.045380931
0.40979329 0.038197659 0.045374993
0.40982294 0.039172366 0.045369055
0.40985256 0.04014707 0.045363113
0.40897724 0.041154262 0.044884469
0.40900692 0.04213056 0.04487852
0.40903661 0.043106858 0.044872571
0.40906629 0.044083152 0.044866621
0.40909594 0.04505945 0.044860672
0.40912563 0.046035748 0.044854723
0.40915531 0.047012046 0.044848774
0.4082804 0.048031978 0.04437004
0.40831012 0.049009871 0.04436408
0.40833983 0.049987759 0.044358123
0.40746513 0.051014062 0.043879349
0.4074949 0.051993545 0.043873381
0.40752468 0.052973028 0.043867413
0.4057458 0.054058898 0.042915732
0.40577567 0.055041566 0.042909745
0.40490136 0.056080613 0.042430904
0.40753272 0.0030256037 0.043887381
0.40756246 0.0040034959 0.043881424
0.40759218 0.0049813841 0.043875463
0.40762189 0.0059592761 0.043869507
0.40765163 0.0069371643 0.043863546
0.40768135 0.0079150526 0.043857586
0.40771106 0.0088929432 0.043851629
0.4077408 0.0098708346 0.043845668
0.40777051 0.010848723 0.043839712
0.40780026 0.011826614 0.043833751
0.40873528 0.012818241 0.04430145
0.40876496 0.013794538 0.044295501
0.40879464 0.014770834 0.044289552
0.40972948 0.015756089 0.044757299
0.4097591 0.016730793 0.044751361
0.40978873 0.017705498 0.044745419
0.40981835 0.018680202 0.044739481
0.41075301 0.019657496 0.045207303
0.41078261 0.020630607 0.045201372
0.41081217 0.021603718 0.045195442
0.41084176 0.022576829 0.045189515
0.41087133 0.023549942 0.045183584
0.41090092 0.024523053 0.045177653
0.41093048 0.025496166 0.045171723
0.41096008 0.026469277 0.045165796
0.41098964 0.027442388 0.045159865
0.41101924 0.028415499 0.045153935
0.4110488 0.029388612 0.045148004
0.41107836 0.030361723 0.045142073
0.41110796 0.031334836 0.045136146
0.41113752 0.032307949 0.045130216
0.41026276 0.033300769 0.044650387
0.41029239 0.034275472 0.044644445
0.41032201 0.035250179 0.044638507
0.41035163 0.036224883 0.044632569
0.41038126 0.037199587 0.044626627
0.41041088 0.03817429 0.044620689
0.40953651 0.03917826 0.044140819
0.40956619 0.040154558 0.04413487
0.40959585 0.041130856 0.044128921
0.40962553 0.042107154 0.044122972
0.40965521 0.043083448 0.044117022
0.4096849 0.044059746 0.044111073
0.40971455 0.045036044 0.044105124
0.40884057 0.046052754 0.043625187
0.40887028 0.047030646 0.043619227
0.40889999 0.048008535 0.04361327
0.40892974 0.048986424 0.043607309
0.40805599 0.050011098 0.043127313
0.40808576 0.050990582 0.043121345
0.40811554 0.051970061 0.043115377
0.40724191 0.05300111 0.042635314
0.40546516 0.054088492 0.041681197
0.40549508 0.055072755 0.041675199
0.40462181 0.056113355 0.041195106
0.40374863 0.05715714 0.040714994
0.40724757 0.0029724592 0.042655796
0.40727735 0.0039519412 0.042649824
0.40730712 0.0049314233 0.042643856
0.40733689 0.0059109069 0.042637888
0.40736666 0.0068903891 0.04263192
0.40739644 0.0078698713 0.042625953
0.40742621 0.0088493526 0.042619981
0.40745598 0.0098288367 0.042614013
0.40839013 0.010825278 0.043082926
0.40841988 0.011803168 0.04307697
0.40844959 0.012781058 0.043071009
0.40938357 0.013771131 0.043539949
0.40941325 0.014747427 0.043533999
0.40944293 0.015723724 0.04352805
0.40947258 0.016700022 0.043522101
0.41040632 0.01768213 0.043991104
0.41043597 0.018656833 0.043985162
0.4104656 0.019631539 0.043979224
0.41049522 0.020606242 0.043973286
0.41142878 0.021580389 0.044442359
0.41145834 0.0225535 0.044436429
0.41148791 0.023526611 0.044430502
0.4115175 0.024499722 0.044424571
0.41154706 0.025472835 0.04441864
0.41157666 0.026445946 0.04441271
0.41160622 0.027419059 0.044406783
0.41163582 0.02839217 0.044400852
0.41166538 0.029365281 0.044394922
0.41169497 0.030338394 0.044388991
0.41082111 0.031327993 0.043907948
0.41085073 0.032302696 0.04390201
0.41088036 0.0332774 0.043896072
0.41090998 0.034252103 0.04389013
0.4109396 0.035226811 0.043884192
0.41096923 0.036201514 0.04387825
0.41099885 0.037176218 0.043872312
0.41012543 0.038178556 0.043391217
0.41015512 0.039154854 0.043385267
0.4101848 0.040131152 0.043379318
0.41021448 0.04110745 0.043373369
0.41024414 0.042083744 0.043367419
0.41027382 0.043060042 0.04336147
0.4103035 0.04403634 0.043355521
0.40943044 0.045051418 0.042874362
0.40946019 0.046029311 0.042868402
0.4094899 0.047007199 0.042862445
0.40951961 0.047985088 0.042856485
0.40864682 0.049008131 0.042375267
0.40867659 0.049987614 0.042369299
0.40780392 0.051015437 0.041888021
0.40693134 0.052046444 0.041406766
0.40696123 0.053029113 0.041400775
0.40608883 0.054064896 0.040919479
0.40521652 0.055103865 0.040438164
0.40434429 0.056146022 0.039956838
0.40347213 0.057191364 0.039475456
0.40260011 0.058239888 0.038994081
0.40693453 0.0019381609 0.041427705
0.40696436 0.0029192364 0.041421726
0.40699416 0.0039003121 0.041415747
0.4061203 0.0048548304 0.040933724
0.4070538 0.0058624614 0.041403789
0.40708363 0.0068435371 0.041397814
0.40711346 0.0078246109 0.041391835
0.40714327 0.0088056847 0.041385856
0.40807658 0.0098053534 0.04185601
0.40810636 0.010784836 0.041850042
0.40813613 0.011764318 0.04184407
0.40906921 0.012757613 0.042314231
0.40909892 0.013735504 0.042308275
0.40912864 0.014713392 0.042302314
0.40915838 0.015691282 0.042296354
0.41009119 0.016676616 0.042766564
0.41012087 0.017652912 0.042760614
0.41015056 0.018629208 0.042754665
0.41018021 0.019605504 0.042748716
0.41111282 0.020582873 0.043218974
0.41114244 0.021557579 0.043213036
0.41117206 0.022532282 0.043207094
0.41120169 0.023506988 0.043201156
0.41123131 0.024481691 0.043195214
0.41126093 0.025456397 0.043189276
0.41129056 0.0264311 0.043183338
0.41132021 0.027405804 0.043177396
0.41134983 0.028380509 0.043171458
0.41137946 0.029355213 0.043165516
0.41140908 0.030329918 0.043159578
0.4114387 0.031304624 0.04315364
0.41146833 0.032279328 0.043147698
0.41149795 0.033254031 0.04314176
0.41152757 0.034228735 0.043135818
0.4115572 0.035203442 0.04312988
0.4106847 0.036202557 0.042647578
0.41071436 0.037178852 0.042641629
0.41074404 0.03815515 0.042635679
0.41077372 0.039131448 0.04262973
0.41080341 0.040107746 0.042623781
0.41083306 0.04108404 0.042617831
0.41086274 0.042060338 0.042611882
0.41089243 0.043036636 0.042605933
0.41002035 0.044050086 0.042123545
0.41005006 0.045027975 0.042117584
0.41007981 0.046005864 0.042111628
0.41010952 0.046983756 0.042105667
0.40923768 0.048005167 0.041623231
0.40926746 0.048984651 0.041617259
0.40839571 0.050010841 0.041134764
0.40842554 0.050991915 0.041128784
0.407554 0.052022886 0.040646292
0.40668255 0.053057037 0.040163774
0.40581119 0.054094378 0.039681245
0.40493995 0.0551349 0.039198685
0.40406874 0.056178614 0.038716078
0.40409881 0.057167649 0.03871005
0.40322781 0.058216136 0.038227454
0.40235689 0.059267808 0.037744828
0.40058509 0.060385302 0.036785591
0.40665334 0.0018832702 0.040191203
0.40578043 0.0028361604 0.039707951
0.40581036 0.0038204195 0.039701954
0.40584028 0.0048046787 0.039695956
0.4058702 0.0057889419 0.039689958
0.40590012 0.0067732027 0.03968396
0.40683255 0.0077792751 0.040155277
0.40686244 0.0087619424 0.040149286
0.4068923 0.0097446116 0.0401433
0.40782455 0.010744315 0.040614653
0.40785438 0.01172539 0.040608674
0.40878654 0.012720319 0.041080087
0.40881631 0.0136998 0.04107412
0.40974826 0.014689947 0.041545533
0.409778 0.015667837 0.041539572
0.40980771 0.016645728 0.041533612
0.40983742 0.017623616 0.041527655
0.41076916 0.0186058 0.041999117
0.41079885 0.019582098 0.041993167
0.4108285 0.020558394 0.041987218
0.41085818 0.021534692 0.041981269
0.41088787 0.022510989 0.041975319
0.41091752 0.023487287 0.04196937
0.4118489 0.024458323 0.042440899
0.41187856 0.025433028 0.042434961
0.41190818 0.026407732 0.042429019
0.4119378 0.027382435 0.042423081
0.41196743 0.028357141 0.042417143
0.41199705 0.029331844 0.042411201
0.41202667 0.03030655 0.042405263
0.41115493 0.031297665 0.041921776
0.41118461 0.032273959 0.041915826
0.41121429 0.033250257 0.041909877
0.41124395 0.034226555 0.041903928
0.41127363 0.035202853 0.041897979
0.41130331 0.036179148 0.041892029
0.41133299 0.037155446 0.04188608
0.41136265 0.038131744 0.041880131
0.41139233 0.039108042 0.041874181
0.41142201 0.040084336 0.041868232
0.4105508 0.041092969 0.041384637
0.41058052 0.042070858 0.041378681
0.41061026 0.043048751 0.04137272
0.41063997 0.044026639 0.04136676
0.41066968 0.045004528 0.041360803
0.41069943 0.04598242 0.041354842
0.40982854 0.0470022 0.040871181
0.40985832 0.047981683 0.040865213
0.40988809 0.048961166 0.040859245
0.40901735 0.04998732 0.04037552
0.40814677 0.051016659 0.039891798
0.40817663 0.051999323 0.039885812
0.40730619 0.053033441 0.039402064
0.40553561 0.054123782 0.038440529
0.40556562 0.055111226 0.038434513
0.40379527 0.056211125 0.037472878
0.40382537 0.057201758 0.037466843
0.4038555 0.058192387 0.037460804
0.40298557 0.059244022 0.036976956
0.40121582 0.060361437 0.036015254
0.40550232 0.002782749 0.038467746
0.4055323 0.0037686019 0.038461741
0.40556225 0.0047544511 0.038455732
0.40559223 0.0057403077 0.038449723
0.40562218 0.0067261606 0.038443718
0.40655369 0.0077338642 0.038916256
0.40658361 0.0087181237 0.038910259
0.4066135 0.0097023863 0.038904261
0.40754479 0.010703719 0.03937684
0.40757468 0.011686387 0.039370853
0.40850583 0.012682945 0.039843459
0.40853563 0.01366402 0.03983748
0.40946668 0.014655799 0.040310144
0.40949646 0.015635282 0.040304177
0.40952623 0.016614765 0.040298209
0.41045704 0.017600173 0.040770881
0.41048676 0.01857806 0.040764924
0.4105165 0.019555951 0.040758964
0.41054621 0.020533841 0.040753007
0.41147679 0.021511286 0.041225724
0.41150647 0.022487583 0.041219775
0.41153613 0.023463881 0.041213825
0.41156581 0.024440177 0.041207876
0.41159549 0.025416475 0.041201927
0.41162518 0.026392771 0.041195977
0.41165483 0.027369067 0.041190028
0.41168451 0.028345365 0.041184079
0.4117142 0.029321663 0.04117813
0.41174385 0.030297959 0.04117218
0.41177353 0.031274255 0.041166231
0.41180322 0.032250553 0.041160282
0.4118329 0.033226851 0.041154332
0.41186255 0.034203149 0.041148383
0.41189224 0.035179444 0.041142434
0.41192192 0.036155742 0.041136485
0.4119516 0.03713204 0.041130535
0.41108122 0.038135856 0.040645745
0.41111097 0.039113745 0.040639784
0.41114068 0.040091638 0.040633827
0.41117042 0.041069526 0.040627867
0.41120014 0.042047415 0.040621907
0.41122985 0.043025307 0.04061595
0.41125959 0.044003196 0.040609989
0.4112893 0.044981085 0.040604033
0.4104194 0.045999233 0.040119145
0.41044918 0.046978716 0.040113177
0.41047895 0.047958199 0.040107209
0.40960917 0.048982725 0.039622258
0.40873954 0.050010432 0.039137315
0.4087694 0.0509931 0.039131328
0.40789995 0.052025583 0.038646355
0.40703055 0.053061251 0.038161363
0.40616128 0.054100107 0.037676353
0.40529203 0.055142149 0.037191294
0.40442297 0.056187376 0.036706246
0.40445307 0.057178006 0.036700208
0.40358412 0.058228008 0.036215138
0.40271527 0.059281196 0.035730038
0.40184653 0.060337573 0.035244927
0.40432543 0.0026994031 0.036745314
0.4043555 0.0036884395 0.036739286
0.40528625 0.0047041466 0.037213035
0.40531629 0.0056915949 0.037207019
0.4053463 0.0066790418 0.037201002
0.40627682 0.0076883757 0.037674766
0.40630677 0.0086742286 0.037668757
0.40723717 0.0096787885 0.038142551
0.40726709 0.010663048 0.038136553
0.40819731 0.011662827 0.038610369
0.40822718 0.012645496 0.038604382
0.40915728 0.013640499 0.039078232
0.40918711 0.014621573 0.039072253
0.41011709 0.015611798 0.039546158
0.41014686 0.016591281 0.03954019
0.41017663 0.017570764 0.039534222
0.41020641 0.018550245 0.039528254
0.41023618 0.019529728 0.039522283
0.41116583 0.020510396 0.039996222
0.41119558 0.021488287 0.039990265
0.41122529 0.022466175 0.039984304
0.411255 0.023444066 0.039978344
0.41128474 0.024421955 0.039972387
0.41131446 0.025399845 0.039966427
0.41134417 0.026377734 0.03996047
0.41137391 0.027355624 0.03995451
0.41140363 0.028333513 0.039948549
0.41143334 0.029311404 0.039942592
0.41146308 0.030289292 0.039936632
0.41149279 0.031267181 0.039930675
0.41152251 0.032245073 0.039924715
0.41155225 0.033222962 0.039918754
0.41158196 0.034200851 0.039912798
0.41161168 0.035178743 0.039906837
0.41164142 0.036156632 0.03990088
0.41167113 0.037134521 0.03989492
0.41170084 0.038112409 0.039888959
0.41173059 0.039090302 0.039883003
0.4117603 0.040068191 0.039877042
0.41179004 0.041046079 0.039871085
0.41181976 0.042023968 0.039865125
0.41184947 0.04300186 0.039859165
0.41098049 0.044016786 0.039373066
0.41101024 0.044996269 0.039367098
0.41104001 0.045975752 0.03936113
0.41106978 0.046955235 0.039355163
0.41020098 0.047978126 0.038868986
0.41023082 0.048959203 0.038863011
0.4093622 0.049986869 0.038376834
0.40849367 0.051017724 0.037890643
0.40852359 0.052001983 0.037884645
0.40765524 0.053037617 0.03739842
0.40678695 0.054076429 0.036912177
0.40591872 0.055118438 0.036425885
0.40594879 0.056107476 0.036419857
0.40508077 0.057154257 0.035933573
0.40421283 0.058204219 0.035447259
0.40424299 0.059196442 0.035441212
0.40247723 0.060313705 0.034474581
0.40405238 0.0026458008 0.035498947
0.40408248 0.0036364309 0.035492912
0.40501222 0.0046537677 0.03596786
0.40504229 0.0056428062 0.035961833
0.40507236 0.0066318442 0.035955805
0.40600199 0.0076428121 0.036430821
0.406032 0.0086302571 0.036424801
0.40696141 0.0096364468 0.036899813
0.40789074 0.010639451 0.037374847
0.40792066 0.011623709 0.037368849
0.40884984 0.012621937 0.037843909
0.4088797 0.013604605 0.037837923
0.40890956 0.014587272 0.037831932
0.40983856 0.015579127 0.038307037
0.40986836 0.016560202 0.038301058
0.40989819 0.017541278 0.038295079
0.41082704 0.018526763 0.038770247
0.41085681 0.019506244 0.038764279
0.41088659 0.020485727 0.038758311
0.41091636 0.021465208 0.038752344
0.41094613 0.022444692 0.038746372
0.41187462 0.023420621 0.03922157
0.41190434 0.024398509 0.039215609
0.41193408 0.0253764 0.039209649
0.41196379 0.026354289 0.039203692
0.4119935 0.027332179 0.039197732
0.41202325 0.028310068 0.039191775
0.41205296 0.029287959 0.039185815
0.4120827 0.030265847 0.039179854
0.41211241 0.031243738 0.039173897
0.41214213 0.032221626 0.039167937
0.41217187 0.033199519 0.03916198
0.41220158 0.034177408 0.03915602
0.4122313 0.035155296 0.039150059
0.41226104 0.036133185 0.039144102
0.41229075 0.037111077 0.039138142
0.41232046 0.038088966 0.039132185
0.41145223 0.039095894 0.038644906
0.41148201 0.040075373 0.038638938
0.41151178 0.041054856 0.038632967
0.41154155 0.042034339 0.038626999
0.41157132 0.043013822 0.038621031
0.4116011 0.043993305 0.038615063
0.41163087 0.044972789 0.038609095
0.41166064 0.045952268 0.038603123
0.4107928 0.04697353 0.038115729
0.4099251 0.047997974 0.037628338
0.40995497 0.048980642 0.037622347
0.40998483 0.04996331 0.037616361
0.40911734 0.050994128 0.037128936
0.40914723 0.051978387 0.037122939
0.4082799 0.05301398 0.036635481
0.40741262 0.054052759 0.036148012
0.4065454 0.055094726 0.035660487
0.40567833 0.056139875 0.035172969
0.40570843 0.057130504 0.035166934
0.40484151 0.058180429 0.034679394
0.40487167 0.059172656 0.034673348
0.40490183 0.06016488 0.034667302
0.40378132 0.0025921182 0.03425011
0.40381148 0.0035843421 0.034244064
0.40474027 0.0046033105 0.034720238
0.40477037 0.0055939425 0.0347142
0.40569904 0.0066081318 0.035190396
0.40572909 0.0075971703 0.035184368
0.40665767 0.0086065829 0.035660625
0.40668768 0.0095940297 0.035654608
0.40761605 0.010598664 0.03613086
0.4085443 0.011600112 0.036607139
0.40857422 0.012584374 0.036601141
0.40860415 0.013568634 0.036595143
0.40953222 0.014563712 0.037071455
0.40956208 0.01554638 0.037065469
0.40959194 0.01652905 0.037059478
0.4096218 0.017511716 0.037053492
0.41054964 0.01849883 0.037529852
0.41057947 0.019479906 0.037523873
0.41060928 0.020460982 0.037517894
0.41063911 0.021442056 0.037511915
0.41156676 0.022421207 0.037988357
0.41159654 0.02340069 0.037982389
0.41162628 0.024380174 0.037976421
0.41165605 0.025359655 0.03797045
0.41168582 0.026339138 0.037964482
0.4117156 0.027318619 0.037958514
0.41174537 0.028298102 0.037952546
0.41177514 0.029277584 0.037946578
0.41180491 0.030257067 0.037940606
0.41183469 0.03123655 0.037934639
0.41186446 0.032216031 0.037928671
0.41189423 0.033195514 0.037922703
0.411924 0.034174997 0.037916731
0.41195378 0.03515448 0.037910763
0.41198355 0.03613396 0.037904795
0.41201332 0.037113443 0.037898827
0.41204309 0.038092926 0.037892859
0.41207287 0.039072409 0.037886888
0.41210264 0.040051892 0.03788092
0.41213241 0.041031372 0.037874952
0.41216218 0.042010855 0.037868984
0.41219196 0.042990338 0.037863016
0.41132498 0.044006784 0.037374415
0.41135478 0.044987857 0.037368435
0.41138461 0.045968935 0.037362456
0.41051787 0.046991747 0.036873847
0.41054773 0.047974415 0.036867861
0.4105776 0.048957083 0.03686187
0.40971106 0.049986266 0.036373224
0.40974098 0.050970528 0.036367226
0.40887457 0.05200449 0.035878547
0.40800828 0.053041637 0.035389852
0.40803829 0.054029085 0.035383832
0.40717208 0.055071011 0.034895077
0.40630603 0.056116126 0.03440633
0.40633613 0.057106756 0.034400295
0.40547022 0.058156643 0.033911515
0.40550038 0.059148867 0.033905469
0.40553054 0.06014109 0.033899423
0.4055607 0.061133314 0.033893377
0.40434968 0.00058388192 0.033494335
0.40437984 0.0015761057 0.033488285
0.40441 0.0025683295 0.033482239
0.40444016 0.0035605533 0.033476193
0.40536797 0.0045795599 0.033953592
0.40539807 0.0055701919 0.033947557
0.40632573 0.0065844194 0.034424987
0.4063558 0.0075734579 0.034418959
0.40728334 0.0085829087 0.034896448
0.40731335 0.0095703546 0.034890432
0.40824071 0.010575028 0.035367917
0.40827066 0.011560881 0.035361908
0.40919787 0.012560776 0.035839427
0.40922779 0.013545035 0.03583343
0.40925771 0.014529295 0.035827432
0.40928763 0.015513556 0.035821434
0.4102146 0.016505489 0.036299001
0.41024446 0.017488157 0.036293015
0.41027433 0.018470822 0.036287025
0.41030419 0.019453492 0.036281038
0.41033408 0.020436158 0.036275052
0.41036394 0.021418827 0.036269061
0.41129056 0.02239961 0.036746696
0.41132039 0.023380686 0.036740717
0.41135019 0.024361759 0.036734737
0.41138002 0.025342835 0.036728758
0.41140985 0.026323911 0.036722779
0.41233623 0.027295137 0.037200503
0.412366 0.02827462 0.037194535
0.41239578 0.029254101 0.037188567
0.41242555 0.030233584 0.037182596
0.41245532 0.031213066 0.037176628
0.41248509 0.032192547 0.03717066
0.41251487 0.03317203 0.037164692
0.41254464 0.034151513 0.037158724
0.41257441 0.035130996 0.037152752
0.41260418 0.036110479 0.037146784
0.41263396 0.037089959 0.037140816
0.41266373 0.038069442 0.037134849
0.4126935 0.039048925 0.037128881
0.41182733 0.040058963 0.036639083
0.41185716 0.041040037 0.036633104
0.41188696 0.042021111 0.036627125
0.41191679 0.043002188 0.03662115
0.41194659 0.043983262 0.036615171
0.41108078 0.045002852 0.036125347
0.41111064 0.04598552 0.03611936
0.41114053 0.046968188 0.03611337
0.41117039 0.047950856 0.036107384
0.41030481 0.048978411 0.035617508
0.41033474 0.04996267 0.03561151
0.40946928 0.050995 0.035121609
0.40949926 0.051980853 0.035115603
0.40863395 0.053017963 0.034625672
0.40866396 0.054005411 0.034619655
0.40779877 0.0550473 0.034129664
0.40693372 0.056092374 0.033639688
0.40696383 0.057083003 0.033633653
0.40699393 0.058073632 0.033627614
0.40702406 0.059064265 0.033621579
0.40615925 0.060117304 0.033131551
0.40618938 0.061109528 0.033125505
0.40621954 0.062101748 0.033119459
0.40494823 -0.00043213056 0.032732509
0.40497839 0.00056009321 0.032726463
0.40500855 0.0015523171 0.032720417
0.40503871 0.0025445409 0.032714371
0.40506887 0.0035367645 0.032708321
0.40599564 0.0045558098 0.033186961
0.40602577 0.0055464418 0.033180926
0.40695238 0.0065607075 0.033659585
0.40698245 0.0075497455 0.033653561
0.40701252 0.0085387817 0.033647534
0.40793902 0.0095466813 0.034126259
0.40886536 0.010551392 0.034604978
0.40889531 0.011537245 0.034598973
0.40892529 0.0125231 0.034592964
0.40985143 0.013521438 0.035071731
0.40988135 0.014505697 0.035065733
0.40991127 0.015489958 0.035059731
0.4099412 0.016474219 0.035053734
0.40997112 0.017458482 0.035047736
0.41000104 0.018442741 0.035041738
0.41003093 0.019427001 0.035035741
0.41095671 0.0204126 0.035514578
0.41098657 0.021395268 0.035508592
0.41101643 0.022377934 0.035502601
0.41104633 0.023360603 0.035496615
0.41107619 0.024343271 0.035490625
0.41110605 0.025325939 0.035484638
0.41113591 0.026308605 0.035478652
0.4120613 0.027281463 0.035957564
0.41209111 0.028262539 0.035951585
0.41212094 0.029243615 0.035945605
0.41215077 0.030224688 0.03593963
0.41218057 0.031205764 0.035933651
0.4122104 0.03218684 0.035927672
0.41224021 0.033167914 0.035921693
0.41227004 0.034148991 0.035915714
0.41229984 0.035130065 0.035909738
0.41232967 0.036111139 0.035903759
0.41235951 0.037092216 0.03589778
0.41238931 0.03807329 0.035891801
0.41241914 0.039054364 0.035885822
0.41244894 0.040035442 0.035879847
0.41247877 0.041016515 0.035873868
0.41161382 0.042031288 0.035382841
0.41164368 0.043013956 0.035376851
0.41167355 0.043996625 0.035370864
0.41170341 0.044979293 0.035364877
0.4117333 0.045961961 0.035358887
0.41086861 0.046986293 0.034867804
0.41089854 0.047970552 0.034861807
0.41092846 0.048954811 0.034855809
0.41006398 0.049985513 0.034364678
0.41009393 0.050971366 0.034358673
0.41012391 0.051957216 0.034352664
0.40925962 0.052994289 0.033861503
0.40839538 0.05403455 0.033370294
0.40842545 0.055023588 0.033364266
0.40845549 0.056012627 0.033358239
0.40848556 0.057001665 0.033352211
0.40762162 0.058049884 0.032860983
0.40765172 0.059040513 0.032854944
0.40678793 0.060093515 0.032363683
0.40681809 0.061085738 0.032357633
0.40684825 0.062077958 0.032351587
0.40687841 0.063070185 0.032345541
0.40557694 -0.00045591927 0.031964637
0.4056071 0.00053630449 0.031958591
0.40563726 0.0015285283 0.031952545
0.40656313 0.0025507987 0.032432392
0.40659323 0.0035414288 0.032426354
0.40662333 0.0045320587 0.032420319
0.40754902 0.0055479566 0.032900203
0.40757909 0.0065369946 0.032894175
0.40760913 0.0075260331 0.032888148
0.40763921 0.0085150693 0.03288212
0.40856469 0.0095230071 0.033362083
0.4085947 0.010510453 0.033356063
0.40952 0.011513609 0.033836029
0.40954995 0.012499464 0.033830021
0.40957993 0.013485314 0.033824012
0.40960988 0.014471168 0.033818007
0.40963987 0.01545702 0.033811998
0.41056484 0.016450621 0.03429202
0.41059476 0.017434882 0.034286022
0.41062468 0.018419143 0.034280024
0.4106546 0.019403404 0.034274027
0.41068453 0.020387663 0.034268029
0.41071445 0.021371923 0.034262031
0.41074434 0.022356184 0.034256034
0.41166896 0.023337044 0.03473613
0.41169882 0.02431971 0.034730144
0.41172871 0.025302378 0.034724154
0.41175857 0.026285047 0.034718167
0.41178843 0.027267713 0.03471218
0.4118183 0.028250381 0.03470619
0.41184819 0.02923305 0.034700204
0.41187805 0.030215718 0.034694213
0.41190791 0.031198384 0.034688227
0.41283202 0.032163318 0.035168424
0.41286185 0.033144392 0.035162445
0.41289169 0.03412547 0.035156466
0.41292149 0.035106543 0.035150487
0.41295132 0.036087617 0.035144508
0.41208711 0.037094392 0.034652296
0.412117 0.03807706 0.03464631
0.41214687 0.039059728 0.034640323
0.41217673 0.040042393 0.034634333
0.41220659 0.041025061 0.034628347
0.41223645 0.042007729 0.034622356
0.4113726 0.04302565 0.034130078
0.41140252 0.044009913 0.03412408
0.41143245 0.044994172 0.034118082
0.41146237 0.045978431 0.034112085
0.41149229 0.046962693 0.034106087
0.41062871 0.047990169 0.033613749
0.41065869 0.048976023 0.033607744
0.41068864 0.049961876 0.033601735
0.41071862 0.050947729 0.033595726
0.40985528 0.05198317 0.033103343
0.40988529 0.052970614 0.033097323
0.40902206 0.054010838 0.032604884
0.40905213 0.054999877 0.032598857
0.40908217 0.055988915 0.032592829
0.40821922 0.057035502 0.032100376
0.40824932 0.058026135 0.032094341
0.40827942 0.059016764 0.032088302
0.40830955 0.060007397 0.032082267
0.4074468 0.061061949 0.031589765
0.40747696 0.062054172 0.031583719
0.40750712 0.063046396 0.031577669
0.40842998 0.063969925 0.03205812
0.40707037 -0.001435476 0.031689905
0.40710047 -0.00044484585 0.03168387
0.4071306 0.00054578431 0.031677831
0.4071607 0.0015364144 0.031671796
0.4071908 0.0025270483 0.031665757
0.40722093 0.0035176785 0.031659722
0.40725103 0.0045083086 0.031653684
0.40728113 0.0054989406 0.031647649
0.40820575 0.0065132827 0.03212877
0.40823582 0.0075023207 0.032122742
0.40916035 0.008511886 0.032603934
0.40919036 0.0094993329 0.032597918
0.40922037 0.01048678 0.032591898
0.40925038 0.011474224 0.032585882
0.41017461 0.012475828 0.033067089
0.41020459 0.013461679 0.03306108
0.41023454 0.014447532 0.033055075
0.41026452 0.015433385 0.033049066
0.41029447 0.016419239 0.033043057
0.41032445 0.017405093 0.033037052
0.41035441 0.018390944 0.033031043
0.41038436 0.019376798 0.033025034
0.41130817 0.020364065 0.033506323
0.41133809 0.021348326 0.033500325
0.41136801 0.022332586 0.033494327
0.41139793 0.023316847 0.033488329
0.41142783 0.024301106 0.033482332
0.41145775 0.025285367 0.033476334
0.41148767 0.026269628 0.033470336
0.41151759 0.027253889 0.033464339
0.41244096 0.028226821 0.033945721
0.41247082 0.029209489 0.03393973
0.41250068 0.030192157 0.033933744
0.41253054 0.031174826 0.033927754
0.41256043 0.032157492 0.033921767
0.4125903 0.03314016 0.03391578
0.41262016 0.034122828 0.03390979
0.41265002 0.035105497 0.033903804
0.41267988 0.036088165 0.033897813
0.41270977 0.037070833 0.033891827
0.41273963 0.038053501 0.033885837
0.41187659 0.039065011 0.033392366
0.41190651 0.040049274 0.033386368
0.41193643 0.041033532 0.033380371
0.41196635 0.042017795 0.033374373
0.41199625 0.043002054 0.033368375
0.41202617 0.043986313 0.033362377
0.41116348 0.045008976 0.03286884
0.41119343 0.045994829 0.032862831
0.41122341 0.046980683 0.032856826
0.41125336 0.047966532 0.032850817
0.41128334 0.04895239 0.032844812
0.41042092 0.049984604 0.032351211
0.41045094 0.050972052 0.032345194
0.41048095 0.051959496 0.032339174
0.41051096 0.05294694 0.032333158
0.40964875 0.053987127 0.031839479
0.40967882 0.054976162 0.031833451
0.40970886 0.0559652 0.031827424
0.40973893 0.056954239 0.031821396
0.40887699 0.058002383 0.031327706
0.40890712 0.058993012 0.031321671
0.40893722 0.059983648 0.031315632
0.40807548 0.061038159 0.030821897
0.40810564 0.062030382 0.030815851
0.40902755 0.062955536 0.031297524
0.40816596 0.06401483 0.030803759
0.40766793 -0.0024498568 0.030929297
0.40769807 -0.0014592267 0.03092326
0.40772817 -0.00046859655 0.030917224
0.40775827 0.0005220336 0.030911189
0.4077884 0.0015126638 0.030905152
0.4078185 0.0025032975 0.030899115
0.4078486 0.0034939277 0.030893078
0.40787873 0.004484558 0.030887041
0.40880239 0.0055005318 0.031369392
0.40883243 0.0064895703 0.031363368
0.4088625 0.0074786087 0.031357341
0.40889257 0.0084676454 0.031351313
0.40981603 0.0094756586 0.031833738
0.40984604 0.010463105 0.031827722
0.40987605 0.01145055 0.031821705
0.40990606 0.012437996 0.031815689
0.4099361 0.013425441 0.031809669
0.41085923 0.014423896 0.032292124
0.40999612 0.015400332 0.031797636
0.41002613 0.016387779 0.03179162
0.41094911 0.017381456 0.032274101
0.41097906 0.018367307 0.032268092
0.41100904 0.019353162 0.032262087
0.41103899 0.020339012 0.032256078
0.41106898 0.021324867 0.032250069
0.41109893 0.022310719 0.032244064
0.41112891 0.023296574 0.032238055
0.41115886 0.024282426 0.03223205
0.41208142 0.025261769 0.032714624
0.41211131 0.02624603 0.032708626
0.41214123 0.027230291 0.032702629
0.41217116 0.02821455 0.032696631
0.41220108 0.02919881 0.032690633
0.412231 0.030183071 0.032684635
0.41226092 0.031167332 0.032678638
0.41318306 0.032133933 0.03316129
0.41321293 0.033116601 0.033155303
0.41324279 0.03409927 0.033149313
0.41327268 0.035081938 0.033143327
0.4124105 0.036088634 0.032648649
0.41244042 0.037072893 0.032642651
0.41247034 0.038057156 0.032636654
0.41250023 0.039041415 0.032630656
0.41253015 0.040025674 0.032624658
0.41166827 0.041041926 0.032129921
0.41169825 0.042027779 0.032123912
0.4117282 0.043013632 0.032117907
0.41175818 0.043999486 0.032111898
0.41178814 0.044985339 0.032105889
0.41181812 0.045971192 0.032099884
0.41095656 0.046998594 0.031605083
0.41098657 0.047986038 0.031599067
0.41101658 0.048973486 0.031593051
0.41104659 0.04996093 0.031587034
0.41107661 0.050948378 0.031581014
0.41110662 0.051935822 0.031574998
0.41024536 0.052974373 0.031080101
0.41027543 0.053963412 0.031074073
0.41030547 0.05495245 0.031068048
0.41033554 0.055941489 0.03106202
0.40947458 0.056988001 0.0305671
0.40950468 0.057978634 0.030561063
0.40953481 0.058969263 0.030555027
0.40956491 0.059959896 0.03054899
0.40959501 0.060950525 0.030542953
0.40873435 0.062006593 0.030047974
0.40876451 0.062998816 0.030041927
0.40879467 0.06399104 0.030035881
0.40793419 0.065053478 0.029540865
0.40826553 -0.0034642413 0.030168695
0.40829563 -0.0024736074 0.03016266
0.40832573 -0.0014829772 0.030156624
0.40835586 -0.00049234706 0.030150587
0.40838596 0.00049828307 0.03014455
0.40841609 0.0014889132 0.030138513
0.40933886 0.0025097046 0.030622069
0.40847629 0.0034701773 0.030126439
0.409399 0.0044877813 0.030610016
0.40942904 0.0054768194 0.030603988
0.40945911 0.0064658578 0.030597962
0.40948918 0.0074548963 0.030591935
0.40951926 0.008443933 0.030585907
0.4104417 0.0094519844 0.031069567
0.41047171 0.010439431 0.031063551
0.41050172 0.011426875 0.031057533
0.41053173 0.012414322 0.031051517
0.41056174 0.013401767 0.031045498
0.41059178 0.014389213 0.031039482
0.41062179 0.015376658 0.031033464
0.4106518 0.016364105 0.031027447
0.41068181 0.017351549 0.031021431
0.41071182 0.018338995 0.031015413
0.41074184 0.019326443 0.031009397
0.41077185 0.020313887 0.031003378
0.41080186 0.021301333 0.030997362
0.41083187 0.022288777 0.030991344
0.41175357 0.023272937 0.031475123
0.41178352 0.024258791 0.031469118
0.4118135 0.025244644 0.031463109
0.41184345 0.026230497 0.0314571
0.41187343 0.027216349 0.031451095
0.41190338 0.028202202 0.031445086
0.41282472 0.029175213 0.031928927
0.41285464 0.030159473 0.031922929
0.41288456 0.031143734 0.031916931
0.41291448 0.032127995 0.031910934
0.41294441 0.033112254 0.031904936
0.4129743 0.034096513 0.031898938
0.41300422 0.035080776 0.03189294
0.41303414 0.036065035 0.031886943
0.41306406 0.037049297 0.031880945
0.41220304 0.038060732 0.031385012
0.412233 0.039046586 0.031379003
0.41226298 0.040032439 0.031372994
0.41229293 0.041018292 0.031366989
0.41232291 0.042004146 0.03136098
0.41235286 0.042989999 0.031354975
0.41149217 0.044012584 0.030858966
0.41152221 0.045000028 0.030852947
0.41155222 0.045987472 0.030846931
0.41158223 0.04697492 0.030840913
0.41161224 0.047962364 0.030834896
0.41075179 0.048994508 0.030338803
0.41078186 0.049983546 0.030332778
0.4108119 0.050972585 0.03032675
0.41084197 0.051961623 0.030320723
0.41087204 0.052950662 0.030314695
0.41090211 0.0539397 0.030308669
0.41093215 0.054928739 0.030302642
0.41007215 0.055973623 0.029806498
0.41010228 0.056964252 0.029800462
0.41013238 0.057954881 0.029794425
0.41016248 0.058945511 0.029788388
0.40930271 0.05999836 0.029292202
0.40933287 0.060990583 0.029286155
0.40847328 0.062048204 0.028789934
0.40850347 0.063042022 0.028783878
0.40853369 0.06403584 0.028777821
0.40767425 0.065099828 0.028281568
0.40975511 -0.0044372743 0.029898847
0.40978518 -0.0034482381 0.029892821
0.40892333 -0.0024973578 0.029396022
0.40895343 -0.0015067277 0.029389985
0.40987536 -0.00048112485 0.02987474
0.40990543 0.00050791533 0.029868713
0.40904376 0.0014651627 0.029371874
0.40907389 0.0024557966 0.029365838
0.40999562 0.0034750286 0.029850632
0.41002569 0.0044640689 0.029844604
0.41005573 0.0054531069 0.029838579
0.4100858 0.0064421454 0.029832551
0.41011587 0.0074311839 0.029826524
0.41014594 0.0084202206 0.029820498
0.41017598 0.00940926 0.029814471
0.41020605 0.010398299 0.029808443
0.41112739 0.011403201 0.030293357
0.41026616 0.012376377 0.02979639
0.41029623 0.013365414 0.029790362
0.41121745 0.014365539 0.030275304
0.41035637 0.015343491 0.029778309
0.41038641 0.016332531 0.029772282
0.41041648 0.017321568 0.029766254
0.41133749 0.018315321 0.030251237
0.41136751 0.019302769 0.030245218
0.41139752 0.020290213 0.030239202
0.41142753 0.021277659 0.030233184
0.41145754 0.022265103 0.030227168
0.41148758 0.023252551 0.030221149
0.41151759 0.024239995 0.030215133
0.4115476 0.025227441 0.030209115
0.41157761 0.026214886 0.030203098
0.41249809 0.027192714 0.03068815
0.41252804 0.028178567 0.030682143
0.41255802 0.029164419 0.030676134
0.41258797 0.030150272 0.030670127
0.41261795 0.031136125 0.03066412
0.4126479 0.032121979 0.030658113
0.41267788 0.033107832 0.030652104
0.41270784 0.034093685 0.030646097
0.41273782 0.035079539 0.03064009
0.41276777 0.036065392 0.030634083
0.41279775 0.037051242 0.030628074
0.4128277 0.038037095 0.030622067
0.41285765 0.039022949 0.03061606
0.41288763 0.040008802 0.030610051
0.41202781 0.04102657 0.03011284
0.41205782 0.042014018 0.030106822
0.41208783 0.043001462 0.030100806
0.41211787 0.04398891 0.030094787
0.41214788 0.044976354 0.030088771
0.41128829 0.046003681 0.029591475
0.41131836 0.046992719 0.029585447
0.4113484 0.047981758 0.02957942
0.41137847 0.048970796 0.029573394
0.41140854 0.049959835 0.029567366
0.41143858 0.050948873 0.029561339
0.41146865 0.051937912 0.029555313
0.41149873 0.05292695 0.029549286
0.41063961 0.053968608 0.029051933
0.41066974 0.054959238 0.029045897
0.41069984 0.05594987 0.02903986
0.41072994 0.0569405 0.029033823
0.41076007 0.057931133 0.029027786
0.40990126 0.058982346 0.02853037
0.40993142 0.05997457 0.028524324
0.40996158 0.060966793 0.028518278
0.40910298 0.062024377 0.028020829
0.40824446 0.063085146 0.027523361
0.407386 0.064149104 0.027025841
0.40741628 0.065146111 0.027019765
0.40949079 -0.0045023724 0.028641451
0.41041186 -0.0034719505 0.02912741
0.40955102 -0.0025211086 0.028629377
0.40958112 -0.0015304784 0.028623341
0.41050205 -0.00050483737 0.029109329
0.40964136 0.0004507819 0.028611269
0.40967146 0.001441412 0.028605232
0.40970156 0.002432046 0.028599195
0.40973169 0.0034226761 0.028593158
0.41065237 0.004440356 0.029079195
0.41068241 0.0054293945 0.029073168
0.41071248 0.006418433 0.02906714
0.41074255 0.0074074711 0.029061114
0.41077262 0.0083965082 0.029055087
0.41080266 0.0093855476 0.029049059
0.41083273 0.010374586 0.029043034
0.4108628 0.011363625 0.029037006
0.41089284 0.012352665 0.029030979
0.41092291 0.013341702 0.029024953
0.41095299 0.01433074 0.029018926
0.41098306 0.015319778 0.029012898
0.4110131 0.016308818 0.029006872
0.41104317 0.017297855 0.029000845
0.41107324 0.018286893 0.028994817
0.41110328 0.019275932 0.02898879
0.41113335 0.02026497 0.028982764
0.41116342 0.021254009 0.028976737
0.41119349 0.022243047 0.028970709
0.41122353 0.023232086 0.028964683
0.4112536 0.024221122 0.028958656
0.41217327 0.025203766 0.029444939
0.41220328 0.026191212 0.02943892
0.41223329 0.027178658 0.029432904
0.4122633 0.028166104 0.029426886
0.41229331 0.029153548 0.029420869
0.41232333 0.030140994 0.029414851
0.41324261 0.03111249 0.029901175
0.41327256 0.032098342 0.029895168
0.41330254 0.033084195 0.029889161
0.41333249 0.034070048 0.029883154
0.41336247 0.035055902 0.029877145
0.41250342 0.036065668 0.029378749
0.41253343 0.037053116 0.029372731
0.41256344 0.03804056 0.029366715
0.41259345 0.039028004 0.029360697
0.41262347 0.040015452 0.02935468
0.41265348 0.041002896 0.029348662
0.41268349 0.041990343 0.029342646
0.41182479 0.043012854 0.028844144
0.41185483 0.044001892 0.028838117
0.4118849 0.044990931 0.028832091
0.41191497 0.045979969 0.028826063
0.41194504 0.046969008 0.028820036
0.41197509 0.047958046 0.02881401
0.41111678 0.048991702 0.028315473
0.41114688 0.049982332 0.028309437
0.41117698 0.050972965 0.0283034
0.41120711 0.051963594 0.028297363
0.41123721 0.052954227 0.028291326
0.41126731 0.053944856 0.028285289
0.41129744 0.054935489 0.028279252
0.41132754 0.055926122 0.028273216
0.41046965 0.056974109 0.027774593
0.41049981 0.057966333 0.027768547
0.41052997 0.058958557 0.027762499
0.40967226 0.060012918 0.027263837
0.40881467 0.061070465 0.026765149
0.40795711 0.0621312 0.026266415
0.40798742 0.063128203 0.026260339
0.40713006 0.064193711 0.025761608
0.4062728 0.065262407 0.025262857
0.4063032 0.066262595 0.025256762
0.40919831 -0.0055597704 0.027387645
0.41011849 -0.0045261229 0.027874818
0.41014859 -0.0035354928 0.027868783
0.41017869 -0.002544859 0.027862746
0.41020882 -0.0015542287 0.027856709
0.41023892 -0.00056359859 0.027850673
0.41026902 0.00042703157 0.027844636
0.41029915 0.0014176617 0.027838599
0.41032925 0.0024082956 0.027832562
0.41035935 0.0033989258 0.027826525
0.41038948 0.0043895557 0.027820488
0.41130909 0.0054056826 0.028307769
0.41133916 0.0063947206 0.028301742
0.41136923 0.0073837591 0.028295714
0.41139928 0.0083727958 0.028289689
0.41142935 0.0093618361 0.028283661
0.41145942 0.010350875 0.028277634
0.41148946 0.011339912 0.028271608
0.41151953 0.012328953 0.028265581
0.4115496 0.013317989 0.028259553
0.41069058 0.014295867 0.027760122
0.41160971 0.015296066 0.0282475
0.41163978 0.016285107 0.028241472
0.41166985 0.017274143 0.028235445
0.41169989 0.018263182 0.028229419
0.41172996 0.01925222 0.028223392
0.41176003 0.020241257 0.028217364
0.4117901 0.021230297 0.028211338
0.41182014 0.022219334 0.028205311
0.41185021 0.023208374 0.028199283
0.41188028 0.024197411 0.028193258
0.41191033 0.025186451 0.02818723
0.4119404 0.026175488 0.028181203
0.41197047 0.027164526 0.028175177
0.41200054 0.028153565 0.02816915
0.41203058 0.029142603 0.028163122
0.412949 0.03011732 0.028650686
0.41297901 0.031104766 0.02864467
0.41300902 0.032092214 0.028638652
0.41303903 0.033079658 0.028632635
0.41306907 0.034067102 0.028626617
0.41309908 0.03505455 0.028620601
0.41312909 0.036041994 0.028614582
0.4131591 0.037029441 0.028608566
0.41318911 0.038016886 0.028602548
0.41233122 0.039032988 0.028102852
0.41236126 0.040022027 0.028096827
0.41239133 0.041011065 0.028090799
0.41242141 0.042000104 0.028084772
0.41245145 0.042989142 0.028078746
0.41248152 0.043978181 0.028072719
0.41162401 0.04500543 0.027572988
0.41165411 0.045996059 0.027566951
0.41168424 0.046986692 0.027560914
0.41171435 0.047977321 0.027554877
0.41174445 0.048967954 0.02754884
0.41177458 0.049958583 0.027542803
0.41180468 0.050949212 0.027536767
0.41183478 0.051939845 0.027530732
0.41186491 0.052930474 0.027524695
