# .PCD v0.7 - Point Cloud Data file format
VERSION 0.7
FIELDS x y z
SIZE 4 4 4
TYPE F F F
COUNT 1 1 1
WIDTH 1379
HEIGHT 1
VIEWPOINT 0 0 0 1 0 0 0
POINTS 1379
DATA ascii
0.47322643 0.046713684 0.067647278
0.47325301 0.04758805 0.067641951
0.47327957 0.048462417 0.067636624
0.47330615 0.049336787 0.067631297
0.47243953 0.050263926 0.067139573
0.46959516 0.026621208 0.065143667
0.46962193 0.027501946 0.065138303
0.46964872 0.028382685 0.065132931
0.47056881 0.029248912 0.065614969
0.47059554 0.030128056 0.065609612
0.47151557 0.030989503 0.066091694
0.47243544 0.031847768 0.066573776
0.47246206 0.032723729 0.066568434
0.47338179 0.033577211 0.067050546
0.47340837 0.034451582 0.067045219
0.47343495 0.035325948 0.067039892
0.47435448 0.036173061 0.067522034
0.474381 0.037045836 0.067516714
0.47440752 0.037918612 0.067511395
0.47443408 0.038791385 0.067506075
0.47535336 0.039630536 0.067988269
0.47537982 0.040501721 0.067982964
0.47540632 0.041372903 0.067977652
0.47543278 0.042244084 0.067972347
0.47545928 0.043115266 0.067967035
0.47548574 0.043986447 0.06796173
0.47461978 0.044900808 0.067468844
0.4746463 0.045773581 0.067463525
0.47378045 0.046692722 0.066970624
0.47380701 0.047567088 0.066965297
0.47383359 0.048441455 0.06695997
0.47386017 0.049315821 0.066954635
0.47299457 0.050242923 0.066461682
0.47018 0.027480831 0.064456701
0.47109917 0.028348688 0.064939953
0.47112587 0.029227832 0.064934596
0.47204494 0.030090911 0.065417908
0.47207162 0.030968465 0.065412566
0.47299048 0.031826764 0.06589587
0.4730171 0.032702725 0.065890536
0.47393581 0.033556249 0.066373877
0.4739624 0.034430616 0.06636855
0.47488096 0.035279363 0.066851921
0.47490749 0.036152136 0.066846602
0.47582591 0.036996104 0.067330003
0.4758524 0.037867285 0.067324691
0.47587889 0.038738467 0.067319386
0.47590536 0.039609652 0.067314073
0.47593185 0.040480834 0.067308769
0.47595832 0.041352015 0.067303456
0.47598481 0.042223196 0.067298152
0.47601128 0.043094378 0.067292839
0.47603777 0.043965559 0.067287527
0.47606423 0.044836741 0.067282222
0.47519931 0.045752656 0.0667881
0.47522584 0.046625432 0.06678278
0.47436103 0.047546126 0.066288628
0.47438762 0.048420493 0.066283301
0.4744142 0.049294859 0.066277966
0.47444078 0.050169226 0.066272639
0.47160274 0.02656932 0.064270318
0.47162947 0.027448466 0.064264961
0.4716562 0.02832761 0.064259604
0.47257429 0.029192319 0.064744137
0.47260097 0.030069873 0.064738788
0.47351888 0.030929806 0.065223321
0.47354549 0.031805765 0.065217979
0.47446325 0.03266092 0.065702543
0.47448984 0.033535287 0.065697215
0.47540745 0.034385663 0.066181809
0.47543398 0.035258438 0.066176489
0.47635144 0.036104035 0.066661112
0.47637793 0.03697522 0.0666558
0.4764044 0.037846401 0.066650495
0.47643089 0.038717583 0.066645183
0.47645736 0.039588764 0.066639878
0.47648385 0.040459946 0.066634566
0.47651032 0.041331127 0.066629261
0.47653681 0.042202309 0.066623949
0.47656327 0.04307349 0.066618644
0.47658977 0.043944675 0.066613331
0.47661623 0.044815857 0.066608027
0.47664273 0.045687038 0.066602714
0.47577885 0.046604507 0.066107348
0.47580537 0.047477283 0.066102028
0.4758319 0.048350055 0.066096708
0.47585842 0.049222831 0.066091396
0.47499478 0.050148264 0.065595984
0.47213307 0.025669098 0.06359531
0.4721598 0.026548242 0.063589953
0.47218654 0.027427388 0.063584596
0.47310367 0.028293727 0.064070344
0.47313035 0.029171281 0.064065002
0.47404727 0.030032843 0.064550757
0.47407392 0.030908804 0.064545423
0.4749907 0.031765588 0.065031208
0.47501728 0.032639954 0.065025873
0.47593394 0.033491962 0.065511696
0.47596046 0.034364738 0.065506376
0.47687697 0.035211965 0.065992221
0.47690344 0.036083151 0.065986909
0.47692993 0.036954332 0.065981604
0.4769564 0.037825514 0.065976292
0.47698289 0.038696695 0.06597098
0.47700936 0.039567877 0.065965675
0.47703585 0.040439058 0.065960363
0.47706231 0.04131024 0.065955058
0.47708881 0.042181425 0.065949745
0.47711527 0.043052606 0.065944441
0.47714177 0.043923788 0.065939128
0.47716826 0.044794969 0.065933824
0.47719473 0.045666151 0.065928511
0.47722122 0.046537332 0.065923207
0.47724769 0.047408514 0.065917894
0.47638491 0.04832913 0.065421283
0.47730064 0.04915088 0.065907277
0.47643796 0.050074682 0.065410644
0.4726634 0.024768874 0.062920295
0.47269014 0.02564802 0.062914938
0.47360638 0.026517583 0.063401908
0.47363305 0.027395137 0.063396566
0.47365972 0.028272688 0.063391216
0.4745757 0.029135883 0.063878201
0.47460231 0.030011842 0.063872859
0.47551814 0.030870259 0.064359866
0.47554472 0.031744625 0.064354539
0.47646043 0.032598265 0.064841576
0.47648695 0.033471037 0.064836256
0.47740251 0.0343199 0.065323323
0.47742897 0.035191081 0.065318018
0.47745547 0.036062263 0.065312706
0.47837088 0.036904752 0.06579984
0.47839728 0.037774339 0.065794542
0.47842371 0.03864393 0.065789245
0.47845015 0.039513517 0.065783948
0.47847658 0.040383108 0.065778643
0.47850302 0.041252699 0.065773346
0.47852945 0.042122286 0.065768048
0.47855589 0.042991877 0.065762751
0.47858232 0.043861464 0.065757453
0.47860876 0.044731054 0.065752149
0.47863516 0.045600642 0.065746851
0.47777322 0.046516445 0.065249003
0.47779968 0.047387626 0.065243691
0.47782618 0.048258811 0.065238386
0.47785264 0.049129993 0.065233074
0.47787914 0.050001174 0.065227769
0.47322047 0.024747796 0.062239945
0.47413573 0.025618991 0.062728137
0.4741624 0.026496543 0.062722787
0.47418907 0.027374096 0.062717438
0.47510409 0.02823892 0.063205644
0.47513071 0.029114882 0.063200302
0.47604558 0.029974928 0.063688539
0.47607216 0.030849295 0.063683212
0.47698689 0.031704564 0.064171471
0.47790155 0.032556649 0.064659752
0.47792801 0.033427831 0.06465444
0.47795451 0.034299012 0.064649135
0.47886899 0.035144724 0.065137483
0.47889543 0.036014315 0.065132186
0.47892186 0.036883902 0.065126888
0.47894827 0.037753493 0.065121584
0.4789747 0.03862308 0.065116286
0.47900113 0.03949267 0.065110989
0.47902757 0.040362258 0.065105692
0.479054 0.041231848 0.065100387
0.47908044 0.042101439 0.065095089
0.47910687 0.042971026 0.065089792
0.47913331 0.043840617 0.065084495
0.47915974 0.044710204 0.06507919
0.47918618 0.045579795 0.065073892
0.47921258 0.046449382 0.065068595
0.47923902 0.047318973 0.065063298
0.47926545 0.048188563 0.065058
0.47929189 0.049058151 0.065052696
0.47931832 0.049927741 0.065047398
0.4737508 0.023847574 0.061564934
0.4737775 0.024726719 0.061559577
0.47380424 0.025605865 0.06155422
0.47471845 0.026475504 0.062043656
0.47474512 0.027353058 0.06203831
0.47565913 0.028217919 0.062527746
0.47657305 0.029079597 0.063017197
0.4765996 0.029953964 0.06301187
0.4775134 0.030810865 0.063501351
0.47842705 0.03166458 0.063990854
0.47845355 0.032535762 0.063985549
0.47936711 0.033384696 0.064475112
0.47939354 0.034254286 0.064469814
0.47941998 0.035123874 0.064464517
0.48033333 0.035966441 0.064954087
0.4803597 0.036834437 0.064948797
0.48038608 0.037702434 0.064943507
0.48041245 0.03857043 0.064938217
0.48043886 0.039438426 0.064932927
0.48046523 0.040306423 0.064927638
0.48049161 0.041174419 0.064922348
0.48051798 0.042042416 0.064917058
0.48054439 0.042910416 0.064911768
0.48057076 0.043778412 0.064906478
0.48059714 0.044646408 0.064901188
0.48062354 0.045514405 0.064895898
0.48064992 0.046382401 0.064890616
0.48067629 0.047250398 0.064885326
0.48070267 0.048118394 0.064880036
0.47984287 0.049037304 0.064379729
0.48075545 0.049854387 0.064869456
0.47342128 0.023831185 0.060388613
0.47344804 0.024711922 0.060383245
0.47436127 0.025584787 0.060873866
0.474388 0.026463931 0.060868509
0.47530115 0.027332017 0.061359186
0.47621414 0.028196918 0.061849851
0.47624078 0.029072879 0.061844517
0.47715363 0.029933002 0.062335212
0.47806638 0.03078994 0.062825926
0.47897905 0.031643692 0.063316666
0.47900555 0.032514874 0.063311353
0.47991812 0.033363849 0.063802145
0.47994456 0.034233436 0.063796848
0.48085693 0.035077635 0.06428764
0.4808833 0.035945632 0.06428235
0.48090968 0.036813628 0.064277068
0.48182186 0.037651453 0.064767897
0.48184821 0.038517859 0.064762615
0.48187453 0.039384261 0.06475734
0.48190087 0.040250666 0.064752057
0.48192719 0.041117068 0.064746782
0.48195353 0.041983474 0.0647415
0.48197988 0.042849876 0.064736217
0.48200619 0.043716282 0.064730942
0.48203254 0.044582684 0.06472566
0.48205888 0.045449089 0.064720377
0.4820852 0.046315491 0.064715102
0.48211154 0.047181897 0.06470982
0.48213789 0.048048303 0.064704545
0.4821642 0.048914704 0.064699262
0.48130542 0.049833577 0.064197727
0.47309375 0.023814717 0.059209816
0.47312057 0.024697049 0.059204441
0.47403285 0.025571544 0.059696283
0.47405964 0.026452282 0.059690915
0.47497177 0.027322 0.060182787
0.47588387 0.02818853 0.060674708
0.47679582 0.029051878 0.061166618
0.47770765 0.029912038 0.061658543
0.47861943 0.030769015 0.062150493
0.47953108 0.031622805 0.062642463
0.48044267 0.032473411 0.063134477
0.48046911 0.033342998 0.063129179
0.48138052 0.034188826 0.063621193
0.4814069 0.035056822 0.063615911
0.48231816 0.035897873 0.064107955
0.48234451 0.036764279 0.064102672
0.48237085 0.037630681 0.064097397
0.48239717 0.038497087 0.064092115
0.48242351 0.039363489 0.064086832
0.48244983 0.040229894 0.064081557
0.48247617 0.041096296 0.064076275
0.48250252 0.041962702 0.064071
0.48341334 0.042789418 0.064563125
0.48343962 0.043654229 0.064557858
0.48346591 0.044519041 0.064552583
0.48260784 0.045428317 0.064049877
0.48263419 0.046294719 0.064044602
0.48266053 0.047161125 0.06403932
0.48268685 0.04802753 0.064034037
0.48271319 0.048893932 0.064028762
0.48273954 0.049760338 0.06402348
0.4727414 0.022914253 0.058033951
0.47276828 0.023798177 0.058028564
0.47367963 0.024675895 0.058521617
0.47370645 0.025558226 0.058516238
0.47461769 0.026431166 0.059009325
0.47552881 0.027300922 0.05950243
0.47643989 0.028167492 0.05999558
0.47735083 0.029030876 0.060488719
0.47826168 0.029891076 0.060981885
0.47917241 0.03074809 0.061475068
0.48008308 0.031601921 0.061968267
0.48099366 0.032452561 0.062461514
0.48102009 0.033322152 0.062456213
0.48193049 0.034168016 0.062949464
0.48284081 0.035010695 0.063442737
0.48286715 0.035877101 0.063437454
0.48289347 0.036743507 0.063432179
0.48291981 0.037609909 0.063426897
0.48294616 0.038476314 0.063421614
0.48385617 0.039309438 0.06391494
0.48388246 0.04017425 0.063909672
0.48390874 0.041039061 0.063904405
0.48393503 0.041903872 0.06389913
0.48396131 0.042768683 0.063893862
0.4839876 0.043633495 0.063888595
0.48401389 0.044498306 0.063883319
0.48404017 0.045363117 0.063878052
0.48406646 0.046227928 0.063872784
0.48409274 0.047092739 0.063867509
0.48411903 0.047957551 0.063862242
0.48414531 0.048822362 0.063856974
0.4841716 0.049687173 0.063851699
0.48331484 0.050605968 0.063347705
0.47332835 0.023776984 0.0573445
0.47335523 0.024660908 0.057339113
0.47338209 0.02554483 0.057333726
0.47429234 0.026419401 0.057828039
0.47520253 0.027290788 0.058322363
0.4761126 0.028158989 0.058816709
0.47790587 0.029009875 0.059810825
0.4788157 0.029870113 0.060305223
0.47972545 0.030727165 0.060799632
0.48063508 0.031581033 0.061294064
0.48066154 0.032452215 0.061288755
0.48157111 0.033301301 0.06178325
0.4824805 0.034147207 0.062277731
0.48338979 0.034989923 0.062772229
0.48341611 0.035856329 0.062766947
0.48344246 0.036722735 0.062761672
0.4834688 0.037589137 0.062756389
0.48349512 0.038455542 0.062751107
0.48440415 0.039288703 0.063245669
0.48443043 0.040153515 0.063240401
0.48445672 0.041018326 0.063235134
0.484483 0.041883137 0.063229859
0.48450929 0.042747948 0.063224591
0.48453557 0.04361276 0.063219324
0.48456186 0.044477571 0.063214049
0.48458815 0.045342382 0.063208781
0.48461443 0.046207193 0.063203514
0.48464072 0.047072005 0.063198246
0.484667 0.047936816 0.063192971
0.48469329 0.048801627 0.063187703
0.48471957 0.049666438 0.063182436
0.48474586 0.050531249 0.063177161
0.47209635 0.022877755 0.055664025
0.47300583 0.023760328 0.056159522
0.47303274 0.024645844 0.056154124
0.47394216 0.025523638 0.056649677
0.47396901 0.026407562 0.056644291
0.47487822 0.027280578 0.057139836
0.47666964 0.028137911 0.058136351
0.47757867 0.029002964 0.058631979
0.47848752 0.029864833 0.059127595
0.47939631 0.030723518 0.05962323
0.48030499 0.031579014 0.060118888
0.48121354 0.032431327 0.060614564
0.48212209 0.033280455 0.061110288
0.48303047 0.034126397 0.061606001
0.48305684 0.034994394 0.061600711
0.48308325 0.03586239 0.061595421
0.48399144 0.036701962 0.062091172
0.48401776 0.037568364 0.062085893
0.4840441 0.03843477 0.062080614
0.48407045 0.039301172 0.062075332
0.48409677 0.040167578 0.062070053
0.48500466 0.040997595 0.062565871
0.48503095 0.041862406 0.062560596
0.48505723 0.042727217 0.062555328
0.48508352 0.043592028 0.06255006
0.48510981 0.044456836 0.062544785
0.48513609 0.045321651 0.062539518
0.48516238 0.046186458 0.06253425
0.48518866 0.047051273 0.062528975
0.48521495 0.047916085 0.062523708
0.48524123 0.048780896 0.06251844
0.48526752 0.049645707 0.062513173
0.48529381 0.050510518 0.062507898
0.47263148 0.021969378 0.054982908
0.47265843 0.022856487 0.054977503
0.4726854 0.023743594 0.054972097
0.47271237 0.024630703 0.054966692
0.47362077 0.025510129 0.055463433
0.47364768 0.026395645 0.055458035
0.47455597 0.027270293 0.05595484
0.47634542 0.028129295 0.056953806
0.47725341 0.02899598 0.05745063
0.47904256 0.029843831 0.058449697
0.47906917 0.030719792 0.058444358
0.47997689 0.03157692 0.058941238
0.48176557 0.032410439 0.05994036
0.48179203 0.033281624 0.059935052
0.48269951 0.034129195 0.060432021
0.48360685 0.03497358 0.060928974
0.48363322 0.03584158 0.060923684
0.4836596 0.036709577 0.060918394
0.483686 0.037577573 0.060913105
0.48459309 0.038413998 0.06141011
0.48461941 0.0392804 0.061404832
0.48464575 0.040146805 0.061399549
0.48467207 0.041013207 0.061394271
0.48469841 0.041879613 0.061388992
0.48472476 0.042746015 0.061383713
0.4856315 0.043571293 0.06188079
0.48565778 0.044436105 0.061875518
0.48568407 0.045300916 0.061870251
0.48571035 0.046165727 0.06186498
0.48573664 0.047030538 0.061859708
0.48576292 0.04789535 0.061854441
0.48578921 0.048760161 0.061849169
0.4858155 0.049624972 0.061843898
0.48584178 0.050489783 0.061838631
0.47233996 0.022838084 0.053787626
0.4732475 0.023722326 0.054285571
0.47327447 0.024609435 0.054280166
0.47330141 0.025496542 0.05427476
0.47420877 0.026374415 0.054772746
0.47511604 0.0272491 0.055270776
0.4760232 0.0281206 0.055768799
0.47693023 0.028988916 0.056266841
0.47871742 0.029838439 0.057268366
0.47962421 0.030698791 0.057766456
0.48053092 0.031555958 0.058264568
0.48143753 0.03240994 0.058762699
0.48234403 0.033260737 0.059260849
0.4832505 0.034108344 0.059759051
0.48327693 0.034977935 0.05975375
0.48330337 0.035847526 0.059748452
0.4842096 0.036688764 0.060246658
0.48423597 0.03755676 0.060241371
0.48426238 0.038424756 0.060236081
0.48428875 0.039292753 0.060230792
0.48431513 0.040160753 0.060225502
0.48522106 0.040992435 0.060723767
0.4852474 0.041858841 0.060718488
0.48527372 0.042725243 0.060713209
0.48530006 0.043591648 0.06070793
0.48532641 0.04445805 0.060702648
0.48535272 0.045324456 0.060697369
0.48537907 0.046190862 0.060692091
0.48540542 0.047057264 0.060686812
0.4863109 0.047874615 0.061185163
0.48633718 0.048739426 0.061179895
0.48548442 0.049656477 0.060670972
0.48551074 0.050522879 0.060665693
0.47202352 0.022819607 0.052595291
0.47293007 0.023705479 0.053094454
0.4729571 0.02459418 0.053089038
0.47386351 0.025475275 0.053588238
0.47389048 0.026362384 0.053582832
0.47479677 0.027238701 0.054082058
0.475703 0.02811183 0.054581337
0.47748828 0.028967801 0.055585258
0.47839424 0.029832968 0.056084551
0.47930011 0.030694952 0.056583893
0.48020586 0.031553749 0.057083227
0.48111153 0.032409362 0.057582583
0.48201707 0.033261791 0.058081955
0.48292252 0.03411103 0.058581349
0.48294899 0.034982212 0.05857604
0.48385435 0.035826676 0.059075486
0.48388079 0.036696266 0.059070189
0.48390722 0.037565853 0.059064891
0.48393366 0.038435444 0.05905959
0.48483872 0.039271943 0.059559062
0.4848651 0.04013994 0.059553772
0.4848915 0.041007936 0.059548482
0.48491788 0.041875936 0.059543192
0.48582271 0.04270447 0.060042713
0.48584902 0.043570876 0.06003743
0.48587537 0.044437282 0.060032152
0.48590171 0.045303684 0.060026873
0.48592803 0.046170089 0.060021594
0.48595437 0.047036491 0.060016315
0.48598072 0.047902897 0.060011033
0.48600703 0.048769299 0.060005754
0.48603338 0.049635705 0.060000475
0.48605973 0.050502107 0.059995197
0.48608604 0.051368512 0.059989914
0.47261471 0.023688555 0.051900867
0.47352019 0.024572873 0.052401282
0.47354722 0.025461573 0.052395865
0.47445258 0.026341114 0.052896306
0.47447956 0.027228223 0.052890901
0.47626308 0.028090639 0.053897273
0.47716814 0.028960623 0.054397773
0.47807312 0.029827423 0.054898292
0.47897801 0.030691037 0.055398833
0.4807609 0.03153275 0.056405332
0.48166555 0.0323884 0.056905918
0.48169211 0.033262767 0.056900591
0.48259661 0.034113638 0.057401203
0.48350102 0.034961328 0.057901837
0.48352748 0.035832509 0.057896528
0.4844318 0.036675416 0.058397226
0.48445824 0.037545007 0.058391925
0.48448464 0.038414594 0.058386628
0.48451108 0.039284185 0.058381326
0.48453751 0.040153775 0.058376029
0.48544148 0.040987127 0.058876745
0.48546785 0.041855123 0.058871455
0.48549426 0.042723119 0.058866166
0.48552063 0.043591116 0.058860879
0.48554701 0.044459112 0.058855589
0.48557341 0.045327112 0.0588503
0.48647702 0.046149317 0.05935109
0.48650336 0.047015719 0.059345812
0.48652968 0.047882125 0.059340533
0.48655602 0.048748527 0.05933525
0.48658237 0.049614932 0.059329972
0.48660868 0.050481334 0.059324693
0.48663503 0.05134774 0.059319414
0.4731788 0.023667209 0.051211882
0.4740833 0.024551567 0.05171353
0.47411031 0.025440268 0.051708113
0.47501466 0.026319847 0.052209787
0.47504163 0.027206954 0.052204382
0.47594586 0.028081754 0.052706081
0.4777272 0.028939469 0.05371495
0.47863117 0.029806307 0.054216702
0.47953504 0.030669959 0.054718476
0.48043889 0.031530425 0.055220291
0.48134255 0.032387707 0.055722103
0.48224613 0.033241805 0.056223925
0.48314962 0.034092713 0.056725778
0.48317614 0.034965489 0.056720458
0.48407948 0.035811622 0.057222333
0.48410597 0.036682803 0.057217021
0.48413244 0.037553985 0.057211712
0.48415893 0.038425166 0.057206403
0.4841854 0.039296348 0.057201095
0.4850885 0.040132925 0.057703067
0.48511493 0.041002516 0.057697766
0.48514137 0.041872103 0.057692468
0.4851678 0.042741694 0.057687167
0.48519424 0.043611281 0.05768187
0.48609701 0.044438303 0.05818386
0.48612338 0.045306299 0.05817857
0.48614976 0.046174295 0.05817328
0.48617613 0.047042292 0.05816799
0.48620254 0.047910288 0.0581627
0.48710498 0.048727755 0.058664754
0.48713133 0.04959416 0.058659475
0.48715767 0.050460562 0.058654197
0.47374293 0.023645865 0.05052289
0.47464642 0.02453026 0.051025771
0.47467342 0.025418961 0.051020354
0.47470042 0.026307661 0.051014941
0.47560373 0.027185686 0.051517852
0.47650692 0.028060526 0.052020788
0.47741008 0.028932177 0.052523773
0.47831309 0.029800646 0.053026747
0.47921601 0.030665928 0.053529739
0.48011881 0.031528026 0.054032754
0.48102158 0.032386936 0.054535814
0.48192421 0.033242665 0.055038862
0.48282674 0.034095205 0.055541936
0.48285332 0.034969576 0.055536605
0.48375571 0.03581734 0.056039702
0.48378223 0.036690112 0.056034386
0.48468447 0.037533101 0.056537516
0.48471093 0.038404282 0.056532208
0.48473743 0.039275464 0.056526899
0.48476389 0.040146645 0.056521591
0.48479038 0.041017827 0.056516282
0.48569238 0.041851256 0.057019498
0.48571882 0.042720843 0.057014197
0.48574522 0.043590434 0.0570089
0.48577166 0.044460021 0.057003599
0.48579809 0.045329612 0.056998301
0.48582453 0.046199203 0.056993004
0.48672614 0.047021482 0.057496253
0.48675251 0.047889479 0.057490963
0.48677891 0.048757475 0.057485677
0.48680529 0.049625471 0.057480387
0.48683167 0.050493468 0.057475097
0.47430703 0.023624519 0.049833905
0.4752095 0.024508953 0.050338019
0.47523654 0.025397655 0.050332602
0.47526354 0.026286354 0.050327189
0.47616583 0.027164416 0.050831333
0.4761928 0.028051525 0.050825927
0.47797015 0.028910985 0.05183972
0.47887215 0.029779492 0.052343924
0.47977406 0.030644814 0.052848145
0.48067588 0.031506948 0.053352397
0.48157763 0.0323659 0.053856689
0.48247924 0.033221666 0.054360971
0.48250586 0.034097623 0.054355633
0.48340735 0.03494861 0.054859944
0.4834339 0.03582298 0.054854617
0.48346049 0.036697347 0.054849286
0.48436177 0.037541963 0.055353642
0.48438829 0.038414735 0.055348326
0.48441482 0.039287511 0.055343006
0.48531589 0.040125757 0.055847395
0.48534238 0.040996939 0.055842083
0.48536885 0.041868124 0.055836774
0.48539534 0.042739306 0.055831466
0.48542181 0.043610487 0.055826157
0.4854483 0.044481669 0.055820849
0.48547477 0.04535285 0.05581554
0.48637551 0.046178352 0.056320038
0.48640195 0.047047943 0.05631474
0.48730248 0.047868669 0.056819241
0.48645481 0.048787121 0.056304142
0.48648125 0.049656712 0.056298841
0.48650768 0.050526299 0.056293543
0.48740804 0.051340658 0.056798082
0.47489819 0.024493469 0.049139488
0.47579962 0.025376348 0.049644839
0.47582665 0.026265047 0.049639422
0.47585365 0.027153749 0.04963401
0.47675487 0.028030258 0.050139405
0.47765601 0.028903579 0.050644811
0.47855711 0.029773716 0.05115027
0.47945806 0.030640669 0.051655717
0.4803589 0.031504434 0.052161183
0.48125964 0.032365017 0.052666675
0.48216033 0.033222411 0.053172212
0.4830609 0.034076624 0.053677738
0.48396134 0.034927648 0.054183278
0.48398793 0.035802014 0.054177951
0.48401451 0.036676385 0.054172624
0.48404109 0.037550751 0.054167297
0.48406768 0.038425118 0.054161966
0.48496783 0.039266586 0.05466757
0.48499435 0.040139362 0.05466225
0.48502088 0.041012138 0.054656934
0.48504743 0.04188491 0.054651614
0.48594734 0.042718418 0.055157263
0.48597383 0.043589599 0.055151954
0.4860003 0.044460781 0.055146646
0.48602679 0.045331962 0.055141337
0.48605326 0.046203144 0.055136029
0.48695296 0.047027092 0.05564177
0.4869794 0.047896683 0.055636473
0.4870058 0.04876627 0.055631172
0.48703223 0.049635861 0.055625875
0.48705867 0.050505448 0.055620573
0.4870851 0.051375039 0.055615276
0.47546232 0.024472125 0.0484505
0.47548938 0.025362417 0.048445072
0.47551644 0.026252711 0.048439648
0.47641677 0.027132442 0.04894625
0.47731698 0.028008988 0.049452871
0.4782171 0.028882349 0.049959514
0.47911718 0.029752525 0.050466206
0.48001713 0.030619515 0.050972886
0.48091695 0.031483319 0.051479585
0.48181668 0.032343939 0.051986311
0.48184341 0.033223085 0.051980954
0.48361593 0.03405562 0.052999832
0.48364255 0.034931581 0.052994497
0.48454195 0.035781052 0.053501289
0.48456854 0.036655419 0.053495958
0.48459512 0.037529785 0.053490631
0.48462167 0.038404156 0.053485304
0.48464826 0.039278522 0.053479977
0.48554736 0.040118437 0.053986821
0.48557389 0.040991213 0.053981502
0.48560044 0.041863985 0.053976182
0.48562697 0.042736761 0.053970866
0.48565349 0.043609537 0.053965546
0.4865523 0.044439893 0.05447245
0.48657879 0.045311078 0.054467142
0.48660526 0.04618226 0.054461833
0.48663175 0.047053441 0.054456525
0.48753038 0.047875833 0.054963507
0.48668471 0.048795804 0.054445907
0.48671117 0.049666986 0.054440599
0.48760965 0.050484601 0.054947611
0.48763609 0.051354192 0.05494231
0.47602642 0.024450779 0.047761515
0.47605348 0.025341073 0.047756087
0.47608054 0.026231367 0.047750663
0.47697985 0.027111135 0.048258498
0.47787908 0.02798772 0.048766356
0.47877818 0.028861118 0.049274229
0.47967726 0.029731331 0.049782153
0.48057619 0.030598361 0.050290067
0.481475 0.031462204 0.050798003
0.48237374 0.032322861 0.051305953
0.48240045 0.033202007 0.051300596
0.48329911 0.034057885 0.051808603
0.48419759 0.034910578 0.052316606
0.4842242 0.035786539 0.052311268
0.48425084 0.0366625 0.052305929
0.48514915 0.037508823 0.05281397
0.4851757 0.03838319 0.052808639
0.48520228 0.03925756 0.052803311
0.48522887 0.040131927 0.052797984
0.48525545 0.041006293 0.052792657
0.48615345 0.04184306 0.053300753
0.48617998 0.042715836 0.053295434
0.4862065 0.043588612 0.053290118
0.48623303 0.044461384 0.053284798
0.48625955 0.04533416 0.053279478
0.48715726 0.046161372 0.053787634
0.48718375 0.047032554 0.053782325
0.48721021 0.047903735 0.053777017
0.48723671 0.048774917 0.053771708
0.48726317 0.049646098 0.0537664
0.48816067 0.050463751 0.054274648
0.4881871 0.051333342 0.054269347
0.4766176 0.025319727 0.047067098
0.47664467 0.026210021 0.047061671
0.47754297 0.027089829 0.047570743
0.47844118 0.027966451 0.04807983
0.47846812 0.02885356 0.048074424
0.48023733 0.02971014 0.049098093
0.48026422 0.030594064 0.049092706
0.48116207 0.031459536 0.04960186
0.48205984 0.032321826 0.050111037
0.48295751 0.03318093 0.050620232
0.48385513 0.034036845 0.051129472
0.4838818 0.034914397 0.051124126
0.48477924 0.03576554 0.051633369
0.48480588 0.036641497 0.051628031
0.4848325 0.037517458 0.051622692
0.48485911 0.038393419 0.051617354
0.48575631 0.039236594 0.05212665
0.48578289 0.040110964 0.052121319
0.48580945 0.040985331 0.052115992
0.48583603 0.041859698 0.052110665
0.48586261 0.042734064 0.052105334
0.4858892 0.043608431 0.052100006
0.48591578 0.044482797 0.052094679
0.48681256 0.045313235 0.052604049
0.48683909 0.046186008 0.05259873
0.48773575 0.047011666 0.053108122
0.48776224 0.047882847 0.053102814
0.48778871 0.048754033 0.053097505
0.4878152 0.04962521 0.053092197
0.48784167 0.050496396 0.053086888
0.48786816 0.051367577 0.05308158
0.47715464 0.024408089 0.046383537
0.4771817 0.025298383 0.046378113
0.47720876 0.026188677 0.046372686
0.47723582 0.027078969 0.046367262
0.47900325 0.027945183 0.047393307
0.47903022 0.02883229 0.047387898
0.47992727 0.029704174 0.047898252
0.48082429 0.030572871 0.048408654
0.48172113 0.031438384 0.048919037
0.48261788 0.032300711 0.049429446
0.48351455 0.033159852 0.049939875
0.48354128 0.034038998 0.049934518
0.48443785 0.03489336 0.050445002
0.48446453 0.035770912 0.050439652
0.4844912 0.036648463 0.050434306
0.48538753 0.037496459 0.050944801
0.48541415 0.038372416 0.050939463
0.48544076 0.039248377 0.050934128
0.4854674 0.040124338 0.05092879
0.48549402 0.041000295 0.050923452
0.48639005 0.041838735 0.051433999
0.48641664 0.042713102 0.051428672
0.48644322 0.043587469 0.051423345
0.48646978 0.044461835 0.051418014
0.48649636 0.045336202 0.051412687
0.48652294 0.046210568 0.05140736
0.48741862 0.047037859 0.051917981
0.48744518 0.047910634 0.051912662
0.48834071 0.048733145 0.052423317
0.4883672 0.049604326 0.052418005
0.48839366 0.050475508 0.052412696
0.48842016 0.051346693 0.052407388
0.47687653 0.025284262 0.045172181
0.47777289 0.026167331 0.045683697
0.47779995 0.027057625 0.045678269
0.47956535 0.027923914 0.046706781
0.47959232 0.028811023 0.046701375
0.48048836 0.029682944 0.047212958
0.48138437 0.030551679 0.04772459
0.48228019 0.031417228 0.048236214
0.48317596 0.032279592 0.048747849
0.48320273 0.033160333 0.048742481
0.48409835 0.03401792 0.049254153
0.48412505 0.034897063 0.049248796
0.48415178 0.035776209 0.049243439
0.48504725 0.036627423 0.049755175
0.48507392 0.037504978 0.049749829
0.4851006 0.03838253 0.049744479
0.48512727 0.039260082 0.049739134
0.48602244 0.040103335 0.050250888
0.48604906 0.040979296 0.05024555
0.48607567 0.041855253 0.050240211
0.48610231 0.042731214 0.050234873
0.48612893 0.043607175 0.050229535
0.48615557 0.044483136 0.050224196
0.48705038 0.04531524 0.050736025
0.48707697 0.046189606 0.050730694
0.48710355 0.047063973 0.050725367
0.48799819 0.047889709 0.051237233
0.48802471 0.048762482 0.051231913
0.48805124 0.049635258 0.051226597
0.48894569 0.05045462 0.051738493
0.48897216 0.051325805 0.051733185
0.47741452 0.024370993 0.044487402
0.47744164 0.025262879 0.044481967
0.47833699 0.026145987 0.044994712
0.47836405 0.027036279 0.044989284
0.48012745 0.027902646 0.046020262
0.48015442 0.028789755 0.046014857
0.48104945 0.029661713 0.046527669
0.48194444 0.030530486 0.047040533
0.48283929 0.031396076 0.047553387
0.48286608 0.032278404 0.047548011
0.48376077 0.033139218 0.04806089
0.48465538 0.033996843 0.048573796
0.48468211 0.034875985 0.048568439
0.48470882 0.035755131 0.048563082
0.48473555 0.036634278 0.048557725
0.48562995 0.037483938 0.049070705
0.48565662 0.03836149 0.049065355
0.48568329 0.039239042 0.049060009
0.48570997 0.040116597 0.04905466
0.48573664 0.040994149 0.049049314
0.48663071 0.041834254 0.04956232
0.48665732 0.042710215 0.049556982
0.48668396 0.043586176 0.049551643
0.48671058 0.044462133 0.049546305
0.48673722 0.045338094 0.049540967
0.48763099 0.046168644 0.050054036
0.48765755 0.047043011 0.050048709
0.48768413 0.047917377 0.050043382
0.48857772 0.048741557 0.050556485
0.48860425 0.049614333 0.050551165
0.48863077 0.050487105 0.050545849
0.4886573 0.051359881 0.050540529
0.478847 0.024344055 0.044316571
0.47887406 0.025234347 0.044311143
0.47890112 0.026124641 0.044305719
0.4797954 0.027004601 0.044819716
0.48068956 0.027881376 0.045333732
0.48158363 0.028754966 0.045847774
0.48247764 0.029625371 0.04636186
0.48250452 0.030509295 0.046356473
0.48339835 0.03137492 0.046870559
0.48429209 0.032237362 0.047384661
0.48431885 0.033118099 0.047379293
0.48521242 0.033975765 0.047893431
0.48523915 0.034854908 0.047888074
0.48526588 0.035734054 0.047882717
0.48529258 0.0366132 0.04787736
0.48531932 0.037492346 0.047872003
0.48621267 0.038340449 0.048386227
0.48623934 0.039218001 0.048380878
0.48626602 0.040095557 0.048375532
0.48629269 0.040973108 0.048370183
0.48718575 0.041813251 0.048884422
0.48721236 0.042689212 0.048879083
0.487239 0.043565173 0.048873745
0.48726562 0.044441134 0.04886841
0.48729223 0.045317091 0.048863072
0.48818502 0.046147682 0.049377367
0.48821157 0.047022048 0.04937204
0.48823816 0.047896415 0.049366713
0.48826474 0.048770782 0.049361385
0.48829132 0.049645148 0.049356055
0.48918378 0.05046618 0.049870413
0.48921031 0.051338956 0.049865093
0.4794111 0.024322711 0.043627586
0.47943816 0.025213003 0.043622158
0.48033148 0.026094595 0.044137381
0.48122469 0.026973 0.044652618
0.4821178 0.027848221 0.045167878
0.48301086 0.028720256 0.04568319
0.48303771 0.029604178 0.045677803
0.48393059 0.030471437 0.046193112
0.48395741 0.031353768 0.046187732
0.48485014 0.032216247 0.046703074
0.48574275 0.033075541 0.047218431
0.48576948 0.033954687 0.047213074
0.48579618 0.03483383 0.047207717
0.48582292 0.035712976 0.04720236
0.48584965 0.036592122 0.047197003
0.48587635 0.037471268 0.047191646
0.48676869 0.038319413 0.047707103
0.48679537 0.039196964 0.047701754
0.48682204 0.040074516 0.047696408
0.48771414 0.04091629 0.048211869
0.48774076 0.041792251 0.048206531
0.4877674 0.042668212 0.048201192
0.48779401 0.043544173 0.048195854
0.48782066 0.044420131 0.048190519
0.48784727 0.045296092 0.048185181
0.48873901 0.046126716 0.048700709
0.4887656 0.047001086 0.048695382
0.48879218 0.047875453 0.048690055
0.48881876 0.048749819 0.048684727
0.48884532 0.049624186 0.048679397
0.4897368 0.050445259 0.049194988
0.48889849 0.051372923 0.048668742
0.48086756 0.025184587 0.043455038
0.48175982 0.026064623 0.043971501
0.48178679 0.026951732 0.043966096
0.48267886 0.027826991 0.044482589
0.48357093 0.028699063 0.04499913
0.48446283 0.029567951 0.045515664
0.48448965 0.030450283 0.045510285
0.48538142 0.031314392 0.046026845
0.48540819 0.032195132 0.04602148
0.48629981 0.033054464 0.04653807
0.48632652 0.03393361 0.046532709
0.48635325 0.034812752 0.046527352
0.48637998 0.035691898 0.046521995
0.48640668 0.036571044 0.046516638
0.48729807 0.03742082 0.047033314
0.48732474 0.038298372 0.047027964
0.48735142 0.039175924 0.047022618
0.48737809 0.040053476 0.047017269
0.48826918 0.040895291 0.047533967
0.48829579 0.041771248 0.047528628
0.48832244 0.042647209 0.04752329
0.48834905 0.04352317 0.047517952
0.48837569 0.044399131 0.047512613
0.48926648 0.045231387 0.048029371
0.48929304 0.046105754 0.04802404
0.48931962 0.04698012 0.048018713
0.48934621 0.047854487 0.048013385
0.48937279 0.048728857 0.048008058
0.48939934 0.049603224 0.048002727
0.48942593 0.05047759 0.0479974
0.48945251 0.051351961 0.047992073
0.48232192 0.026043354 0.043284971
0.48321304 0.026920244 0.043802686
0.48410416 0.027793948 0.044320453
0.4849951 0.028664468 0.044838209
0.48588595 0.029531801 0.045355983
0.48591271 0.03041254 0.045350615
0.48593947 0.031293277 0.045345251
0.48683015 0.03215424 0.045863062
0.48685685 0.033033386 0.045857705
0.48688358 0.033912532 0.045852348
0.48691031 0.034791674 0.045846991
0.48693702 0.035670821 0.045841634
0.48782745 0.036522228 0.046359532
0.48785412 0.03739978 0.046354182
0.4878808 0.038277332 0.046348836
0.48877096 0.039122369 0.046866745
0.48879758 0.03999833 0.046861406
0.48882422 0.040874287 0.046856068
0.48885083 0.041750249 0.04685073
0.48887748 0.04262621 0.046845395
0.48890409 0.043502171 0.046840057
0.48979393 0.044336058 0.047358032
0.48982051 0.045210425 0.047352705
0.48984706 0.046084791 0.047347378
0.48987365 0.046959158 0.047342051
0.48990023 0.047833525 0.04733672
0.48992682 0.048707895 0.047331393
0.48995337 0.049582258 0.047326066
0.48997995 0.050456628 0.047320738
0.49000654 0.051330995 0.047315408
0.48288399 0.026022086 0.042598452
0.48377413 0.026899014 0.0431174
0.48552734 0.027760983 0.044160761
0.48641723 0.028629947 0.044679757
0.486444 0.029510686 0.044674393
0.48647076 0.030391423 0.044669025
0.48736045 0.031254016 0.045188062
0.48738718 0.032133162 0.045182705
0.48741391 0.033012308 0.045177348
0.48744062 0.033891454 0.045171991
0.48833013 0.034746084 0.045691103
0.4883568 0.035623636 0.045685753
0.48838347 0.036501188 0.045680407
0.48841015 0.03737874 0.045675058
0.48929936 0.038225409 0.046194192
0.489326 0.039101366 0.046188854
0.48935261 0.039977327 0.046183515
0.48937923 0.040853288 0.046178177
0.48940587 0.041729249 0.046172839
0.49029478 0.042566359 0.046692032
0.49032137 0.043440726 0.046686705
0.49034795 0.044315092 0.046681374
0.49037451 0.045189463 0.046676047
0.49040109 0.046063829 0.04667072
0.49042767 0.046938196 0.046665393
0.49045426 0.047812562 0.046660062
0.49048081 0.048686929 0.046654735
0.49050739 0.049561296 0.046649408
0.49053398 0.050435666 0.04664408
0.49056056 0.051310033 0.04663875
0.48791751 0.03123294 0.044507697
0.48794425 0.032112084 0.04450234
0.48883283 0.032969937 0.045022666
0.4888595 0.033847492 0.045017317
0.48888618 0.034725044 0.045011971
0.48891285 0.035602596 0.045006622
0.48980114 0.036452487 0.04552697
0.48982778 0.037328448 0.045521632
0.4898544 0.038204405 0.045516293
0.48988101 0.039080366 0.045510959
0.49076909 0.039922293 0.046031348
0.49079564 0.040796664 0.046026018
0.49082223 0.04167103 0.04602069
0.49084881 0.042545397 0.046015363
0.49087539 0.043419763 0.046010036
0.49090198 0.04429413 0.046004705
0.49092853 0.045168497 0.045999378
0.49095511 0.046042863 0.045994051
0.4909817 0.046917234 0.045988724
0.49100828 0.0477916 0.045983393
0.49103484 0.048665967 0.045978066
0.49106142 0.049540333 0.045972738
0.491088 0.050414704 0.045967411
0.49111459 0.05128907 0.04596208
0.48844784 0.030332718 0.043832697
0.48933551 0.031193795 0.044354238
0.48936218 0.032071345 0.044348888
0.49024966 0.032927647 0.044870425
0.48941553 0.033826452 0.044338193
0.49030292 0.034679566 0.044859748
0.49032956 0.035555527 0.04485441
0.49035618 0.036431484 0.044849075
0.49038279 0.037307445 0.044843737
0.49126995 0.038152598 0.045365345
0.49129653 0.039026964 0.045360018
0.49132308 0.039901331 0.04535469
0.49134967 0.040775698 0.04534936
0.49223658 0.041612886 0.045871016
0.49226311 0.042485662 0.045865696
0.49228963 0.043358438 0.045860376
0.49231616 0.04423121 0.04585506
0.49234268 0.045103986 0.045849741
0.49236923 0.045976762 0.045844421
0.49153572 0.046896268 0.045312066
0.49156228 0.047770634 0.045306735
0.49158886 0.048645005 0.045301408
0.49161544 0.049519371 0.04529608
0.49164203 0.050393738 0.045290753
0.49166858 0.051268108 0.045285422
0.49075145 0.031154726 0.044203203
0.49077809 0.032030687 0.044197865
0.4908047 0.032906644 0.044192526
0.49083135 0.033782605 0.044187192
0.49085796 0.034658566 0.044181854
0.49174425 0.035508532 0.044704661
0.4917708 0.036382899 0.044699334
0.49179739 0.037257265 0.044694003
0.49182397 0.038131632 0.044688676
0.49270999 0.038973637 0.045211539
0.49273655 0.039846413 0.045206219
0.49276307 0.040719189 0.045200903
0.4927896 0.041591961 0.045195583
0.49367538 0.042426005 0.045718487
0.49370188 0.043297186 0.045713179
0.49372834 0.044168368 0.04570787
0.49289569 0.045083061 0.045174308
0.49292225 0.045955837 0.045168992
0.49294877 0.046828609 0.045163672
0.49297529 0.047701385 0.045158356
0.49214289 0.048624042 0.044624738
0.49216947 0.049498405 0.044619411
0.49219605 0.050372776 0.044614084
0.49222261 0.051247142 0.044608753
0.49130648 0.031133724 0.043525312
0.4913331 0.032009684 0.043519974
0.49135974 0.032885645 0.043514635
0.49224511 0.033738833 0.044038661
0.49227169 0.034613203 0.04403333
0.49229825 0.03548757 0.044028003
0.49232483 0.036361936 0.044022676
0.49235141 0.037236303 0.044017348
0.49323648 0.03807994 0.044541426
0.49326301 0.038952712 0.04453611
0.49414796 0.039791573 0.045060217
0.49417442 0.040662754 0.045054909
0.49420092 0.041533936 0.0450496
0.49422738 0.042405117 0.045044292
0.49425387 0.043276299 0.045038983
0.49428034 0.04414748 0.045033675
0.49430683 0.045018662 0.045028366
0.4943333 0.045889843 0.045023058
0.49350178 0.046807684 0.044488244
0.49352831 0.04768046 0.044482924
0.49269691 0.048603076 0.04394808
0.49272349 0.049477443 0.043942753
0.49275005 0.050351813 0.043937426
0.49277663 0.05122618 0.043932095
0.49186152 0.031112723 0.042847417
0.49188814 0.031988684 0.042842079
0.49191478 0.032864641 0.042836741
0.49279913 0.033717871 0.043361995
0.49282572 0.034592237 0.043356668
0.49285227 0.035466608 0.043351341
0.49287885 0.036340974 0.04334601
0.49290544 0.037215341 0.043340683
0.49378949 0.038059015 0.043865997
0.49381602 0.038931787 0.043860678
0.49384257 0.039804563 0.043855362
0.49472642 0.040641867 0.044380713
0.49475291 0.041513048 0.044375405
0.49477941 0.04238423 0.044370096
0.49480587 0.043255411 0.044364788
0.49483237 0.044126593 0.044359479
0.49485883 0.044997778 0.044354171
0.49402827 0.045913987 0.043818131
0.49405479 0.046786759 0.043812811
0.49408132 0.047659535 0.043807495
0.49325094 0.048582114 0.043271419
0.49327752 0.049456481 0.043266088
0.49330407 0.050330851 0.043260761
0.49333066 0.051205218 0.043255433
0.49241656 0.031091722 0.042169511
0.49244317 0.031967681 0.042164177
0.49246979 0.032843642 0.042158838
0.49249643 0.033719599 0.0421535
0.49252304 0.03459556 0.042148162
0.4934063 0.035445642 0.042674668
0.49343288 0.036320008 0.042669341
0.49345946 0.037194379 0.042664014
0.49348605 0.038068745 0.042658687
0.49436906 0.038910862 0.043185242
0.49439558 0.039783638 0.043179926
0.49442211 0.040656414 0.043174606
0.49444863 0.041529186 0.043169286
0.49447516 0.042401962 0.04316397
0.49535787 0.043234527 0.043690585
0.4945282 0.04414751 0.043153331
0.49455476 0.045020286 0.043148015
0.49458128 0.045893062 0.043142695
0.49375179 0.046812415 0.042605404
0.49377838 0.047686782 0.042600077
0.49380496 0.048561152 0.042594749
0.49383155 0.049435519 0.042589419
0.4938581 0.050309885 0.042584091
0.49302894 0.051238798 0.042046741
0.49211571 0.031088596 0.040958591
0.49299821 0.031946681 0.041486286
0.49302483 0.032822639 0.041480947
0.49305144 0.0336986 0.041475609
0.49307808 0.034574561 0.041470271
0.4931047 0.035450518 0.041464932
0.49313134 0.036326479 0.041459594
0.49401349 0.037173413 0.041987356
0.49404004 0.038047783 0.041982029
0.49406663 0.03892215 0.041976698
0.49409321 0.039796516 0.041971371
0.49497512 0.040635489 0.042499181
0.49500164 0.041508261 0.042493861
0.49502817 0.042381037 0.042488545
0.49505469 0.043253813 0.042483225
0.49508122 0.044126585 0.042477906
0.49425265 0.04504272 0.041939404
0.49427924 0.045917086 0.041934073
0.49430582 0.046791453 0.041928746
0.4943324 0.04766582 0.041923419
0.49350408 0.048589919 0.041384865
0.49353072 0.049465876 0.041379526
0.49355733 0.050341837 0.041374188
0.49358395 0.051217798 0.04136885
0.49267176 0.031067558 0.040279459
0.49269843 0.031945109 0.040274113
0.4927251 0.032822661 0.040268764
0.49360648 0.033677597 0.04079771
0.49363312 0.034553558 0.040792372
0.49365973 0.035429519 0.040787037
0.49368635 0.03630548 0.040781699
0.49371299 0.037181437 0.040776361
0.4937396 0.038057398 0.040771022
0.49462065 0.038901184 0.041300029
0.49464723 0.039775554 0.041294701
0.49467382 0.040649921 0.041289374
0.49470037 0.041524287 0.041284047
0.49472696 0.042398654 0.041278716
0.49475354 0.043273021 0.041273389
0.49478012 0.044147387 0.041268062
0.49480671 0.045021757 0.041262735
0.49483326 0.045896124 0.041257404
0.49400586 0.046816997 0.040717643
0.49488643 0.047644857 0.041246749
0.49405912 0.048568916 0.040706966
0.49408573 0.049444877 0.040701631
0.49411237 0.050320838 0.040696293
0.49413899 0.051196795 0.040690955
0.49322781 0.031046517 0.039600335
0.49325448 0.031924069 0.039594989
0.49328116 0.032801624 0.03958964
0.49330783 0.033679176 0.039584294
0.4933345 0.034556728 0.039578944
0.49421477 0.035408515 0.040109143
0.49338785 0.036311831 0.039568249
0.494268 0.037160438 0.04009847
0.49429464 0.038036395 0.040093131
0.49432126 0.038912356 0.040087793
0.4943479 0.039788317 0.040082455
0.49437451 0.040664278 0.040077116
0.49440113 0.041540235 0.040071778
0.49528098 0.042377692 0.040602058
0.49445438 0.043292157 0.040061105
0.49448103 0.044168115 0.040055767
0.49450764 0.045044076 0.040050428
0.49453425 0.045920037 0.04004509
0.4945609 0.046795994 0.040039752
0.49458751 0.047671955 0.040034413
0.49461415 0.048547916 0.040029075
0.49464077 0.049423873 0.04002374
0.49466738 0.050299834 0.040018402
0.49384129 0.051230226 0.039477341
0.49378383 0.031025479 0.038921207
0.49295768 0.031922385 0.038379092
0.49298438 0.032801531 0.038373735
0.49301112 0.033680677 0.038368378
0.49389052 0.034535687 0.038899817
0.49306455 0.035438966 0.038357664
0.49394387 0.036290795 0.038889121
0.49397054 0.037168346 0.038883772
0.49399722 0.038045898 0.038878426
0.49402389 0.03892345 0.038873076
0.49490294 0.039767314 0.039404552
0.49492955 0.040643275 0.039399214
0.49495617 0.041519236 0.039393876
0.49498281 0.042395193 0.039388537
0.49500942 0.043271154 0.039383203
0.49503604 0.044147115 0.039377864
0.49506268 0.045023076 0.039372526
0.49508929 0.045899034 0.039367188
0.49511594 0.046774995 0.039361849
0.49429065 0.047698975 0.038819604
0.49431732 0.048576526 0.038814254
0.494344 0.049454082 0.038808908
0.49437067 0.050331634 0.038803559
0.49439734 0.051209185 0.038798213
0.49351472 0.031901307 0.037698727
0.49354145 0.032780454 0.03769337
0.49356818 0.0336596 0.037688013
0.49359488 0.034538746 0.037682656
0.49362162 0.035417888 0.037677299
0.49364832 0.036297034 0.037671942
0.49367505 0.037176181 0.037666585
0.49370179 0.038055327 0.037661228
0.49457994 0.038902409 0.038193949
0.49460661 0.039779965 0.038188599
0.49463329 0.040657517 0.038183253
0.49465996 0.041535068 0.038177904
0.49468663 0.04241262 0.038172558
0.49471331 0.043290172 0.038167208
0.49473998 0.044167727 0.038161863
0.49476665 0.045045279 0.038156513
0.49479333 0.045922831 0.038151167
0.49482 0.046800382 0.038145818
0.49484667 0.047677934 0.038140472
0.49487334 0.04855549 0.038135123
0.49490002 0.049433041 0.038129777
0.49407589 0.050363358 0.037586223
0.4941026 0.051242504 0.037580866
0.49324778 0.032780249 0.036473803
0.49327454 0.033660986 0.036468435
0.4933013 0.034541722 0.036463067
0.49332809 0.035422459 0.036457699
0.49335486 0.0363032 0.036452334
0.49338162 0.037183937 0.036446966
0.49425882 0.038034249 0.036980867
0.49428555 0.038913392 0.03697551
0.49431226 0.039792538 0.036970153
0.49433899 0.040671684 0.036964796
0.49436572 0.04155083 0.03695944
0.49439242 0.042429972 0.036954083
0.49441916 0.043309119 0.036948726
0.49444589 0.044188265 0.036943369
0.49447259 0.045067411 0.036938012
0.49449933 0.045946553 0.036932655
0.49537605 0.046779346 0.037466694
0.49455276 0.047704846 0.036921941
0.49457949 0.048583992 0.036916584
0.4946062 0.049463134 0.036911223
0.49380583 0.03275913 0.035792205
0.49298295 0.033662293 0.035246383
0.49385938 0.034520607 0.035781469
0.49303657 0.035426956 0.035235628
0.49391291 0.036282081 0.035770737
0.4939397 0.037162822 0.035765368
0.49396646 0.038043559 0.035760004
0.49399322 0.038924295 0.035754636
0.49401999 0.039805036 0.035749268
0.49404678 0.040685773 0.035743903
0.49492276 0.041529752 0.036279075
0.49494949 0.042408895 0.036273718
0.49497622 0.043288041 0.036268361
0.49500293 0.044167187 0.036263004
0.49502966 0.045046333 0.036257647
0.49505636 0.045925476 0.03625229
0.49508309 0.046804622 0.036246933
0.49510983 0.047683768 0.036241576
0.49513653 0.048562914 0.036236219
0.49516326 0.049442057 0.036230862
0.40526786 0.14133628 -0.023224425
0.49351519 0.03275881 0.034568936
0.49354202 0.033641141 0.03456356
0.49356884 0.034523472 0.034558181
0.49359566 0.0354058 0.034552805
0.49362245 0.036288131 0.03454743
0.49449775 0.037141703 0.035083778
0.49452451 0.038022444 0.03507841
0.49455127 0.038903181 0.035073046
0.49457806 0.039783917 0.035067677
0.49460483 0.040664658 0.035062309
0.49463159 0.041545395 0.035056945
0.49465835 0.042426132 0.035051577
0.49468514 0.043306869 0.035046209
0.49471191 0.044187609 0.035040844
0.49473867 0.045068346 0.035035476
0.49476546 0.045949083 0.035030108
0.49564013 0.046783544 0.035566576
0.49481899 0.04771056 0.035019375
0.49569359 0.048541836 0.035555862
0.4957203 0.049420979 0.035550505
0.4948993 0.050352775 0.035003275
0.49404743 0.031855326 0.033891488
0.49407426 0.032737657 0.033886112
0.49410108 0.033619985 0.033880733
0.4941279 0.034502316 0.033875357
0.49415472 0.035384648 0.033869982
0.49418154 0.036266979 0.033864606
0.49420837 0.03714931 0.033859227
0.49423516 0.038031638 0.033853851
0.49510935 0.038882066 0.034391455
0.49513611 0.039762802 0.034386087
0.49516287 0.040643539 0.034380719
0.49518964 0.04152428 0.034375351
0.49521643 0.042405017 0.034369987
0.49524319 0.043285754 0.034364618
0.49526995 0.04416649 0.03435925
0.49529675 0.045047231 0.034353886
0.49532351 0.045927968 0.034348518
0.49535027 0.046808705 0.03434315
0.49537703 0.047689442 0.034337785
0.49540383 0.048570182 0.034332417
0.49543059 0.049450919 0.034327049
0.49545735 0.05033166 0.034321684
0.4937329 0.030969374 0.032669917
0.49375978 0.031853296 0.03266453
0.49463332 0.032716502 0.033203285
0.49466014 0.033598833 0.03319791
0.49468696 0.034481164 0.033192534
0.49471378 0.035363492 0.033187158
0.49474061 0.036245823 0.033181779
0.49476743 0.037128154 0.033176403
0.49479425 0.038010485 0.033171028
0.4956674 0.038860947 0.033709858
0.49569416 0.039741687 0.033704489
0.49572095 0.040622424 0.033699121
0.49574772 0.041503161 0.033693757
0.49577448 0.042383898 0.033688389
0.49580124 0.043264639 0.033683021
0.49582803 0.044145375 0.033677656
0.49585479 0.045026112 0.033672288
0.49588156 0.045906853 0.03366692
0.49590832 0.04678759 0.033661555
0.49593511 0.047668327 0.033656187
0.49596187 0.048549064 0.033650819
0.49598864 0.049429804 0.033645455
0.49601543 0.050310541 0.033640087
0.49513876 0.030930687 0.032531209
0.49516559 0.031813018 0.032525834
0.49519241 0.032695349 0.032520458
0.4952192 0.033577677 0.032515079
0.49524602 0.034460008 0.032509703
0.49527285 0.035342339 0.032504328
0.49529967 0.036224671 0.032498948
0.49532649 0.037107002 0.032493573
0.49535331 0.03798933 0.032488197
0.49622548 0.038839832 0.03302826
0.49625224 0.039720573 0.033022892
0.496279 0.040601309 0.033017527
0.49630576 0.041482046 0.033012159
0.49633256 0.042362783 0.033006791
0.49635932 0.043243524 0.033001427
0.49638608 0.044124261 0.032996058
0.49641284 0.045004997 0.03299069
0.49643964 0.045885734 0.032985322
0.4964664 0.046766475 0.032979958
0.49649316 0.047647212 0.03297459
0.49651992 0.048527949 0.032969221
0.49654672 0.049408689 0.032963857
0.49657348 0.050289426 0.032958489
0.49569783 0.030909533 0.031848382
0.49572465 0.031791862 0.031843007
0.49575147 0.032674193 0.031837631
0.49577829 0.033556525 0.031832252
0.49580511 0.034438856 0.031826876
0.49667645 0.035295766 0.032368138
0.49585873 0.036203515 0.031816121
0.49672997 0.03705724 0.032357402
0.49675676 0.03793798 0.032352034
