# .PCD v0.7 - Point Cloud Data file format
VERSION 0.7
FIELDS x y z
SIZE 4 4 4
TYPE F F F
COUNT 1 1 1
WIDTH 1377
HEIGHT 1
VIEWPOINT 0 0 0 1 0 0 0
POINTS 1377
DATA ascii
0.46527413 0.088828743 0.050253395
0.46530157 0.089731775 0.050247889
0.46532902 0.090634815 0.050242387
0.46535647 0.091537848 0.050236885
0.46538392 0.092440881 0.050231382
0.46315369 0.058233932 0.048736639
0.46406087 0.059073541 0.04923363
0.46496797 0.05990997 0.049730632
0.46680924 0.062473107 0.050719246
0.4668366 0.063372955 0.050713763
0.46774331 0.064196639 0.051210843
0.46777061 0.065094903 0.051205371
0.46779791 0.065993153 0.051199898
0.4678252 0.066891417 0.051194422
0.4678525 0.067789666 0.051188949
0.4678798 0.068687923 0.051183477
0.4679071 0.06958618 0.051178001
0.46793443 0.070484444 0.051172528
0.46796173 0.071382701 0.051167056
0.4671101 0.072371453 0.05065893
0.46713746 0.073271304 0.050653446
0.46716481 0.074171148 0.050647963
0.46719217 0.075071007 0.050642479
0.46721953 0.075970851 0.050636996
0.46724686 0.076870702 0.050631512
0.46727422 0.077770554 0.050626028
0.46730158 0.078670405 0.050620545
0.46732894 0.079570249 0.050615061
0.46735626 0.0804701 0.050609577
0.46738362 0.081369951 0.050604094
0.46741098 0.082269803 0.05059861
0.46655995 0.083279274 0.050090328
0.46658733 0.084180713 0.050084833
0.46661475 0.085082151 0.050079342
0.46664214 0.085983597 0.050073847
0.46666953 0.086885042 0.050068356
0.46669695 0.087786481 0.050062861
0.46672434 0.088687919 0.050057366
0.46675175 0.089589365 0.050051875
0.46677914 0.090490811 0.050046381
0.46680653 0.091392249 0.05004089
0.46683395 0.092293695 0.050035395
0.46460658 0.058147229 0.048539057
0.46551269 0.058985282 0.049037285
0.46554014 0.059888318 0.049031779
0.46735206 0.061551686 0.050028346
0.46737942 0.062451534 0.050022863
0.46740678 0.063351385 0.050017379
0.46831247 0.064175107 0.050515693
0.46833977 0.065073363 0.05051022
0.46836707 0.06597162 0.050504744
0.46927255 0.066788971 0.051003098
0.46929982 0.067685634 0.050997633
0.46844897 0.068666391 0.050488323
0.46847627 0.069564648 0.050482851
0.46850356 0.070462905 0.050477378
0.46853089 0.071361162 0.050471902
0.46855819 0.072259419 0.050466429
0.46858549 0.073157676 0.050460957
0.46861279 0.074055932 0.050455481
0.46864009 0.074954189 0.050450008
0.46866739 0.075852454 0.050444536
0.46869469 0.076750703 0.05043906
0.46872199 0.07764896 0.050433587
0.46874931 0.078547217 0.050428115
0.46877661 0.079445474 0.050422639
0.46880391 0.080343731 0.050417166
0.46883121 0.081241988 0.050411694
0.46885851 0.082140252 0.050406218
0.46888581 0.083038509 0.050400745
0.46803585 0.084047928 0.04989126
0.46806321 0.08494778 0.049885776
0.46809056 0.085847624 0.049880292
0.46811789 0.086747475 0.049874809
0.46814525 0.087647326 0.049869325
0.46729553 0.088666312 0.04935975
0.46732292 0.089567751 0.049354255
0.46735033 0.090469196 0.049348764
0.46825466 0.091246724 0.049847391
0.46740511 0.09227208 0.049337778
0.46743253 0.093173519 0.049332283
0.4669351 0.057995655 0.048848905
0.4669899 0.059798542 0.048837919
0.46789488 0.060630262 0.049337443
0.46792224 0.061530109 0.049331959
0.46882701 0.062357057 0.049831487
0.46885431 0.063255318 0.049826015
0.46975896 0.064077482 0.050325572
0.4697862 0.064974144 0.050320107
0.46981347 0.065870807 0.050314646
0.46984071 0.066767476 0.050309181
0.47074509 0.067581676 0.050808787
0.4707723 0.068476751 0.050803334
0.47079951 0.069371819 0.05079788
0.47082672 0.070266895 0.050792422
0.47085392 0.071161963 0.050786968
0.47088113 0.072057039 0.050781514
0.47090834 0.072952107 0.050776061
0.47093555 0.073847182 0.050770607
0.47096273 0.07474225 0.050765153
0.47098994 0.075637326 0.050759699
0.47101715 0.076532401 0.050754242
0.47104436 0.077427469 0.050748788
0.47107157 0.078322537 0.050743334
0.47109878 0.079217613 0.05073788
0.47112599 0.080112681 0.050732426
0.47027677 0.081114106 0.050221756
0.47030404 0.082010768 0.050216291
0.47033128 0.082907431 0.050210826
0.46948227 0.083915226 0.049700119
0.46950957 0.084813483 0.049694646
0.46953687 0.08571174 0.04968917
0.4695642 0.086609997 0.049683698
0.46871543 0.087625749 0.049172942
0.46874276 0.088525601 0.049167458
0.46877012 0.089425452 0.049161974
0.46879748 0.090325303 0.049156491
0.46882483 0.091225147 0.049151007
0.46885219 0.092124999 0.049145523
0.46887952 0.09302485 0.04914004
0.46838298 0.057909139 0.04865751
0.46841034 0.058808986 0.048652027
0.4684377 0.059708837 0.048646543
0.46934158 0.060539007 0.049147286
0.46936888 0.061437264 0.049141809
0.47027257 0.062262654 0.049642581
0.47029984 0.063159317 0.049637116
0.47120342 0.063979931 0.050137915
0.47123063 0.064875007 0.050132457
0.47213405 0.065690838 0.050633289
0.4721612 0.066584319 0.050627843
0.47218835 0.067477793 0.0506224
0.47221553 0.068371274 0.050616954
0.47224268 0.069264755 0.050611511
0.47226983 0.070158236 0.050606064
0.47229698 0.071051717 0.050600622
0.47232416 0.07194519 0.050595175
0.47235131 0.072838672 0.050589733
0.47237846 0.073732153 0.050584286
0.47240564 0.074625634 0.050578844
0.47243279 0.075519107 0.050573397
0.47245994 0.076412588 0.050567955
0.47248709 0.077306069 0.050562508
0.47251427 0.078199551 0.050557062
0.47254142 0.079093024 0.050551619
0.47169313 0.080091223 0.050039735
0.47172034 0.080986291 0.050034281
0.47174755 0.081881374 0.050028827
0.47177476 0.082776442 0.050023373
0.4709267 0.083782598 0.049511444
0.47095394 0.084679261 0.049505983
0.47098121 0.085575931 0.049500518
0.47100845 0.086472593 0.049495053
0.47016066 0.087486714 0.048983071
0.47018796 0.088384971 0.048977599
0.47021526 0.089283235 0.048972126
0.46936765 0.090303726 0.048460104
0.46939498 0.091203578 0.04845462
0.46942234 0.092103429 0.048449136
0.4694497 0.093003273 0.048443653
0.47062269 0.055067841 0.048992377
0.46977422 0.056026187 0.048479509
0.46980152 0.056924444 0.048474032
0.47070447 0.057757832 0.048975985
0.47073171 0.058654498 0.04897052
0.47075897 0.059551165 0.048965055
0.47078621 0.060447831 0.04895959
0.47168893 0.061273258 0.049461596
0.47171614 0.062168326 0.049456142
0.47174335 0.063063398 0.049450688
0.47264588 0.063882463 0.049952727
0.47354832 0.064698331 0.050454821
0.47357544 0.06559021 0.050449386
0.47360256 0.066482104 0.050443951
0.47362965 0.067373984 0.050438516
0.47365677 0.06826587 0.050433081
0.47368389 0.069157757 0.050427645
0.47371098 0.070049644 0.05042221
0.4737381 0.07094153 0.050416775
0.47376519 0.071833417 0.05041134
0.47379231 0.072725303 0.050405908
0.47469422 0.073523656 0.05090807
0.47384652 0.074509077 0.050395038
0.47387365 0.075400963 0.050389603
0.47390077 0.07629285 0.050384168
0.47392786 0.077184737 0.050378732
0.47395498 0.078076623 0.050373297
0.4739821 0.07896851 0.050367862
0.47400919 0.079860397 0.050362427
0.47316185 0.080858558 0.049849279
0.47318903 0.081752047 0.049843833
0.47321618 0.082645521 0.04983839
0.47236907 0.083650053 0.049325239
0.47239628 0.084545121 0.049319785
0.47242349 0.085440196 0.049314331
0.4724507 0.086335264 0.049308874
0.47160387 0.087347761 0.04879567
0.47163111 0.088244423 0.048790205
0.47165838 0.089141086 0.048784744
0.47081172 0.090159953 0.048271503
0.47083902 0.09105821 0.048266031
0.47086632 0.091956466 0.048260558
0.47089362 0.092854723 0.048255082
0.47373393 0.052190535 0.049840685
0.47376105 0.053082421 0.04983525
0.47291327 0.054032769 0.049321163
0.47206563 0.054986294 0.048807085
0.47209284 0.055881366 0.048801631
0.47212005 0.056776438 0.048796177
0.47214726 0.05767151 0.048790723
0.47217447 0.058566581 0.048785269
0.47220168 0.059461657 0.048779815
0.47310337 0.060287122 0.049283054
0.47313052 0.061180603 0.049277607
0.47315767 0.06207408 0.049272165
0.47405925 0.062893175 0.049775466
0.47408634 0.063785061 0.049770031
0.47411346 0.064676948 0.049764596
0.47501478 0.065489672 0.050267905
0.47504184 0.066379964 0.050262481
0.4750689 0.067270257 0.050257057
0.47509596 0.068160549 0.050251633
0.47512302 0.069050841 0.050246205
0.47515008 0.069941141 0.050240781
0.47517714 0.070831433 0.050235357
0.4752042 0.071721725 0.050229929
0.47523126 0.072612017 0.050224505
0.47525832 0.07350231 0.050219081
0.47528538 0.074392609 0.050213654
0.47531244 0.075282909 0.05020823
0.4753395 0.076173201 0.050202806
0.47536656 0.077063493 0.050197378
0.47539362 0.077953786 0.050191954
0.47542068 0.078844078 0.05018653
0.47457433 0.079839014 0.049672205
0.47460142 0.0807309 0.04966677
0.47462854 0.081622787 0.049661335
0.47465566 0.082514673 0.049655899
0.47380945 0.083517581 0.049141493
0.47383663 0.084411062 0.049136046
0.47386378 0.085304536 0.049130604
0.47301784 0.086313806 0.048616186
0.47304505 0.087208875 0.048610732
0.47307226 0.08810395 0.048605274
0.47309947 0.088999026 0.048599821
0.47225377 0.090016253 0.048085362
0.47228104 0.090912916 0.048079897
0.47514591 0.051223628 0.049665723
0.47429904 0.052169152 0.049150467
0.47432616 0.053061038 0.049145032
0.47435328 0.053952925 0.049139597
0.47438037 0.054844812 0.049134161
0.47353372 0.055798307 0.048618823
0.47356087 0.056691784 0.048613381
0.47358802 0.057585262 0.048607934
0.47448882 0.058412354 0.049112424
0.47364235 0.05937222 0.048597045
0.47454304 0.060196131 0.049101554
0.47457016 0.061088014 0.049096119
0.47459725 0.061979901 0.049090683
0.47462437 0.062871791 0.049085248
0.47552475 0.063687742 0.049589772
0.47555181 0.064578034 0.049584348
0.47557887 0.065468326 0.04957892
0.47647908 0.066277906 0.050083492
0.47650611 0.067166604 0.050078075
0.47653311 0.068055309 0.050072659
0.47656012 0.068944007 0.050067242
0.47658715 0.069832712 0.050061829
0.47661415 0.07072141 0.050056413
0.47751403 0.071519844 0.050561044
0.47666818 0.072498813 0.050045583
0.47756794 0.073294058 0.050550234
0.47759491 0.074181169 0.050544824
0.47674921 0.075164922 0.050029334
0.47677621 0.076053619 0.050023921
0.47680324 0.076942317 0.050018504
0.47683024 0.077831022 0.050013088
0.47598481 0.078822732 0.049497545
0.47601187 0.079713024 0.049492117
0.47603893 0.080603316 0.049486693
0.47519365 0.081601404 0.048971117
0.47522077 0.08249329 0.048965681
0.47524786 0.083385177 0.048960246
0.47440276 0.084389642 0.048444595
0.47442991 0.085283116 0.048439153
0.47445706 0.086176597 0.048433706
0.47448424 0.08707007 0.048428264
0.4736394 0.088082492 0.047912598
0.47366661 0.088977568 0.047907144
0.47369382 0.089872636 0.047901686
0.473721 0.090767704 0.047896232
0.47655597 0.050259978 0.049493205
0.47571003 0.051202282 0.048976734
0.47573709 0.052092575 0.04897131
0.47576416 0.05298287 0.048965883
0.47579122 0.053873163 0.048960458
0.47494552 0.054823428 0.04844394
0.47497261 0.055715315 0.048438504
0.47499973 0.056607202 0.048433069
0.47502682 0.057499088 0.048427634
0.47505394 0.058390971 0.048422199
0.47595358 0.059214927 0.048927907
0.47598064 0.060105219 0.048922483
0.4760077 0.060995512 0.048917055
0.47603476 0.061885804 0.048911631
0.47606182 0.062776104 0.048906207
0.47696117 0.063590497 0.049411975
0.47698817 0.064479195 0.049406558
0.4770152 0.0653679 0.049401142
0.47791433 0.066175923 0.049906954
0.4779413 0.067063034 0.049901549
0.47796828 0.067950137 0.049896143
0.47799522 0.068837248 0.049890738
0.47802219 0.069724359 0.049885329
0.47804916 0.070611462 0.049879923
0.47807613 0.071498573 0.049874518
0.47810307 0.072385676 0.049869113
0.47813004 0.073272787 0.049863707
0.47815701 0.074159898 0.049858302
0.47818398 0.075047009 0.049852896
0.47821093 0.07593412 0.049847491
0.4782379 0.076821223 0.049842086
0.47826487 0.077708334 0.049836677
0.47742036 0.078698412 0.049319908
0.47744739 0.079587117 0.049314495
0.47660303 0.080581971 0.048797701
0.47663009 0.08147227 0.048792277
0.47578588 0.082471907 0.048275456
0.475813 0.083363794 0.048270021
0.47584012 0.08425568 0.048264585
0.47586721 0.085147567 0.04825915
0.47502321 0.086155176 0.047742248
0.47505036 0.08704865 0.047736805
0.47420654 0.088061035 0.047219906
0.47510466 0.088835612 0.047725916
0.47426096 0.089851178 0.047208998
0.47428817 0.090746246 0.047203541
0.47960079 0.045663141 0.050369252
0.47962767 0.046547063 0.050363865
0.47965452 0.047430988 0.050358478
0.47880924 0.048363697 0.0498408
0.47796413 0.049299594 0.049323134
0.47799107 0.050186701 0.049317729
0.47714609 0.051127374 0.048800033
0.47717312 0.052016076 0.048794616
0.47720012 0.052904777 0.048789203
0.47635531 0.053851817 0.048271466
0.47638237 0.054742109 0.048266042
0.47640944 0.055632405 0.048260618
0.4764365 0.056522697 0.04825519
0.47646356 0.057412993 0.048249766
0.47649062 0.058303285 0.048244342
0.47651768 0.059193581 0.048238914
0.47654474 0.060083874 0.04823349
0.47744322 0.060903084 0.048740461
0.47747025 0.061791785 0.048735045
0.47749725 0.06268049 0.048729632
0.47839555 0.063493326 0.04923664
0.47842249 0.064380437 0.049231235
0.47844946 0.065267548 0.04922583
0.47847643 0.066154659 0.049220424
0.47850341 0.067041762 0.049215019
0.47853038 0.067928873 0.049209613
0.47942832 0.068730563 0.049716689
0.47945523 0.069616079 0.049711294
0.47948214 0.070501596 0.049705897
0.47950906 0.071387112 0.049700502
0.47953597 0.072272629 0.049695104
0.47956288 0.073158138 0.04968971
0.47958979 0.074043661 0.049684312
0.47961673 0.074929178 0.049678918
0.47964364 0.075814694 0.04967352
0.4788 0.076799959 0.049155556
0.47882697 0.077687062 0.049150147
0.47885394 0.078574173 0.049144741
0.47801051 0.079565808 0.048626736
0.47803751 0.080454506 0.048621319
0.47719422 0.081450924 0.048103284
0.47722128 0.082341217 0.04809786
0.47637811 0.083342411 0.047579795
0.47640523 0.084234297 0.04757436
0.47643235 0.085126184 0.047568925
0.47558933 0.086133756 0.047050793
0.47561648 0.087027229 0.047045346
0.47564366 0.08792071 0.047039904
0.47567081 0.088814192 0.047034457
0.47482809 0.089829713 0.046516307
0.4748553 0.090724789 0.046510853
0.47488251 0.091619857 0.046505399
0.48496309 0.031388253 0.052851263
0.48182303 0.042911794 0.050728232
0.48184979 0.043792535 0.050722864
0.48100528 0.044715647 0.050204042
0.4810321 0.045597978 0.050198663
0.48018774 0.04652587 0.049679812
0.4802146 0.047409795 0.049674425
0.47937033 0.048342466 0.049155515
0.4785262 0.049278323 0.048636615
0.47855318 0.050165433 0.04863121
0.47858015 0.051052541 0.048625804
0.47860709 0.051939648 0.048620399
0.47863406 0.052826758 0.048614994
0.47779024 0.05377217 0.048096035
0.47781724 0.054660868 0.048090618
0.47871494 0.055488084 0.048598774
0.47874191 0.056375191 0.048593368
0.47876889 0.057262301 0.048587963
0.47879586 0.058149409 0.048582558
0.47882283 0.059036519 0.048577152
0.47884977 0.059923626 0.048571747
0.47887674 0.060810734 0.048566341
0.47890371 0.061697844 0.048560932
0.47893068 0.062584952 0.048555527
0.47895762 0.063472062 0.048550121
0.47898459 0.064359166 0.048544716
0.47988173 0.065167271 0.049052987
0.47990865 0.066052787 0.049047593
0.47993556 0.066938303 0.049042195
0.47996247 0.06782382 0.049036801
0.47998938 0.068709329 0.049031403
0.48088628 0.069507875 0.049539767
0.48091316 0.070391797 0.04953438
0.48094001 0.071275719 0.049528994
0.4809669 0.07215964 0.049523607
0.48099375 0.073043562 0.04951822
0.48015088 0.074022427 0.048999026
0.48017779 0.074907944 0.048993632
0.4802047 0.07579346 0.048988234
0.4793621 0.076778688 0.048469037
0.47938907 0.077665791 0.048463631
0.47941601 0.078552902 0.048458222
0.47857359 0.0795445 0.047938984
0.47773126 0.080539286 0.047419727
0.47775832 0.081429578 0.047414299
0.47778538 0.082319871 0.047408875
0.47694325 0.083321027 0.046889577
0.47697034 0.084212914 0.046884142
0.47699746 0.085104801 0.046878707
0.47615546 0.086112335 0.046359345
0.47618261 0.087005809 0.046353899
0.47534081 0.088018112 0.045834534
0.47623694 0.088792771 0.04634301
0.47539523 0.089808255 0.045823626
0.47542244 0.090703323 0.045818172
0.47544965 0.091598399 0.045812719
0.47547686 0.092493474 0.045807265
0.48704728 0.024360936 0.053246152
0.48707375 0.025232118 0.053240843
0.48710024 0.026103299 0.053235535
0.48712671 0.026974482 0.053230226
0.4871532 0.027845664 0.053224918
0.48717967 0.028716845 0.053219609
0.48633507 0.029603291 0.052699782
0.48636159 0.030476067 0.052694462
0.48638812 0.031348839 0.052689143
0.4855437 0.032241657 0.052169275
0.48557028 0.033116024 0.052163944
0.48235431 0.042009942 0.050052002
0.48238108 0.042890679 0.050046634
0.48240787 0.04377142 0.050041266
0.48243463 0.044652157 0.050035898
0.48159117 0.045576826 0.049515836
0.48161799 0.046459153 0.049510457
0.48077467 0.047388602 0.048990365
0.48080155 0.048272524 0.048984978
0.47995833 0.049206752 0.048464827
0.47998524 0.050092269 0.048459433
0.48001218 0.050977785 0.048454035
0.48003909 0.051863302 0.048448641
0.47919616 0.052805491 0.047928467
0.48009291 0.053634334 0.048437849
0.48011982 0.054519847 0.048432451
0.48014674 0.055405363 0.048427057
0.48017365 0.05629088 0.048421659
0.48020059 0.057176396 0.048416264
0.4802275 0.058061913 0.048410866
0.48025441 0.058947429 0.048405472
0.48028132 0.059832942 0.048400074
0.48030823 0.060718458 0.04839468
0.48033515 0.061603975 0.048389282
0.48036206 0.062489491 0.048383888
0.48038897 0.063375011 0.04837849
0.48041591 0.06426052 0.048373096
0.48044282 0.065146036 0.048367698
0.48133889 0.06595099 0.04887725
0.48136577 0.066834912 0.048871864
0.48139262 0.067718834 0.048866477
0.4814195 0.068602756 0.04886109
0.48144636 0.069486678 0.048855703
0.48147324 0.0703706 0.048850317
0.48150009 0.071254522 0.04884493
0.48152697 0.072138451 0.048839543
0.48155382 0.073022373 0.04883416
0.4815807 0.073906295 0.048828773
0.48073888 0.074886717 0.048308343
0.48076579 0.075772233 0.048302945
0.4799242 0.076757424 0.047782511
0.47995114 0.077644527 0.047777105
0.47910967 0.078634493 0.047256641
0.47913671 0.079523198 0.047251228
0.47829539 0.08051794 0.046730734
0.47832245 0.081408232 0.04672531
0.47748125 0.082407758 0.046204787
0.47750837 0.083299644 0.046199352
0.47753549 0.084191531 0.04619392
0.47756258 0.085083418 0.046188485
0.47672158 0.086090907 0.045667887
0.47674876 0.086984389 0.045662444
0.47677591 0.08787787 0.045656998
0.47593516 0.08889173 0.045136388
0.47596237 0.089786798 0.045130935
0.47598958 0.090681866 0.045125481
0.47514904 0.091702096 0.044604834
0.47517627 0.092598759 0.044599369
0.48836398 0.020856023 0.053108882
0.48839042 0.021725612 0.053103581
0.48841685 0.022595201 0.053098284
0.48844329 0.02346479 0.053092983
0.48846972 0.02433438 0.053087685
0.48849612 0.025203967 0.053082384
0.48765224 0.026082413 0.052561343
0.48767871 0.026953595 0.052556034
0.4877052 0.027824776 0.052550726
0.48773167 0.02869596 0.052545417
0.48775816 0.029567141 0.052540109
0.48778462 0.030438323 0.0525348
0.48694113 0.031327914 0.052013714
0.48696765 0.03220069 0.052008394
0.48612428 0.033095062 0.051487282
0.48615086 0.033969428 0.051481955
0.48617744 0.034843795 0.051476624
0.48538753 0.037496459 0.050944801
0.48457122 0.039281122 0.050418265
0.48372832 0.040193014 0.049897015
0.48375505 0.04107216 0.049891658
0.48378178 0.041951302 0.049886301
0.48380849 0.042830449 0.049880944
0.48296592 0.043750301 0.049359675
0.48299268 0.044631038 0.049354307
0.48215023 0.04555567 0.048833009
0.48217705 0.046438001 0.048827633
0.48220387 0.047320332 0.048822258
0.48223069 0.048202664 0.048816878
0.48138848 0.049135257 0.048295539
0.48141536 0.050019179 0.048290152
0.48144221 0.050903104 0.048284765
0.48146909 0.051787026 0.048279379
0.48149595 0.052670948 0.048273992
0.48152283 0.05355487 0.048268605
0.48154968 0.054438792 0.048263222
0.48157656 0.055322718 0.048257835
0.48160341 0.05620664 0.048252448
0.4816303 0.057090562 0.048247062
0.48165715 0.057974488 0.048241675
0.48168403 0.05885841 0.048236288
0.48171091 0.059742335 0.048230901
0.48173776 0.060626257 0.048225515
0.48176464 0.061510179 0.048220128
0.4817915 0.062394105 0.048214745
0.48181838 0.063278027 0.048209358
0.48184523 0.064161949 0.048203971
0.48187211 0.065045871 0.048198584
0.48189896 0.0659298 0.048193198
0.48192585 0.066813722 0.048187811
0.4819527 0.067697644 0.048182424
0.48197958 0.068581566 0.048177037
0.48200643 0.069465488 0.048171651
0.48203331 0.07034941 0.048166264
0.48206016 0.071233332 0.048160881
0.48208705 0.072117262 0.048155494
0.4821139 0.073001184 0.048150107
0.48127306 0.073979966 0.047628447
0.48129997 0.074865483 0.047623049
0.48132688 0.075750999 0.047617655
0.48048627 0.076736152 0.047095988
0.48051324 0.077623256 0.047090583
0.47967279 0.078613184 0.046568889
0.47883242 0.079606302 0.046047173
0.47885948 0.080496594 0.046041749
0.47888654 0.081386894 0.046036325
0.47804639 0.082386374 0.045514569
0.47807348 0.083278261 0.045509133
0.4781006 0.084170148 0.045503698
0.47726056 0.085176006 0.044981882
0.47728771 0.086069487 0.044976436
0.47731489 0.086962968 0.044970993
0.47647509 0.087975197 0.044449158
0.4765023 0.088870265 0.044443704
0.47652951 0.08976534 0.04443825
0.47568992 0.090783931 0.043916386
0.47571719 0.091680594 0.043910921
0.47487774 0.092703976 0.043389022
0.48867708 0.013008871 0.052483603
0.48875639 0.015617637 0.052467708
0.48878282 0.01648723 0.052462406
0.48880926 0.017356817 0.052457109
0.48883569 0.018226406 0.052451808
0.48886213 0.019095996 0.052446511
0.48888853 0.019965583 0.05244121
0.48891497 0.020835174 0.052435912
0.4889414 0.021704763 0.052430611
0.48896784 0.022574352 0.052425314
0.48899427 0.023443941 0.052420013
0.48902071 0.024313532 0.052414715
0.48904714 0.025183119 0.052409418
0.48907357 0.02605271 0.052404117
0.48910001 0.026922299 0.052398819
0.4882572 0.02780389 0.051876523
0.48828369 0.028675072 0.051871214
0.48831016 0.029546253 0.051865906
0.48833665 0.030417437 0.051860597
0.48836312 0.03128862 0.051855288
0.48838961 0.032159802 0.05184998
0.48841608 0.033030983 0.051844671
0.48757371 0.033925314 0.05132233
0.48760024 0.034798089 0.05131701
0.48762679 0.035670865 0.05131169
0.48678461 0.036571566 0.050789304
0.48681119 0.037445936 0.050783977
0.48596919 0.038351417 0.050261561
0.4859958 0.039227374 0.050256222
0.48515394 0.040137634 0.049733784
0.48431212 0.041051082 0.049211297
0.48433882 0.041930225 0.049205936
0.48436555 0.042809371 0.04920058
0.48352396 0.043729186 0.048678078
0.48355076 0.044609923 0.04867271
0.48357752 0.045490663 0.048667345
0.48273611 0.046416845 0.04814481
0.48363104 0.047252137 0.048656609
0.48278975 0.048181508 0.048134055
0.48281658 0.049063839 0.048128679
0.4828434 0.04994617 0.048123304
0.48287022 0.050828502 0.048117924
0.48202917 0.051765837 0.047595315
0.48205605 0.052649759 0.047589928
0.4820829 0.053533681 0.047584545
0.48210979 0.054417603 0.047579158
0.48213664 0.055301528 0.047573771
0.48216352 0.05618545 0.047568385
0.48219037 0.057069372 0.047562998
0.48221725 0.057953294 0.047557611
0.4822441 0.05883722 0.047552224
0.48227099 0.059721142 0.047546837
0.48229784 0.060605064 0.047541451
0.48232472 0.061488986 0.047536068
0.48235157 0.062372912 0.047530681
0.48237845 0.063256837 0.047525294
0.4824053 0.064140759 0.047519907
0.48243219 0.065024681 0.047514521
0.48245904 0.065908603 0.047509134
0.48248592 0.066792525 0.047503747
0.48251277 0.067676447 0.04749836
0.48253965 0.068560369 0.047492974
0.48256651 0.069444299 0.047487587
0.48259339 0.070328221 0.047482204
0.48262024 0.071212143 0.047476817
0.48264712 0.072096065 0.04747143
0.48180723 0.073073223 0.046948552
0.48183414 0.07395874 0.046943154
0.48186105 0.074844256 0.04693776
0.4810214 0.07582777 0.046414867
0.48104838 0.076714881 0.046409462
0.48020887 0.077703178 0.045886546
0.4802359 0.078591876 0.045881134
0.47939655 0.079584956 0.045358185
0.47942361 0.080475248 0.045352757
0.47858438 0.081473105 0.044829782
0.4786115 0.082364991 0.044824347
0.47863862 0.083256878 0.044818912
0.47779953 0.084261112 0.044295866
0.47782671 0.085154586 0.044290423
0.47785386 0.086048067 0.044284977
0.47701505 0.087058663 0.043761928
0.47704223 0.087953731 0.043756474
0.47706944 0.088848807 0.04375102
0.47623083 0.089865774 0.043227926
0.47625807 0.090762436 0.043222461
0.47541958 0.091784179 0.042699344
0.47544688 0.092682436 0.042693868
0.48904306 0.0069008986 0.051847737
0.48906949 0.0077704871 0.05184244
0.48909593 0.0086400751 0.051837139
0.48912236 0.009509664 0.051831841
0.4891488 0.010379254 0.05182654
0.48917523 0.011248845 0.051821243
0.48920164 0.012118433 0.051815946
0.48922807 0.012988023 0.051810645
0.4892545 0.013857611 0.051805347
0.48928094 0.014727199 0.051800046
0.49017623 0.015607121 0.05231281
0.48933381 0.016466381 0.051789448
0.49022898 0.017343117 0.05230223
0.49025536 0.018211113 0.05229694
0.49028176 0.01907911 0.052291654
0.49030814 0.019947106 0.052286364
0.48946595 0.020814326 0.051762953
0.48949239 0.021683915 0.051757656
0.48951882 0.022553504 0.051752355
0.48954526 0.023423092 0.051747058
0.48957169 0.024292683 0.051741756
0.49046645 0.025155084 0.052254628
0.48962456 0.026031861 0.051731158
0.48965099 0.02690145 0.051725861
0.48967743 0.027771039 0.05172056
0.48970383 0.028640628 0.051715262
0.48973027 0.029510217 0.051709965
0.48888865 0.030396549 0.051186398
0.48891512 0.031267732 0.051181089
0.48894161 0.032138914 0.051175781
0.48896807 0.033010095 0.051170472
0.48899457 0.033881277 0.051165164
0.48902103 0.034752458 0.051159855
0.4881798 0.03564994 0.050636262
0.48733863 0.036550604 0.050112646
0.48736522 0.03742497 0.050107319
0.48652422 0.038330413 0.04958367
0.48655084 0.039206374 0.049578331
0.48657745 0.040082335 0.049572997
0.48573664 0.040994149 0.049049314
0.48576331 0.0418717 0.049043965
0.48578998 0.042749252 0.049038619
0.48494932 0.043667439 0.048514865
0.48410881 0.044588808 0.047991119
0.48413557 0.045469545 0.047985755
0.48416233 0.046350285 0.047980387
0.48418912 0.047231022 0.047975019
0.48421589 0.048111759 0.047969654
0.48424265 0.048992496 0.047964286
0.48340246 0.049925014 0.047440477
0.48342928 0.050807346 0.047435101
0.4834561 0.051689677 0.047429726
0.48348293 0.052572008 0.047424346
0.48350975 0.053454336 0.047418971
0.48353657 0.054336667 0.047413595
0.48356336 0.055218998 0.047408219
0.48359019 0.05610133 0.04740284
0.48361701 0.056983657 0.047397465
0.48364383 0.057865988 0.047392089
0.48367065 0.05874832 0.04738671
0.48369747 0.059630651 0.047381334
0.4837243 0.060512982 0.047375958
0.48375112 0.06139531 0.047370579
0.48377794 0.062277645 0.047365203
0.48293853 0.063235641 0.046841234
0.48296538 0.064119563 0.046835847
0.48299226 0.065003484 0.046830464
0.48301911 0.065887414 0.046825077
0.483046 0.066771336 0.046819691
0.48307285 0.067655258 0.046814304
0.48309973 0.06853918 0.046808917
0.48312658 0.069423102 0.04680353
0.48315346 0.070307024 0.046798144
0.48318031 0.071190946 0.046792757
0.48234141 0.072166473 0.046268657
0.48236832 0.073051989 0.046263259
0.48239523 0.073937505 0.046257865
0.48155653 0.074919395 0.045733754
0.48158351 0.075806506 0.045728348
0.48074496 0.076793171 0.045204207
0.48077199 0.077681869 0.045198791
0.47993359 0.078673318 0.044674624
0.47996065 0.07956361 0.0446692
0.47998771 0.080453902 0.044663772
0.47914952 0.081451721 0.044139568
0.47917661 0.082343608 0.044134133
0.47833851 0.08334621 0.043609861
0.47836566 0.084239691 0.043604415
0.47839284 0.085133165 0.043598972
0.47755498 0.08614213 0.043074697
0.47758219 0.087037198 0.043069243
0.47760937 0.087932274 0.04306379
0.47763658 0.088827349 0.043058336
0.47679898 0.089844272 0.042534012
0.47596145 0.09086439 0.042009667
0.47598875 0.091762647 0.04200419
0.47601604 0.092660904 0.041998718
0.4895412 0.0051408694 0.051185366
0.48956764 0.0060104579 0.051180068
0.48959407 0.0068800501 0.051174767
0.49048877 0.0077743428 0.051688679
0.49051514 0.0086423391 0.051683389
0.49054152 0.0095103346 0.051678099
0.49056792 0.010378333 0.051672809
0.4905943 0.011246329 0.051667519
0.48975265 0.012097584 0.051142976
0.49064705 0.012982323 0.051656943
0.49067345 0.013850319 0.051651653
0.49069983 0.014718316 0.051646363
0.4907262 0.015586311 0.051641073
0.49075258 0.016454309 0.051635783
0.49077898 0.017322306 0.051630497
0.49080536 0.018190302 0.051625207
0.49083173 0.019058298 0.051619917
0.49085811 0.019926295 0.051614627
0.49088451 0.020794293 0.051609337
0.49091089 0.021662287 0.051604047
0.49093726 0.022530286 0.051598758
0.49096367 0.023398282 0.051593471
0.49099004 0.024266278 0.051588181
0.49101642 0.025134275 0.051582891
0.49104279 0.026002271 0.051577602
0.49020198 0.026880601 0.051052891
0.49022841 0.02775019 0.051047593
0.49025485 0.028619779 0.051042292
0.49028128 0.029489368 0.051036995
0.49030772 0.030358959 0.051031694
0.49033415 0.031228548 0.051026396
0.49036056 0.032098137 0.051021095
0.49038699 0.032967728 0.051015798
0.48954657 0.033860389 0.050490968
0.48957303 0.034731574 0.050485659
0.48959953 0.035602756 0.050480351
0.48875934 0.036501788 0.049955506
0.48878586 0.037374564 0.04995019
0.48794582 0.038278375 0.049425323
0.48797241 0.039152741 0.049419995
0.48713249 0.040061332 0.048895098
0.4871591 0.040937293 0.04888976
0.48631936 0.04185066 0.048364837
0.48634604 0.042728212 0.048359487
0.48637271 0.043605767 0.048354141
0.48553309 0.044525508 0.047829144
0.48555982 0.04540465 0.047823787
0.48558652 0.046283796 0.04781843
0.48561326 0.047162943 0.047813073
0.48477393 0.048090644 0.047288056
0.48480073 0.048971381 0.047282688
0.48482749 0.049852122 0.04727732
0.48485425 0.050732858 0.047271956
0.48488101 0.051613595 0.047266588
0.48490781 0.052494332 0.047261219
0.48493457 0.053375069 0.047255855
0.48496133 0.05425581 0.047250487
0.48498809 0.055136546 0.047245119
0.48414928 0.056080174 0.046720009
0.4841761 0.056962505 0.046714634
0.48420289 0.057844836 0.046709258
0.48422971 0.058727168 0.046703883
0.48425654 0.059609495 0.046698503
0.48428336 0.060491826 0.046693128
0.48431018 0.061374158 0.046687752
0.484337 0.062256489 0.046682373
0.48436382 0.06313882 0.046676997
0.48352545 0.064098373 0.046151791
0.48355234 0.064982295 0.046146404
0.48357919 0.065866217 0.046141017
0.48360607 0.066750139 0.04613563
0.48363292 0.067634061 0.046130247
0.4836598 0.068517983 0.046124861
0.48368666 0.069401912 0.046119474
0.48371354 0.070285834 0.046114087
0.48287556 0.07125973 0.045588762
0.48290247 0.072145246 0.045583364
0.48292941 0.073030762 0.045577969
0.48209167 0.07401102 0.045052633
0.48211864 0.074898124 0.045047224
0.48128107 0.075883165 0.044521865
0.48130807 0.076771863 0.044516448
0.48047063 0.07776168 0.043991059
0.48049772 0.078651972 0.043985631
0.48052478 0.079542264 0.043980207
0.47968751 0.080538452 0.043454777
0.47971463 0.081430338 0.043449342
0.47887748 0.082431309 0.042923853
0.47890463 0.08332479 0.042918406
0.47893181 0.084218271 0.042912964
0.47895896 0.085111745 0.042907517
0.47812212 0.086120673 0.042382006
0.47814932 0.087015741 0.042376552
0.47731262 0.088029444 0.041851018
0.47733986 0.088926114 0.041845553
0.47736713 0.089822777 0.041840088
0.47653061 0.090842851 0.041314512
0.47655791 0.091741107 0.04130904
0.47658521 0.092639364 0.041303564
0.49003932 0.0033808441 0.050523002
0.49006575 0.0042504324 0.050517701
0.49009219 0.0051200208 0.050512403
0.49098599 0.0060175378 0.051027525
0.49101236 0.006885536 0.051022235
0.49103874 0.0077535328 0.051016949
0.49106511 0.0086215297 0.051011659
0.49109152 0.0094895242 0.051006369
0.49111789 0.010357522 0.051001079
0.49114427 0.011225519 0.050995789
0.49117064 0.012093514 0.0509905
0.49119705 0.012961512 0.050985213
0.49122342 0.013829509 0.050979923
0.49211669 0.014709507 0.051495153
0.49214301 0.01557591 0.051489871
0.49216935 0.016442316 0.051484592
0.4921957 0.017308719 0.051479314
0.49222201 0.018175121 0.051474035
0.49224836 0.019041527 0.051468752
0.4922747 0.019907931 0.051463474
0.49230102 0.020774335 0.051458195
0.49232736 0.021640738 0.051452916
0.49235368 0.022507142 0.051447634
0.49238002 0.023373546 0.051442355
0.49240637 0.024239952 0.051437076
0.49243268 0.025106354 0.051431797
0.49245903 0.025972757 0.051426519
0.49161917 0.026849458 0.050900582
0.49164554 0.027717454 0.050895292
0.49167195 0.028585451 0.050890002
0.49169832 0.029453447 0.050884712
0.4917247 0.030321443 0.050879426
0.49175107 0.03118944 0.050874136
0.49091157 0.032077286 0.050348133
0.49093801 0.032946877 0.050342835
0.49096441 0.033816468 0.050337534
0.49012506 0.034710687 0.04981146
0.49015152 0.035581868 0.049806152
0.48931235 0.036480863 0.049280081
0.48933887 0.037353639 0.049274765
0.48849982 0.038257413 0.048748665
0.4885264 0.039131779 0.048743337
0.48855299 0.040006146 0.048738007
0.48771414 0.04091629 0.048211869
0.48774076 0.041792251 0.048206531
0.4877674 0.042668212 0.048201192
0.48692873 0.043584727 0.047675017
0.4869554 0.044462278 0.047669668
0.48698208 0.04533983 0.047664322
0.48614359 0.046262719 0.047138073
0.48617029 0.047141865 0.047132716
0.48619702 0.048021011 0.047127359
0.48622376 0.048900153 0.047122002
0.48538554 0.049831003 0.046595737
0.4854123 0.050711744 0.046590369
0.48543906 0.05159248 0.046585001
0.48546585 0.052473217 0.046579637
0.48549262 0.053353954 0.046574268
0.48551938 0.054234691 0.0465689
0.48554614 0.055115432 0.046563536
0.48557293 0.055996168 0.046558168
0.4855997 0.056876905 0.0465528
0.48562646 0.057757646 0.046547435
0.48565325 0.058638383 0.046542067
0.48568001 0.05951912 0.046536699
0.48484242 0.060470674 0.046010304
0.48486924 0.061353002 0.046004925
0.48489606 0.062235337 0.045999549
0.48492289 0.063117668 0.045994174
0.48494971 0.063999996 0.045988794
0.48411241 0.064961106 0.045462348
0.48413926 0.065845028 0.045456961
0.48416615 0.06672895 0.045451574
0.484193 0.067612872 0.045446187
0.48421988 0.068496794 0.0454408
0.48338282 0.069467463 0.044914261
0.48340973 0.070352979 0.044908866
0.48343664 0.071238495 0.044903468
0.48259985 0.072215527 0.044376925
0.4826268 0.073102638 0.044371519
0.48265377 0.073989756 0.044366114
0.48181716 0.074973159 0.043839529
0.48184416 0.075861856 0.043834113
0.4810077 0.076850042 0.043307498
0.48103476 0.077740334 0.043302074
0.48106182 0.078630626 0.043296646
0.48022553 0.079625182 0.042769995
0.48025265 0.080517069 0.042764559
0.48027974 0.081408955 0.042759124
0.47944361 0.082409889 0.042232402
0.47947079 0.08330337 0.042226955
0.47863483 0.084309071 0.041700236
0.47866204 0.085204139 0.041694783
0.47868925 0.086099215 0.041689325
0.47871646 0.086994283 0.041683871
0.47788075 0.088007949 0.041157104
0.47790802 0.088904612 0.041151639
0.47793525 0.089801282 0.041146174
0.47709978 0.090821318 0.040619366
0.47712708 0.091719575 0.040613893
0.47629172 0.092744388 0.040087052
0.49059033 0.0033599953 0.049850032
0.49061674 0.0042295838 0.049844734
0.49064317 0.0050991722 0.049839433
0.49066961 0.0059687607 0.049834136
0.49156234 0.0068647256 0.050350502
0.49158874 0.0077327224 0.050345212
0.49161512 0.0086007193 0.050339922
0.49164149 0.0094687138 0.050334632
0.49253398 0.010356716 0.050851047
0.49256033 0.011223119 0.050845768
0.49258664 0.012089522 0.05084049
0.49261299 0.012955928 0.050835207
0.49263933 0.013822331 0.050829928
0.49266565 0.014688735 0.05082465
0.49269199 0.015555138 0.050819371
0.4935841 0.016430398 0.051335864
0.49361038 0.01729521 0.051330592
0.49363667 0.018160021 0.051325321
0.49366295 0.019024832 0.051320054
0.49368924 0.019889643 0.051314782
0.49371552 0.020754455 0.051309511
0.49374181 0.021619264 0.051304244
0.4937681 0.022484077 0.051298972
0.49292901 0.023352774 0.050771855
0.49295533 0.02421918 0.050766572
0.49298167 0.025085581 0.050761294
0.49300802 0.025951985 0.050756015
0.49303433 0.026818391 0.050750736
0.49306068 0.027684795 0.050745454
0.49308702 0.028551199 0.050740175
0.49311334 0.029417602 0.050734896
0.49313968 0.030284006 0.050729617
0.49230108 0.03116863 0.050202399
0.49232745 0.032036625 0.05019711
0.49235383 0.032904625 0.05019182
0.49151543 0.033795618 0.049664564
0.49154186 0.034665208 0.049659267
0.4915683 0.035534795 0.049653966
0.49073002 0.036432162 0.04912664
0.49075648 0.037303343 0.049121331
0.48991841 0.03820549 0.048594009
0.48908043 0.039110817 0.048066668
0.48910701 0.039985184 0.048061337
0.4891336 0.04085955 0.04805601
0.48829579 0.041771248 0.047528628
0.48832244 0.042647209 0.04752329
0.48834905 0.04352317 0.047517952
0.48751146 0.044441238 0.046990532
0.48753813 0.04531879 0.046985187
0.4875648 0.046196345 0.046979837
0.48672736 0.047120787 0.046452351
0.48675409 0.047999933 0.046446994
0.48678079 0.048879076 0.046441637
0.48680753 0.049758222 0.04643628
0.48683426 0.050637368 0.046430923
0.48599714 0.051571365 0.045903407
0.4860239 0.052452102 0.045898039
0.48605067 0.053332839 0.045892671
0.48607746 0.054213576 0.045887303
0.48610422 0.055094317 0.045881938
0.48613098 0.055975053 0.04587657
0.48615775 0.05685579 0.045871202
0.48618454 0.057736527 0.045865837
0.4862113 0.058617268 0.045860469
0.48623806 0.059498005 0.045855101
0.48540148 0.060449518 0.045327477
0.4854283 0.06133185 0.045322102
0.48545513 0.062214181 0.045316726
0.48548195 0.063096508 0.045311347
0.48550877 0.063978843 0.045305971
0.48467249 0.064939909 0.044778291
0.48469934 0.065823838 0.044772904
0.48472622 0.06670776 0.044767518
0.48475307 0.067591682 0.044762131
0.483917 0.068560719 0.044234369
0.48394391 0.069446236 0.044228971
0.48397082 0.070331752 0.044223577
0.48313498 0.07130716 0.043695804
0.48316193 0.072194263 0.043690398
0.4831889 0.073081374 0.043684993
0.48235324 0.074063152 0.043157186
0.48238027 0.07495185 0.04315177
0.48154473 0.075938404 0.042623933
0.48157179 0.076828696 0.042618506
0.48159885 0.077718988 0.042613082
0.48076355 0.078711912 0.042085204
0.48079064 0.079603799 0.042079769
0.48081776 0.080495685 0.042074334
0.47998258 0.081494987 0.041546389
0.48000976 0.082388468 0.041540943
0.47917476 0.083392538 0.041012999
0.47920197 0.084287606 0.041007545
0.47922918 0.085182682 0.041002091
0.47925639 0.08607775 0.040996637
0.47842166 0.087089784 0.040468644
0.4784489 0.087986447 0.040463179
0.47761431 0.089003265 0.039935157
0.47764161 0.089901522 0.039929684
0.47766891 0.090799779 0.039924208
0.47769624 0.091698036 0.039918736
0.49114132 0.0033391467 0.049177062
0.49116775 0.0042087352 0.049171764
0.49119419 0.0050783237 0.049166463
0.49208596 0.0059759165 0.049684055
0.49211234 0.0068439152 0.049678765
0.49213871 0.007711912 0.049673475
0.49303028 0.0086031342 0.050191104
0.49305663 0.0094695371 0.050185826
0.49308297 0.010335944 0.050180543
0.49310929 0.011202347 0.050175264
0.49313563 0.012068749 0.050169986
0.49402693 0.012950419 0.050687671
0.49405321 0.013815231 0.050682403
0.4940795 0.014680042 0.050677132
0.49410579 0.01554485 0.050671861
0.49413207 0.016409663 0.050666593
0.49415836 0.017274475 0.050661322
0.49418464 0.018139286 0.050656054
0.49421093 0.019004097 0.050650783
0.49423721 0.019868908 0.050645512
0.4942635 0.02073372 0.050640244
0.49428979 0.021598531 0.050634973
0.49431607 0.022463342 0.050629701
0.49434236 0.023328153 0.050624434
0.49436864 0.024192965 0.050619163
0.49439493 0.025057776 0.050613895
0.49442121 0.025922587 0.050608624
0.4944475 0.026787398 0.050603352
0.49447379 0.02765221 0.050598085
0.49363598 0.028530426 0.050069671
0.49366233 0.02939683 0.050064392
0.49368867 0.030263234 0.050059114
0.49371499 0.031129638 0.050053835
0.49374133 0.031996042 0.050048552
0.49376765 0.032862447 0.050043274
0.4929302 0.033751808 0.049514797
0.49295658 0.034619804 0.049509507
0.49211928 0.035513949 0.048981
0.49214572 0.036383536 0.048975699
0.49130851 0.037282459 0.048447136
0.49133497 0.038153641 0.048441827
0.49049795 0.039057337 0.047913261
0.4905245 0.039930113 0.047907941
0.48968762 0.040838588 0.047379345
0.48971418 0.041712955 0.047374018
0.48887748 0.04262621 0.046845395
0.48890409 0.043502171 0.046840057
0.4889307 0.044378128 0.046834718
0.48809418 0.045297753 0.046306055
0.48812085 0.046175305 0.046300706
0.48814753 0.047052857 0.04629536
0.48731112 0.047978856 0.045766629
0.48733786 0.048857998 0.045761272
0.48736456 0.049737144 0.045755915
0.48739129 0.05061629 0.045750558
0.48741803 0.051495437 0.045745201
0.48658198 0.052430987 0.045216441
0.48660874 0.053311724 0.045211073
0.48663551 0.054192461 0.045205709
0.48666227 0.055073198 0.04520034
0.48668906 0.055953939 0.045194972
0.48671582 0.056834675 0.045189608
0.48674259 0.057715412 0.04518424
0.48676935 0.058596153 0.045178872
0.48679614 0.05947689 0.045173507
0.48596057 0.060428366 0.04464465
0.4859874 0.061310694 0.044639271
0.48601419 0.062193029 0.044633895
0.48604101 0.063075356 0.04462852
0.48520571 0.064034797 0.044099614
0.48523256 0.064918719 0.044094227
0.48525944 0.065802641 0.04408884
0.4852863 0.066686563 0.044083454
0.48445117 0.067653976 0.043554466
0.48447809 0.068539485 0.043549072
0.484505 0.069425002 0.043543674
0.48367012 0.070398778 0.043014679
0.48369709 0.071285889 0.043009274
0.48372403 0.072172992 0.043003868
0.48288932 0.073153138 0.042474844
0.48291636 0.074041843 0.042469427
0.4820818 0.075026765 0.041940365
0.48210886 0.075917058 0.041934941
0.48213592 0.07680735 0.041929517
0.48130158 0.077798642 0.041400414
0.48132867 0.078690529 0.041394982
0.48135579 0.079582416 0.041389547
0.48052156 0.080580086 0.040860374
0.48054874 0.081473567 0.040854931
0.47971472 0.082476005 0.040325761
0.47974193 0.08337108 0.040320307
0.47976911 0.084266149 0.040314853
0.47979632 0.085161224 0.040309399
0.47896254 0.086171627 0.039780188
0.47898981 0.08706829 0.039774723
0.47901705 0.087964952 0.039769262
0.47818348 0.088981733 0.039240006
0.47821078 0.08987999 0.03923453
0.47823808 0.090778247 0.039229058
0.47740468 0.09180139 0.038699765
0.4908013 0.002414292 0.047985289
0.49082777 0.003285476 0.047979981
0.49171874 0.0041878871 0.048498806
0.49174517 0.0050574751 0.048493505
0.49177161 0.0059270635 0.048488207
0.49266231 0.0068231048 0.049007036
0.49355292 0.0077159591 0.049525887
0.49357927 0.008582362 0.049520608
0.49360561 0.0094487648 0.049515326
0.49449602 0.01033525 0.050034218
0.4945223 0.011200061 0.05002895
0.49454859 0.012064872 0.050023679
0.49457487 0.012929685 0.050018407
0.49460116 0.013794497 0.05001314
0.4954913 0.014671423 0.05053208
0.49551755 0.01553464 0.05052682
0.49554378 0.016397862 0.05052156
0.49557 0.017261079 0.0505163
0.49559626 0.018124297 0.05051104
0.49562249 0.018987518 0.05050578
0.49564874 0.019850735 0.05050052
0.49567497 0.020713953 0.050495259
0.49570119 0.021577172 0.050489999
0.49572745 0.022440393 0.050484739
0.49575368 0.023303611 0.050479479
0.4957799 0.024166828 0.050474219
0.49580616 0.025030047 0.050468959
0.49496916 0.025901854 0.04993936
0.49499545 0.026766665 0.049934089
0.49502173 0.027631477 0.049928822
0.49504805 0.028496288 0.04992355
0.49507433 0.029361099 0.049918279
0.49510062 0.03022591 0.049913011
0.49426398 0.031108866 0.049383335
0.49429029 0.031975269 0.049378056
0.49431664 0.032841675 0.049372777
0.49434298 0.033708077 0.049367499
0.49350658 0.034598995 0.048837777
0.49353296 0.035466991 0.048832487
0.4926967 0.036362689 0.04830274
0.49272314 0.037232276 0.048297442
0.49188697 0.038132753 0.047767628
0.49191347 0.039003935 0.047762319
0.49107751 0.039909188 0.047232512
0.49110404 0.040781964 0.047227193
0.4902682 0.041691992 0.04669736
0.49029478 0.042566359 0.046692032
0.48945913 0.043481167 0.046162166
0.48948574 0.044357128 0.046156827
0.48951235 0.045233086 0.046151489
0.48867688 0.046154264 0.045621581
0.48870355 0.047031816 0.045616236
0.48873022 0.047909372 0.045610886
0.48789489 0.04883692 0.045080915
0.48792163 0.049716067 0.045075558
0.48794833 0.050595213 0.045070201
0.48797506 0.051474359 0.045064844
0.48800179 0.052353501 0.045059487
0.48716679 0.053290606 0.044529483
0.48719355 0.054171346 0.044524118
0.48722035 0.055052083 0.04451875
0.48724711 0.055932824 0.044513382
0.48727387 0.05681356 0.044508014
0.48730063 0.057694297 0.044502649
0.48732743 0.058575034 0.044497281
0.48649281 0.059524883 0.043967202
0.48651963 0.06040721 0.043961823
0.48654646 0.061289541 0.043956447
0.48657328 0.062171873 0.043951072
0.4857389 0.063129678 0.043420948
0.48576576 0.0640136 0.043415561
0.48579264 0.064897522 0.043410175
0.48581949 0.065781452 0.043404788
0.48498532 0.066747226 0.042874578
0.48501223 0.067632742 0.04286918
0.48417827 0.068603292 0.042338975
0.48420525 0.069490403 0.042333569
0.48423219 0.070377506 0.042328164
0.48339841 0.071354434 0.041797921
0.48342544 0.072243132 0.041792508
0.48345244 0.07313183 0.041787092
0.48261884 0.074115127 0.041256808
0.4826459 0.07500542 0.04125138
0.48267296 0.075895712 0.041245956
0.48183957 0.076885372 0.040715631
0.48186669 0.077777259 0.040710196
0.48189381 0.078669146 0.040704761
0.48106053 0.079665184 0.040174372
0.48108768 0.080558665 0.04016893
0.48025465 0.081559479 0.039638538
0.48028186 0.082454547 0.039633084
0.48030904 0.083349615 0.03962763
0.48033625 0.084244691 0.039622173
0.47950345 0.085253462 0.039091732
0.47953069 0.086150125 0.039086271
0.47869805 0.087163679 0.038555801
0.47872534 0.088061936 0.038550328
0.47875264 0.088960193 0.038544852
0.47792014 0.089980118 0.038014352
0.4779475 0.090879962 0.038008869
0.47797486 0.091779813 0.038003385
0.4913533 0.0023934052 0.047311086
0.49224329 0.0032974498 0.047831137
0.49226972 0.004167038 0.047825836
0.49229616 0.0050366265 0.047820538
0.49318591 0.0059342962 0.048340589
0.49321231 0.0068022944 0.048335299
0.49410191 0.0076951869 0.048855383
0.49412826 0.0085615898 0.048850104
0.49501771 0.0094497027 0.049370218
0.49504399 0.010314516 0.049364951
0.49507028 0.011179327 0.049359679
0.49595955 0.012061071 0.049879827
0.49598578 0.01292429 0.049874566
0.49601203 0.01378751 0.049869306
0.49603826 0.014650728 0.049864046
0.49692732 0.015524508 0.050384279
0.49695352 0.016386135 0.05037903
0.49697971 0.017247761 0.050373778
0.49700591 0.018109387 0.050368529
0.49703208 0.018971013 0.050363276
0.49705827 0.019832639 0.050358027
0.49708447 0.020694265 0.050352778
0.49711066 0.021555889 0.050347526
0.49713686 0.022417517 0.050342277
0.49716303 0.023279142 0.050337024
0.49718922 0.024140768 0.050331775
0.49635312 0.025009351 0.049800925
0.49637935 0.02587257 0.049795665
0.4964056 0.026735788 0.049790401
0.49643183 0.027599007 0.049785141
0.49559599 0.028475555 0.04925428
0.49562228 0.029340366 0.049249012
0.49564856 0.030205177 0.049243741
0.49567485 0.031069988 0.049238469
0.49570113 0.031934798 0.049233202
0.49486563 0.032820903 0.048702274
0.49489194 0.033687305 0.048696995
0.49491829 0.03455371 0.048691716
0.49408296 0.035446182 0.04816075
0.49410933 0.036314178 0.048155461
0.49327412 0.037211429 0.047624473
0.49330056 0.038081016 0.047619175
0.49246547 0.038983047 0.047088116
0.49249193 0.039854232 0.047082808
0.49165705 0.040761039 0.046551764
0.49082223 0.04167103 0.04602069
0.49084881 0.042545397 0.046015363
0.49087539 0.043419763 0.046010036
0.49004078 0.044336125 0.045478929
0.49006739 0.045212086 0.04547359
0.48923293 0.046133224 0.044942454
0.4892596 0.047010779 0.044937104
0.48928627 0.047888331 0.044931758
0.48845196 0.048815843 0.044400554
0.48847866 0.049694989 0.044395193
0.48850539 0.050574135 0.044389836
0.48853213 0.051453281 0.04438448
0.48855883 0.052332424 0.044379123
0.48858556 0.05321157 0.044373766
0.48775163 0.054150227 0.043842521
0.4877784 0.055030968 0.043837152
0.48780516 0.055911705 0.043831784
0.48783195 0.056792442 0.04382642
0.48785871 0.057673182 0.043821052
0.48702505 0.058621395 0.043289747
0.48705187 0.059503727 0.043284371
0.4870787 0.060386058 0.043278992
0.48624524 0.061340641 0.042747654
0.48627213 0.062224567 0.042742271
0.48629898 0.063108489 0.042736884
0.48632586 0.063992411 0.042731497
0.48549259 0.064954966 0.042200074
0.4855195 0.065840483 0.042194676
0.48468643 0.066807806 0.041663259
0.48471341 0.067694917 0.041657854
0.48474038 0.068582021 0.041652448
0.48476732 0.069469139 0.041647043
0.48393452 0.07044442 0.041115575
0.48396152 0.071333125 0.041110158
0.48312885 0.07231319 0.040578667
0.48315591 0.073203482 0.040573239
0.48318297 0.074093781 0.040567815
0.48235047 0.075080216 0.040036276
0.48237759 0.075972103 0.040030841
0.48240471 0.076863989 0.040025409
0.4824318 0.077755876 0.040019974
0.48159951 0.078750283 0.03948836
0.48162666 0.079643764 0.039482914
0.48079458 0.080642939 0.0389513
0.48082179 0.081538022 0.038945846
0.480849 0.08243309 0.038940392
0.48087621 0.083328158 0.038934939
0.48004434 0.084335305 0.03840328
0.4800716 0.085231967 0.038397815
0.48009884 0.08612863 0.03839235
0.47926718 0.08714214 0.037860651
0.47929451 0.088040397 0.037855174
0.47932181 0.088938661 0.037849702
