# .PCD v0.7 - Point Cloud Data file format
VERSION 0.7
FIELDS x y z
SIZE 4 4 4
TYPE F F F
COUNT 1 1 1
WIDTH 1354
HEIGHT 1
VIEWPOINT 0 0 0 1 0 0 0
POINTS 1354
DATA ascii
0.61268806 0.0074279201 0.039850198
0.61271024 0.0081573557 0.039845753
0.61196607 0.0088598225 0.039197605
0.61198831 0.0095908502 0.03919315
0.61124432 0.010298098 0.038544971
0.61126661 0.011030717 0.038540505
0.61052275 0.011742738 0.037892278
0.609779 0.012457948 0.037244052
0.60980135 0.013193755 0.03723957
0.60905778 0.013913739 0.036591295
0.60831428 0.014636911 0.03594302
0.60833675 0.015375904 0.035938516
0.60759336 0.016103853 0.035290193
0.60761583 0.016844437 0.035285678
0.60687268 0.017577164 0.034637347
0.60689521 0.01831934 0.034632824
0.60615218 0.019056847 0.03398446
0.60540915 0.019797536 0.033336058
0.6054318 0.020542899 0.033331517
0.604689 0.021288367 0.032683104
0.60471171 0.022035323 0.032678556
0.60396898 0.022785569 0.032030094
0.60399175 0.023534115 0.032025531
0.60324925 0.024289139 0.031377062
0.60327202 0.02503928 0.031372491
0.60252964 0.025799083 0.030723974
0.60178733 0.02656207 0.030075457
0.60181022 0.027315395 0.030070866
0.60106808 0.028083161 0.0294223
0.600326 0.028854111 0.028773732
0.60034901 0.029610623 0.028769122
0.59960711 0.030386351 0.028120527
0.59886527 0.031165266 0.027471893
0.5988884 0.031924963 0.027467264
0.59814674 0.032708652 0.02681862
0.59740514 0.03349553 0.026169937
0.59666365 0.034285594 0.025521254
0.5966869 0.035050068 0.025516596
0.5959456 0.035844911 0.024867864
0.59520435 0.036642935 0.024219133
0.59446323 0.037444144 0.023570381
0.59372216 0.038248543 0.022921592
0.59374559 0.039019387 0.022916894
0.5930047 0.039828561 0.022268096
0.59302819 0.040601 0.022263389
0.59228742 0.041414954 0.02161454
0.59231097 0.042188983 0.021609824
0.59157038 0.043007713 0.020960966
0.59159392 0.043783333 0.020956241
0.59085345 0.044606842 0.020307334
0.59087712 0.045384061 0.020302597
0.59013683 0.046212345 0.019653682
0.59016049 0.046991155 0.019648936
0.58942032 0.047824215 0.018999992
0.61851096 -0.017432336 0.044597968
0.61853278 -0.016715636 0.044593602
0.61932153 -0.015916197 0.045233831
0.61934328 -0.015201094 0.045229472
0.61936498 -0.014485992 0.045225114
0.62015361 -0.013692918 0.045865402
0.6201753 -0.01297941 0.045861054
0.62019694 -0.012265901 0.045856707
0.62021863 -0.011552393 0.045852359
0.62024033 -0.010838881 0.045848012
0.62026203 -0.010125373 0.045843665
0.62028372 -0.0094118603 0.045839313
0.62030542 -0.0086983517 0.045834966
0.62032712 -0.0079848431 0.045830619
0.62034875 -0.0072713341 0.045826271
0.62037045 -0.006557826 0.045821924
0.62039214 -0.0058443174 0.045817576
0.61964756 -0.0051896665 0.045168467
0.61966932 -0.0044745645 0.045164108
0.61892486 -0.0038151371 0.044514988
0.61894667 -0.0030984448 0.044510622
0.61896843 -0.002381749 0.044506256
0.6182242 -0.0017159539 0.043857075
0.61824602 -0.00099766813 0.043852698
0.61750191 -0.00032709262 0.04320351
0.61675793 0.00034667205 0.042554304
0.61677986 0.0010681433 0.042549908
0.616036 0.0017466821 0.041900653
0.61605799 0.0024697471 0.041896246
0.6153143 0.0031530624 0.04124698
0.6153363 0.003877721 0.041242566
0.61459273 0.0045658164 0.040593252
0.61461478 0.0052920664 0.040588826
0.6138714 0.0059849382 0.039939504
0.61312807 0.0066809962 0.039290141
0.61315024 0.0074104322 0.039285697
0.61240709 0.0081112683 0.038636323
0.61242932 0.008842296 0.038631868
0.61168629 0.0095479097 0.037982468
0.61170852 0.010280533 0.037978005
0.61096567 0.010990922 0.037328552
0.61022288 0.011704501 0.036679104
0.61024523 0.012440307 0.036674619
0.60950255 0.013158661 0.036025122
0.60876006 0.013880203 0.035375625
0.60878253 0.014619194 0.035371121
0.60804009 0.015345513 0.034721576
0.60806262 0.016086096 0.034717061
0.60732037 0.016817193 0.034067504
0.6073429 0.01755937 0.034062982
0.60660082 0.018295243 0.033413395
0.6058588 0.019034304 0.032763772
0.60588145 0.019779665 0.032759231
0.60513955 0.020523503 0.032109596
0.60516226 0.021270458 0.032105044
0.60442054 0.022019073 0.031455364
0.60444331 0.022767622 0.031450801
0.60370171 0.023521015 0.03080111
0.60296023 0.024277594 0.030151378
0.60298312 0.025029326 0.030146798
0.60224175 0.025790682 0.029497057
0.60226464 0.026544008 0.029492466
0.60152346 0.027310144 0.028842676
0.60078239 0.028079463 0.028192887
0.60080534 0.028835975 0.028188277
0.60006446 0.029610071 0.02753846
0.60008746 0.030368175 0.027533839
0.59934664 0.031147052 0.026883973
0.59860593 0.031929113 0.026234105
0.59786534 0.032714359 0.0255842
0.59788853 0.033477243 0.025579551
0.59714806 0.034267265 0.024929635
0.59640771 0.035060477 0.024279682
0.59566742 0.035856869 0.023629727
0.59492725 0.03665645 0.022979753
0.59495062 0.037425704 0.022975067
0.59421062 0.038230062 0.022325044
0.59423405 0.039000906 0.022320347
0.59349418 0.039810043 0.021670315
0.59275436 0.040622365 0.021020245
0.59277791 0.041396394 0.021015527
0.59203827 0.042213492 0.020365447
0.59206182 0.042989116 0.020360721
0.5913223 0.043810993 0.019710591
0.59134597 0.044588208 0.019705856
0.59060663 0.045414865 0.019055717
0.59063029 0.046193674 0.019050971
0.58989108 0.047025107 0.018400803
0.58915198 0.047859725 0.017750597
0.5891757 0.048641719 0.017745832
0.58843678 0.049481116 0.017095614
0.61896509 -0.017449519 0.044043325
0.61898685 -0.016732819 0.044038959
0.61977464 -0.01593334 0.04468042
0.6197964 -0.015218238 0.044676062
0.61981809 -0.014503136 0.044671707
0.62060571 -0.013710025 0.045313224
0.6206274 -0.012996516 0.045308877
0.62064904 -0.012283008 0.045304529
0.62067074 -0.011569499 0.045300182
0.62069243 -0.010855987 0.045295835
0.62071413 -0.010142479 0.045291487
0.62073582 -0.0094289668 0.04528714
0.62075752 -0.0087154582 0.045282789
0.62077922 -0.0080019496 0.045278441
0.62080085 -0.0072884406 0.045274094
0.62005723 -0.0066370191 0.04462377
0.62007892 -0.005921917 0.044619415
0.62010068 -0.0052068112 0.044615056
0.61935723 -0.0045490158 0.043964714
0.61937898 -0.0038323198 0.043960348
0.6194008 -0.0031156277 0.043955978
0.61865747 -0.0024514608 0.04330558
0.61867929 -0.001733175 0.043301202
0.61793619 -0.0010642313 0.042650793
0.61795807 -0.00034435187 0.042646404
0.6172151 0.00032937463 0.041995965
0.61647218 0.0010062816 0.041345488
0.61649418 0.0017293465 0.041341081
0.61575145 0.0024110319 0.040690593
0.61577344 0.0031356886 0.040686175
0.61503083 0.003822152 0.040035639
0.61505294 0.0045484044 0.040031213
0.61431044 0.005239646 0.03938067
0.61356807 0.0059340722 0.038730081
0.61359024 0.0066635078 0.038725637
0.61284804 0.0073627145 0.038075045
0.61287028 0.0080937417 0.038070589
0.6121282 0.0087977257 0.037419964
0.61215049 0.009530345 0.037415501
0.61140853 0.010239107 0.036764827
0.61066675 0.010951052 0.036114156
0.6106891 0.01168686 0.036109671
0.60994738 0.012403584 0.035458952
0.60920584 0.013123493 0.03480823
0.60922831 0.013862485 0.034803726
0.60848683 0.014587172 0.034152959
0.60774553 0.015315046 0.033502188
0.60776806 0.016057223 0.033497665
0.60702688 0.016789874 0.032846868
0.60704947 0.017533643 0.032842334
0.6063084 0.018271072 0.032191489
0.60633105 0.019016434 0.032186944
0.60559016 0.01975864 0.031536087
0.60561287 0.020505596 0.031531535
0.60487211 0.02125258 0.030880632
0.60413146 0.022002749 0.030229727
0.60415423 0.02275289 0.030225154
0.6034137 0.023507837 0.029574201
0.60343653 0.024259571 0.02956962
0.60269618 0.025019297 0.028918657
0.60271907 0.025772622 0.028914066
0.60197884 0.026537126 0.028263055
0.60123873 0.027304815 0.027612042
0.60126173 0.028061327 0.027607432
0.60052174 0.028833793 0.026956391
0.60054481 0.029591896 0.026951771
0.59980494 0.030369142 0.026300682
0.59906518 0.031149572 0.025649592
0.59908831 0.031910863 0.025644952
0.59834874 0.032696068 0.024993815
0.59760922 0.033484463 0.024342677
0.59686983 0.034276042 0.0236915
0.59689307 0.035042111 0.023686832
0.59615386 0.035838466 0.023035644
0.5954147 0.036638007 0.022384437
0.59543806 0.03740726 0.02237975
0.59469903 0.03821158 0.021728495
0.59396011 0.039019085 0.02107724
0.59322125 0.039829776 0.020425947
0.59324479 0.040603805 0.020421231
0.59250611 0.041419275 0.019769927
0.59252971 0.042194899 0.019765202
0.59179115 0.043015145 0.01911385
0.59181476 0.04379236 0.019109113
0.59107637 0.044617385 0.018457752
0.5911001 0.045396194 0.018453006
0.59036183 0.046225995 0.017801614
0.59038556 0.047006398 0.017796859
0.58964747 0.047840979 0.017145421
0.58890945 0.048678741 0.016493982
0.58817154 0.049519695 0.015842503
0.58743376 0.050363831 0.015191025
0.61863232 -0.018270999 0.042845998
0.61941922 -0.017466702 0.043488685
0.61944097 -0.016750002 0.043484315
0.61946279 -0.01603331 0.043479949
0.62024945 -0.015235383 0.044122655
0.62027121 -0.014520281 0.044118296
0.62029296 -0.013805179 0.044113938
0.6210795 -0.013013623 0.044756699
0.62110114 -0.012300114 0.044752352
0.62112284 -0.011586606 0.044748005
0.62114453 -0.010873093 0.044743657
0.62116623 -0.010159585 0.04473931
0.62118793 -0.0094460733 0.044734962
0.62120962 -0.0087325647 0.044730615
0.62123126 -0.0080190562 0.044726264
0.62048858 -0.0073692626 0.044074722
0.62051028 -0.0066541638 0.044070363
0.62053204 -0.0059390618 0.044066004
0.61978954 -0.0052828905 0.04341444
0.6198113 -0.0045661987 0.04341007
0.61983311 -0.0038495027 0.043405704
0.6190908 -0.0031869714 0.04275408
0.61911261 -0.0024686819 0.042749703
0.61837041 -0.0018013699 0.042098071
0.61839235 -0.0010814905 0.042093683
0.61765033 -0.00040939773 0.041442022
0.6176722 0.00031207723 0.041437626
0.61693037 0.00098894595 0.040785916
0.61618859 0.0016690015 0.040134203
0.61621058 0.0023936583 0.040129788
0.61546892 0.0030784896 0.03947803
0.61549103 0.00380474 0.039473604
0.61474949 0.0044943537 0.038821835
0.61400813 0.0051871478 0.038170025
0.6140303 0.0059165838 0.03816558
0.61328906 0.0066141584 0.037513763
0.61331123 0.0073451879 0.037509307
0.61257017 0.0080475397 0.036857463
0.6125924 0.0087801609 0.036852997
0.61185145 0.009487289 0.036201101
0.61111057 0.010197607 0.035549209
0.61113298 0.010933412 0.035544723
0.61039221 0.011648504 0.034892779
0.60965163 0.012366785 0.034240834
0.6096741 0.013105775 0.034236334
0.60893357 0.013828833 0.033584341
0.60819322 0.014555074 0.032932349
0.60821575 0.015297252 0.032927826
0.60747552 0.016028272 0.032275803
0.60749817 0.016772041 0.03227127
0.60675806 0.01750784 0.031619202
0.60601807 0.018246822 0.030967133
0.60604078 0.018993778 0.030962581
0.6053009 0.019737538 0.030310461
0.60532367 0.020486087 0.0303059
0.60458392 0.021234624 0.029653773
0.60460675 0.021984765 0.029649202
0.60386717 0.022738082 0.028997025
0.60389 0.023489814 0.028992444
0.60315061 0.024247911 0.028340258
0.60317349 0.025001235 0.028335666
0.60243422 0.02576411 0.027683431
0.60169506 0.026530167 0.027031196
0.60171807 0.027286679 0.027026586
0.60097903 0.028057514 0.026374323
0.6010021 0.028815618 0.026369704
0.60026318 0.029591233 0.025717391
0.59952444 0.030370031 0.025065077
0.59954756 0.03113132 0.025060439
0.59880888 0.031914897 0.024408078
0.59807038 0.03270166 0.023755716
0.59809363 0.033466134 0.023751058
0.59735519 0.034257676 0.023098649
0.59661692 0.0350524 0.022446239
0.59587872 0.035850313 0.021793811
0.59590209 0.036619566 0.021789122
0.595164 0.037422255 0.021136645
0.59518743 0.038193099 0.021131948
0.59444958 0.039000567 0.020479459
0.59371173 0.03981122 0.019826934
0.59373522 0.04058525 0.019822218
0.59299761 0.041400678 0.019169681
0.59226 0.042219296 0.018517107
0.59228361 0.042996511 0.01851237
0.59154618 0.043819904 0.017859787
0.5915699 0.044598714 0.017855041
0.59083259 0.045426887 0.017202428
0.5900954 0.046258245 0.016549775
0.59011918 0.047040235 0.016545011
0.58938211 0.047876369 0.015892347
0.58940595 0.048659954 0.015887573
0.58866906 0.049500871 0.015234862
0.58717155 0.050403889 0.013934206
0.58339244 0.051494814 0.010689706
0.61832333 -0.018375864 0.041641857
0.61910927 -0.017569935 0.042285748
0.6198951 -0.016767185 0.042929675
0.61991692 -0.016050493 0.042925306
0.61993867 -0.015333797 0.04292094
0.62072432 -0.014537426 0.043564886
0.62074608 -0.013822324 0.043560527
0.62076777 -0.013107224 0.043556172
0.62078953 -0.012392122 0.043551814
0.62157494 -0.011603712 0.044195827
0.62159663 -0.0108902 0.04419148
0.62085474 -0.010246816 0.043538742
0.62087649 -0.009531714 0.043534383
0.62089819 -0.008816612 0.043530025
0.62091994 -0.008101509 0.043525666
0.6209417 -0.0073864073 0.043521311
0.62096339 -0.0066713085 0.043516953
0.62022185 -0.0060167732 0.042864162
0.62024367 -0.0053000734 0.042859796
0.62026542 -0.0045833816 0.04285543
0.61952406 -0.0039224783 0.042202584
0.61954588 -0.0032041923 0.042198207
0.61880469 -0.0025385087 0.04154535
0.61882657 -0.0018186292 0.041540962
0.6180855 -0.0011481664 0.040888079
0.61810744 -0.00042669516 0.040883683
0.61736649 0.00024854549 0.040230747
0.61662567 0.00092696917 0.039577816
0.61664772 0.0016516277 0.039573397
0.61590701 0.0023348292 0.038920417
0.61592913 0.0030610778 0.038915992
0.6151886 0.0037490577 0.038263001
0.61521071 0.0044769035 0.038258564
0.6144703 0.0051696594 0.037605524
0.61373001 0.0058656042 0.036952481
0.61375225 0.0065966318 0.036948029
0.61301208 0.0072973538 0.036294959
0.61303437 0.008029975 0.036290493
0.61229438 0.0087354723 0.035637375
0.61155444 0.0094441576 0.034984257
0.6115768 0.010179966 0.034979776
0.61083704 0.010893426 0.034326609
0.61009741 0.011610076 0.033673443
0.61011988 0.012349067 0.033668939
0.6093803 0.013070493 0.033015724
0.60864091 0.013795105 0.032362506
0.60866344 0.01453728 0.032357983
0.60792422 0.015266671 0.031704742
0.60794681 0.016010439 0.031700209
0.60720766 0.016744606 0.031046916
0.60646862 0.01748196 0.030393623
0.60649133 0.018228913 0.030389071
0.60575241 0.018971045 0.029735729
0.60577518 0.019719591 0.029731169
0.60503644 0.020466501 0.029077819
0.60505927 0.02121664 0.029073246
0.60432065 0.021968327 0.028419847
0.60434347 0.022720059 0.028415266
0.60360503 0.023476522 0.027761856
0.60286665 0.024236172 0.027108409
0.6028896 0.024991091 0.027103808
0.60215139 0.025755519 0.026450351
0.6021744 0.026512029 0.026445741
0.60143638 0.027281236 0.025792254
0.60145938 0.028039338 0.025787635
0.60072148 0.028813321 0.0251341
0.60074455 0.029573018 0.025129469
0.60000682 0.030351778 0.024475925
0.59926909 0.031133726 0.023822341
0.59929228 0.031896606 0.023817692
0.59855479 0.032683332 0.023164099
0.5978173 0.033473242 0.022510465
0.59707999 0.034266338 0.021856833
0.5971033 0.035033997 0.021852156
0.59636611 0.035831869 0.021198494
0.59638953 0.036601122 0.021193806
0.59565246 0.037403774 0.020540096
0.59491551 0.03820961 0.019886386
0.59417862 0.039018631 0.019232636
0.59420216 0.039792661 0.01922792
0.59346545 0.040606461 0.018574161
0.59348905 0.041382086 0.018569436
0.59275246 0.042200662 0.017915629
0.59201598 0.043022424 0.017261822
0.59203964 0.043801233 0.017257076
0.59130335 0.044627775 0.016603239
0.59132707 0.045408174 0.016598484
0.59059089 0.046239495 0.015944598
0.58985484 0.047073998 0.015290714
0.58987862 0.047857583 0.015285939
0.58914268 0.048696864 0.014632006
0.58840686 0.049539335 0.013978072
0.58691144 0.050443869 0.012674943
0.58085859 0.051717617 0.0074767256
0.61644608 -0.020105479 0.039145071
0.61723125 -0.01929155 0.039790142
0.61801636 -0.018480802 0.040435255
0.61880136 -0.017673245 0.041080367
0.61958623 -0.016868865 0.041725494
0.61960804 -0.016150581 0.041721117
0.6203928 -0.01535098 0.042366296
0.62041456 -0.014634288 0.04236193
0.62119913 -0.013839467 0.04300712
0.62122089 -0.013124369 0.043002762
0.62124264 -0.012409267 0.042998403
0.62126434 -0.011694165 0.042994048
0.62128609 -0.010979059 0.04298969
0.62130785 -0.010263961 0.042985331
0.62132955 -0.0095488587 0.042980973
0.6213513 -0.0088337567 0.042976618
0.62137306 -0.0081186537 0.042972259
0.62063241 -0.0074673439 0.042318258
0.62065423 -0.0067506479 0.042313889
0.62067598 -0.0060339561 0.042309523
0.6206978 -0.0053172563 0.042305157
0.61995739 -0.0046579852 0.041651085
0.6199792 -0.0039396994 0.041646708
0.61923897 -0.0032756473 0.040992629
0.61926085 -0.0025557678 0.040988244
0.61852074 -0.0018869351 0.040334135
0.61854267 -0.0011654638 0.040329739
0.61780268 -0.00049185875 0.039675582
0.61706281 0.00018493866 0.039021425
0.61708486 0.00090959534 0.03901701
0.61634511 0.0015911668 0.038362805
0.61636722 0.0023174172 0.038358379
0.61562765 0.0030037654 0.037704166
0.61564976 0.0037316077 0.037699729
0.6149103 0.0044227354 0.037045468
0.61417097 0.005117048 0.036391202
0.6141932 0.0058480776 0.036386747
0.61345404 0.0065471679 0.035732456
0.61347628 0.0072797891 0.035727993
0.61273724 0.0079836566 0.035073649
0.61199832 0.0086907111 0.034419309
0.61202067 0.0094265165 0.034414824
0.61128187 0.010138349 0.033760436
0.61054319 0.010853366 0.033106048
0.6105656 0.011592358 0.033101544
0.60982704 0.012312153 0.032447107
0.6090886 0.013035133 0.031792667
0.60911119 0.013777311 0.031788144
0.60837287 0.014505068 0.031133678
0.60839546 0.015248839 0.031129146
0.60765731 0.015981374 0.030474631
0.60691923 0.016717095 0.029820114
0.60694194 0.017464051 0.029815564
0.60620397 0.018204549 0.029160999
0.60622674 0.018953098 0.029156437
0.60548896 0.019698374 0.028501863
0.60475129 0.020446839 0.027847251
0.60477412 0.021198571 0.027842671
0.60403657 0.021951811 0.027188048
0.60405946 0.022705136 0.027183458
0.60332209 0.023463156 0.026528787
0.60334504 0.024218073 0.026524186
0.60260779 0.024980871 0.025869505
0.60263079 0.025737381 0.025864895
0.60189366 0.026504956 0.025210185
0.60191673 0.02726306 0.025205566
0.60117972 0.028035412 0.024550809
0.60120285 0.028795108 0.024546178
0.60046601 0.029572239 0.02389141
0.5997293 0.030352555 0.023236604
0.59975249 0.031115437 0.023231955
0.59901589 0.031900529 0.022577139
0.59827942 0.032688808 0.021922283
0.59830272 0.033454876 0.021917615
0.59756637 0.034247931 0.02126275
0.59683019 0.035044175 0.020607866
0.59685355 0.035813428 0.020603178
0.59611744 0.036614448 0.019948246
0.59614086 0.037385292 0.019943548
0.59540492 0.038191091 0.019288605
0.5946691 0.039000075 0.018633625
0.59393334 0.039812244 0.017978642
0.59395695 0.040587865 0.017973917
0.59322131 0.041404814 0.017318886
0.59248579 0.042224947 0.016663857
0.59250945 0.043003753 0.016659111
0.59177411 0.043828662 0.016004052
0.59103882 0.044656757 0.015348953
0.59106261 0.045438752 0.015344188
0.59108639 0.046220746 0.015339423
0.59035134 0.047055211 0.014684306
0.58961636 0.047892861 0.01402915
0.58888143 0.0487337 0.013373993
0.58814669 0.049577724 0.012718799
0.587412 0.05042493 0.012063603
0.58212578 0.05163794 0.0075059277
0.5783574 0.052749187 0.0042489553
0.57458949 0.053876363 0.00099188637
0.61614305 -0.02021376 0.037933532
0.61692727 -0.019398196 0.038579848
0.61771137 -0.01858582 0.039226163
0.6184954 -0.017776625 0.039872516
0.61927933 -0.01697062 0.040518872
0.6193012 -0.016250741 0.040514484
0.620085 -0.015449516 0.041160867
0.62086868 -0.014651471 0.041807286
0.6208905 -0.013934774 0.04180292
0.62091225 -0.013218082 0.041798554
0.62093407 -0.012501387 0.041794185
0.62095582 -0.011784694 0.041789819
0.62097764 -0.011067995 0.041785453
0.6209994 -0.010351303 0.041781083
0.62102115 -0.0096346065 0.041776717
0.62104297 -0.0089179147 0.041772351
0.62106472 -0.0082012191 0.041767981
0.62108654 -0.0074845268 0.041763615
0.62110829 -0.0067678308 0.041759245
0.62036884 -0.0061117848 0.041103967
0.62039065 -0.0053934921 0.041099589
0.62041247 -0.0046752063 0.041095212
0.61967319 -0.0040127859 0.040439907
0.61969507 -0.0032929066 0.040435523
0.61895597 -0.0026257057 0.039780192
0.6189779 -0.0019042324 0.039775796
0.61823887 -0.0012322573 0.039120417
0.61749995 -0.00055709557 0.038465038
0.617522 0.00016756487 0.03846062
0.6167832 0.00084750453 0.037805192
0.61680532 0.0015737548 0.037800767
0.61606669 0.0022584731 0.037145328
0.61608881 0.0029863152 0.037140895
0.61535031 0.0036758112 0.036485408
0.61461198 0.0043684943 0.035829924
0.61463422 0.0050995215 0.035825469
0.61389595 0.0057969815 0.035169952
0.61391824 0.0065296032 0.035165489
0.61318016 0.0072318409 0.034509923
0.6124422 0.0079372637 0.033854362
0.61246455 0.00867307 0.033849876
0.6117267 0.0093832687 0.033194263
0.61098897 0.010096658 0.032538652
0.61101139 0.010835649 0.032534149
0.61027378 0.011553812 0.03187849
0.60953629 0.012275164 0.031222828
0.60955888 0.01301734 0.031218305
0.60882151 0.013743467 0.030562615
0.60884416 0.014487236 0.030558081
0.60810691 0.015218142 0.029902345
0.60736978 0.015952233 0.029246606
0.60739249 0.016699187 0.029242054
0.60665554 0.017438056 0.028586267
0.60667831 0.018186603 0.028581705
0.60594147 0.018930251 0.027925909
0.6052047 0.019677082 0.027270073
0.60522759 0.020428816 0.027265493
0.604491 0.021180425 0.026609648
0.60451388 0.021933751 0.026605057
0.60377747 0.022690138 0.025949163
0.60380042 0.023445057 0.025944563
0.60306412 0.024206223 0.02528866
0.60308713 0.024962733 0.02528405
0.60235101 0.025728676 0.024628118
0.60237402 0.02648678 0.024623496
0.60163802 0.027257502 0.023967516
0.60166109 0.028017199 0.023962887
0.60092527 0.028792698 0.023306897
0.60018951 0.029571382 0.022650868
0.60021269 0.030334264 0.022646219
0.59947705 0.031117728 0.021990178
0.5995003 0.0318822 0.02198552
0.59876484 0.032670442 0.021329433
0.59802949 0.033461869 0.020673344
0.5980528 0.034229528 0.020668667
0.59731758 0.035025731 0.02001255
0.59658247 0.035825122 0.019356394
0.5966059 0.036595967 0.019351697
0.59587091 0.037400134 0.018695531
0.59513599 0.038207486 0.018039327
0.59515953 0.038981516 0.018034611
0.59442478 0.039793648 0.017378395
0.59369016 0.040608965 0.016722143
0.59295559 0.041427463 0.01606589
0.59297925 0.042206272 0.016061144
0.59224486 0.04302955 0.015404863
0.59151059 0.043856017 0.014748543
0.59153432 0.044638012 0.014743777
0.59080017 0.045469254 0.014087446
0.59082401 0.046252839 0.014082671
0.59008998 0.047088858 0.013426292
0.58935606 0.047928065 0.012769913
0.58937997 0.048714835 0.012765119
0.58788854 0.049616035 0.011457078
0.58639723 0.050523601 0.010148998
0.58339101 0.051558334 0.0075375936
0.57887006 0.052729789 0.003622826
0.57662213 0.053729609 0.0016628994
0.61505872 -0.021142488 0.036072034
0.61660326 -0.020231172 0.037371498
0.61662531 -0.019504922 0.037367072
0.61740845 -0.018690912 0.038014628
0.61819154 -0.017880091 0.038662184
0.61897451 -0.01707245 0.039309781
0.61975735 -0.016268 0.039957378
0.61977923 -0.01554812 0.03995299
0.62056196 -0.014748447 0.040600616
0.62058377 -0.014030161 0.040596239
0.62136638 -0.013235265 0.041243911
0.62138814 -0.01251857 0.041239545
0.62140995 -0.011801877 0.041235175
0.62143171 -0.011085178 0.041230809
0.62145352 -0.010368486 0.041226443
0.62147528 -0.0096517894 0.041222073
0.62149709 -0.0089350976 0.041217707
0.62151885 -0.008218402 0.041213341
0.62078029 -0.0075655775 0.040556844
0.6208021 -0.0068472917 0.040552467
0.62082392 -0.0061290059 0.04054809
0.6200856 -0.0054698042 0.039891575
0.62010747 -0.0047499249 0.03988719
0.61936921 -0.0040859492 0.039230645
0.61939114 -0.0033644761 0.039226249
0.61941308 -0.0026430029 0.039221853
0.61867505 -0.0019726597 0.038565248
0.61793709 -0.0012991261 0.037908647
0.61795914 -0.00057446933 0.037904233
0.6172213 0.00010384222 0.03724758
0.61724341 0.00083009258 0.037243158
0.61650574 0.0015131808 0.036586497
0.61652786 0.0022410229 0.03658206
0.61579037 0.002928887 0.035925351
0.61505294 0.0036199382 0.035268642
0.61507517 0.0043509677 0.035264187
0.61433792 0.0050467975 0.034607448
0.61436015 0.0057794168 0.034602985
0.61362302 0.0064800228 0.033946197
0.61288601 0.0071838177 0.03328941
0.61290842 0.0079196226 0.033284929
0.61217153 0.0086281914 0.032628093
0.61219394 0.0093655894 0.0326236
0.61145717 0.010078941 0.031966753
0.61072057 0.010795472 0.031309873
0.61074305 0.011536056 0.031305358
0.61000657 0.01225737 0.030648464
0.60927022 0.012981866 0.029991552
0.60929281 0.013725635 0.02998702
0.60855651 0.014454908 0.029330058
0.60782039 0.01518737 0.028673097
0.6078431 0.015934324 0.028668545
0.6071071 0.016671561 0.028011536
0.60712981 0.017420109 0.028006975
0.60639399 0.018162126 0.027349954
0.60565817 0.018907327 0.026692897
0.60568106 0.019659059 0.026688317
0.60494542 0.020409038 0.026031248
0.60496831 0.021162365 0.026026657
0.60423285 0.021917121 0.02536954
0.6042558 0.022672039 0.025364941
0.60352045 0.023431573 0.024707815
0.60354346 0.024188085 0.024703205
0.6028083 0.024952397 0.024046049
0.60283136 0.025710501 0.024041429
0.60209626 0.026479593 0.023384225
0.60211939 0.027239289 0.023379596
0.60138452 0.028013157 0.022722382
0.60140765 0.028774446 0.022717744
0.60067284 0.029553093 0.022060482
0.59993821 0.030334925 0.02140322
0.59996146 0.0310994 0.021398561
0.59922695 0.031886011 0.02074125
0.59849256 0.032675806 0.02008394
0.59851587 0.033443466 0.020079263
0.5977816 0.034238037 0.019421922
0.59780502 0.035007291 0.019417234
0.59707087 0.035806641 0.018759847
0.59633684 0.036609177 0.018102458
0.59560293 0.037414901 0.01744503
0.59562647 0.038188931 0.017440313
0.59489268 0.038999431 0.016782876
0.59415901 0.039813116 0.016125401
0.59418261 0.040590331 0.016120665
0.59344906 0.041408792 0.01546318
0.59271562 0.042230442 0.014805675
0.59198231 0.043055274 0.014148132
0.59200603 0.043837268 0.014143366
0.59127289 0.044666879 0.013485814
0.59129667 0.045450468 0.013481039
0.5905636 0.046284858 0.012823436
0.5898307 0.04712243 0.012165835
0.5898546 0.047909204 0.012161041
0.58912176 0.048751555 0.01150339
0.58763236 0.049654268 0.010192893
0.5861432 0.05056335 0.0088823382
0.58389759 0.051539168 0.0069188597
0.58013922 0.05264844 0.0036495724
0.57713783 0.053710096 0.0010330722
0.61395591 -0.022810364 0.034210127
0.61552089 -0.021159977 0.035507534
0.61630327 -0.02033956 0.036156282
0.61708546 -0.019522334 0.036805034
0.61710757 -0.018796083 0.036800608
0.61788964 -0.017983627 0.037449408
0.61867166 -0.017174359 0.038098205
0.61945355 -0.016368276 0.038747046
0.61947548 -0.015646802 0.038742647
0.62025726 -0.0148455 0.039391495
0.62103891 -0.014047382 0.040040363
0.62106073 -0.013329096 0.040035985
0.6210826 -0.012610811 0.040031608
0.62110442 -0.011892521 0.040027231
0.62112623 -0.011174232 0.040022854
0.62114805 -0.010455946 0.040018477
0.62116992 -0.0097376602 0.040014099
0.62119174 -0.0090193702 0.040009722
0.62121356 -0.0083010849 0.040005345
0.62123543 -0.0075827986 0.040000968
0.62125725 -0.0068645128 0.03999659
0.62051982 -0.0062069464 0.039338853
0.62054169 -0.0054870634 0.039334469
0.61980444 -0.0048247161 0.038676701
0.61982638 -0.0041032466 0.038672306
0.61984831 -0.0033817736 0.03866791
0.61911124 -0.0027130584 0.038010083
0.61837423 -0.0020411566 0.03735226
0.61839628 -0.0013164998 0.037347842
0.61765939 -0.00063982198 0.036689971
0.6176815 8.6430235e-05 0.036685545
0.61694479 0.00076788664 0.036027659
0.6169669 0.0014957306 0.036023226
0.61623037 0.0021819631 0.035365295
0.61549395 0.0028713839 0.03470736
0.61551613 0.0036024116 0.034702908
0.61477983 0.0042966115 0.034044947
0.61480212 0.0050292327 0.034040481
0.61406595 0.0057282071 0.033382472
0.61408824 0.0064624199 0.033377998
0.61335224 0.0071661766 0.032719977
0.6126163 0.0078731133 0.03206192
0.61263877 0.0086105121 0.032057427
0.61190295 0.0093222288 0.031399358
0.61116731 0.010037133 0.030741254
0.61118978 0.010777717 0.030736741
0.61045426 0.011497396 0.030078623
0.60971886 0.012220263 0.029420489
0.60974145 0.012964034 0.029415956
0.60900617 0.013691677 0.028757771
0.608271 0.014422504 0.028099589
0.60829371 0.015169461 0.028095037
0.60755861 0.015905067 0.027436804
0.60758138 0.016653614 0.027432242
0.60684651 0.017394001 0.026774
0.60686928 0.01814414 0.026769429
0.60613453 0.018889304 0.026111139
0.60539985 0.019637652 0.025452847
0.60542274 0.020390978 0.025448257
0.60468823 0.021144103 0.024789918
0.60471117 0.021899022 0.024785317
0.60397685 0.022656925 0.024126967
0.60399979 0.023413436 0.024122357
0.60326558 0.024176119 0.023463979
0.60328865 0.024934221 0.02345936
0.60255456 0.025701683 0.022800934
0.60257763 0.026461378 0.022796305
0.60184371 0.027233616 0.022137867
0.60110986 0.02800904 0.021479392
0.60113305 0.028771922 0.021474743
0.60039937 0.029552123 0.020816259
0.60042262 0.030316597 0.020811601
0.59968907 0.031101577 0.020153066
0.59895563 0.03188974 0.019494534
0.59897894 0.0326574 0.019489856
0.59824568 0.033450343 0.018831292
0.59826905 0.034219593 0.018826606
0.59753585 0.035017315 0.018167995
0.59755927 0.03578816 0.018163297
0.59682631 0.036590658 0.017504675
0.59609336 0.037396342 0.016846016
0.59536058 0.03820521 0.016187357
0.59538412 0.038980834 0.016182631
0.59465146 0.039794482 0.015523922
0.59391886 0.040611312 0.014865214
0.59318638 0.04143133 0.014206487
0.5932101 0.04221173 0.014201731
0.5924778 0.043036528 0.013542955
0.59174556 0.043864507 0.012884179
0.59176934 0.044648092 0.012879404
0.59103727 0.045480855 0.012220579
0.59030527 0.046316799 0.011561754
0.59032917 0.047103569 0.011556961
0.58959734 0.047944292 0.010898087
0.58886558 0.048788197 0.010239214
0.58737826 0.049692426 0.008926223
0.58589113 0.050603025 0.0076132133
0.58289307 0.051640637 0.004991929
0.58065087 0.05262908 0.003024675
0.57840896 0.053627081 0.0010573625
0.61361617 -0.024392158 0.032997709
0.61439788 -0.02356055 0.033647627
0.61442012 -0.022827929 0.03364316
0.61520165 -0.022001106 0.034293085
0.61522388 -0.021270078 0.03428863
0.61600524 -0.020448033 0.034938585
0.61678654 -0.019629169 0.035588577
0.61756772 -0.018813495 0.03623857
0.61758977 -0.018087244 0.036234144
0.61837083 -0.017276339 0.036884189
0.61915177 -0.016468629 0.037534229
0.61993265 -0.015664099 0.038184308
0.61995459 -0.014942629 0.038179912
0.62073529 -0.014142879 0.038830001
0.62075716 -0.013423 0.038825616
0.62077904 -0.012703121 0.038821228
0.62155956 -0.011909742 0.039471358
0.62158138 -0.011191453 0.039466981
0.62160319 -0.010473167 0.039462604
0.62162501 -0.0097548813 0.039458226
0.62164688 -0.0090365913 0.039453849
0.6216687 -0.0083183059 0.039449472
0.62093222 -0.007663961 0.03879052
0.6209541 -0.0069440813 0.038786136
0.62097597 -0.0062242057 0.038781747
0.62023968 -0.0055634864 0.038122758
0.62026161 -0.0048420136 0.038118362
0.61952543 -0.004176524 0.037459325
0.61954737 -0.0034534608 0.037454918
0.61881137 -0.002783187 0.036795869
0.61883342 -0.0020585302 0.036791455
0.61809748 -0.0013834862 0.036132358
0.6181196 -0.00065723393 0.036127932
0.61738384 2.2594324e-05 0.035468828
0.6166482 0.00070560485 0.034809683
0.61667037 0.0014350407 0.034805235
0.61593491 0.0021228299 0.034146082
0.61595714 0.0028538574 0.034141626
0.6152218 0.0035464237 0.033482444
0.61524403 0.0042790468 0.033477981
0.61450887 0.0049763909 0.032818746
0.61453116 0.0057106041 0.032814272
0.61379611 0.0064127268 0.032155029
0.61306113 0.0071180356 0.03149575
0.61308354 0.007855434 0.031491257
0.61234874 0.0085655218 0.030831967
0.61161405 0.009278791 0.030172637
0.61163652 0.010019377 0.030168124
0.61090201 0.010737427 0.029508784
0.61092454 0.011479603 0.029504262
0.61019015 0.012202431 0.028844895
0.60945576 0.012928445 0.028185487
0.60947841 0.013673807 0.028180946
0.60874426 0.014404596 0.027521528
0.60801017 0.015138574 0.026862074
0.60803294 0.015887123 0.026857512
0.60729897 0.016625876 0.026198046
0.6073218 0.017376015 0.026193475
0.60658801 0.018119548 0.025533961
0.60585427 0.018866265 0.024874449
0.60587722 0.01961959 0.024869857
0.60514361 0.020371087 0.024210295
0.60516655 0.021126004 0.024205694
0.60443318 0.021882277 0.023546122
0.60445619 0.022638788 0.023541514
0.60372293 0.023399839 0.022881912
0.60374594 0.024157943 0.022877293
0.6030128 0.024923772 0.022217643
0.60303593 0.025683468 0.022213014
0.60230297 0.026454076 0.021553354
0.60157007 0.027227869 0.020893656
0.60159326 0.027990749 0.020889008
0.60086054 0.02876932 0.0202293
0.60088378 0.029533794 0.020224642
0.60015118 0.030317143 0.019564886
0.5994187 0.031103676 0.018905129
0.59944201 0.031871337 0.01890045
0.5987097 0.032662649 0.018240666
0.59873307 0.033431899 0.018235978
0.59800088 0.03422799 0.017576143
0.59802431 0.034998834 0.017571446
0.59729224 0.035799701 0.016911604
0.5965603 0.036603756 0.01625172
0.59658378 0.037377786 0.016247004
0.59585202 0.038186613 0.015587111
0.59512031 0.038998634 0.01492718
0.59438866 0.039813831 0.014267249
0.5936572 0.040632218 0.013607299
0.59368086 0.041412622 0.013602544
0.59294951 0.042235788 0.012942544
0.59221822 0.043062136 0.012282545
0.59224206 0.043845721 0.01227777
0.59151089 0.044676851 0.011617723
0.5907799 0.045511164 0.010957676
0.5908038 0.046297934 0.010952882
0.59007287 0.047137026 0.010292785
0.58934212 0.047979303 0.0096326899
0.58861142 0.048824761 0.008972574
0.58712614 0.04973051 0.0076571084
0.58564109 0.050642628 0.0063415845
0.58264709 0.051681675 0.0037153992
0.58040798 0.052671596 0.0017444384
0.57816917 0.053671073 -0.00022658141
0.61405909 -0.025143972 0.032433983
0.61408138 -0.02440976 0.032429509
0.61486208 -0.023578115 0.03308066
0.61488432 -0.022845494 0.033076193
0.61490661 -0.022112872 0.03307173
0.61568707 -0.021287605 0.033722896
0.6157093 -0.020556577 0.033718441
0.61648959 -0.019736087 0.034369636
0.61726981 -0.018918777 0.035020873
0.61804998 -0.018104656 0.03567211
0.61807203 -0.017378403 0.035667684
0.61885202 -0.016569057 0.036318965
0.61963189 -0.015762901 0.03697025
0.61965388 -0.015039835 0.036965843
0.62043363 -0.014238453 0.037617177
0.62045556 -0.013516981 0.037612781
0.62123519 -0.01272038 0.038264122
0.62125707 -0.0120005 0.038259733
0.62127894 -0.011280618 0.038255349
0.62130082 -0.010560738 0.03825096
0.62132269 -0.0098408582 0.038246576
0.62134457 -0.0091209793 0.038242187
0.62136644 -0.0084010996 0.038237803
0.62138832 -0.0076812203 0.038233414
0.62065291 -0.0070237303 0.037573211
0.62067485 -0.0063022608 0.037568815
0.62069678 -0.0055807838 0.037564419
0.61996156 -0.0049169227 0.036904156
0.61998355 -0.0041938592 0.036899753
0.61924851 -0.0035252213 0.036239482
0.61927056 -0.0028005608 0.036235064
0.61853558 -0.0021271447 0.035574745
0.61855769 -0.0014008981 0.03557032
0.61782295 -0.00072270172 0.034909993
0.61708826 -4.1319276e-05 0.034249622
0.61711043 0.00068811653 0.034245178
0.61637586 0.0013742757 0.0335848
0.6163981 0.0021053033 0.033580348
0.61566371 0.0027962397 0.03291994
0.615686 0.003528859 0.032915477
0.61495173 0.0042245751 0.03225502
0.61497408 0.0049587884 0.032250546
0.61423999 0.0056592808 0.031590082
0.61350596 0.006362956 0.030929578
0.61352837 0.0071003563 0.030925084
0.61279452 0.007808812 0.030264571
0.61206079 0.0085204532 0.02960402
0.61208332 0.0092610354 0.029599506
0.6113497 0.0099774571 0.028938945
0.61137223 0.010719633 0.028934421
0.6106388 0.01144083 0.02827383
0.60990542 0.012165214 0.0276132
0.60992807 0.012910575 0.027608659
0.60919487 0.013639735 0.02694802
0.60846174 0.014372079 0.026287341
0.60848445 0.015120627 0.02628278
0.60775149 0.015857751 0.025622092
0.60777432 0.01660789 0.025617521
0.60704148 0.017349793 0.024956785
0.6063087 0.018094879 0.024296047
0.60633165 0.018848205 0.024291458
0.60559905 0.019598069 0.023630671
0.60562193 0.020352988 0.023626072
0.60488951 0.021107629 0.022965277
0.60491252 0.02186414 0.022960667
0.60418022 0.022623559 0.022299843
0.60420328 0.023381663 0.022295224
0.6034711 0.024145862 0.021634351
0.60349417 0.024905559 0.021629723
0.60276216 0.025674535 0.02096884
0.60203028 0.026446696 0.020307919
0.60205346 0.027209578 0.02030327
0.6013217 0.027986517 0.01964234
0.60134494 0.028750991 0.019637682
0.6006133 0.02953271 0.018976701
0.59988177 0.030317612 0.018315723
0.59990513 0.031085271 0.018311044
0.59917372 0.031874951 0.017650036
0.59919709 0.032644205 0.017645348
0.59846586 0.033438664 0.016984293
0.59848928 0.034209508 0.016979596
0.59775823 0.035008743 0.016318528
0.59702718 0.035811167 0.015657423
0.59705073 0.036585197 0.015652707
0.59631991 0.037392396 0.014991592
0.5955891 0.038202781 0.014330437
0.59485847 0.039016355 0.013669283
0.59488213 0.03979516 0.013664538
0.59415168 0.04061351 0.013003355
0.59342122 0.041435044 0.012342134
0.59269089 0.042259764 0.011680911
0.59271473 0.043043349 0.011676136
0.59198457 0.043872848 0.011014866
0.59125447 0.044705529 0.010353596
0.59127837 0.045492299 0.010348802
0.59054846 0.046329763 0.0096874824
0.59057242 0.047118127 0.0096826786
0.58984262 0.047960363 0.0090213502
0.58835924 0.048861254 0.0077034486
0.58687609 0.049768515 0.0063855276
0.58539307 0.05068215 0.0050675287
0.5831567 0.051662393 0.0030929677
0.58092064 0.052652199 0.0011183083
0.61447966 -0.026630001 0.031874731
0.61450195 -0.025895789 0.031870257
0.6145243 -0.025161576 0.031865783
0.6145466 -0.024427364 0.031861309
0.61456895 -0.023693144 0.031856835
0.61534858 -0.022863058 0.032509226
0.61537081 -0.022130437 0.032504763
0.61615026 -0.021305131 0.033157162
0.61617249 -0.020574104 0.033152707
0.61695176 -0.019753575 0.033805136
0.61773103 -0.018936226 0.034457605
0.61775315 -0.018208383 0.034453169
0.61853218 -0.017395815 0.035105646
0.61855429 -0.016669564 0.03510122
0.61933321 -0.015861774 0.035753746
0.62011206 -0.015057171 0.036406271
0.620134 -0.014334108 0.036401864
0.62091273 -0.013534278 0.037054442
0.62093467 -0.012812809 0.037050042
0.6209566 -0.012091336 0.037045646
0.62097853 -0.011369859 0.037041251
0.62175697 -0.010577997 0.037693854
0.62177885 -0.0098581174 0.037689466
0.62180072 -0.0091382386 0.037685081
0.62106621 -0.0084839733 0.037023664
0.62108815 -0.0077625006 0.037019268
0.62111008 -0.0070410278 0.037014872
0.62113202 -0.0063195582 0.037010476
0.62039775 -0.0056573246 0.036348991
0.62041974 -0.0049342578 0.036344584
0.61968565 -0.0042672516 0.035683092
0.61970764 -0.0035425951 0.035678677
0.61897373 -0.0028708072 0.035017133
0.61899579 -0.0021445567 0.035012707
0.61826199 -0.0014679959 0.034351155
0.61752826 -0.00078824529 0.033689566
0.61755043 -5.8807611e-05 0.033685122
0.61681688 0.00062571967 0.033023521
0.61683911 0.0013567491 0.033019066
0.61610568 0.0020460538 0.032357436
0.61612791 0.0027786749 0.032352973
0.61539465 0.0034727573 0.031691294
0.61466146 0.0041700285 0.031029617
0.61468387 0.0049058329 0.031025132
0.61395079 0.0056078783 0.030363407
0.6139732 0.0063452767 0.030358912
0.6132403 0.007052104 0.029697178
0.61326277 0.0077910945 0.029692674
0.61253005 0.0085026976 0.029030889
0.61179739 0.0092174839 0.028369104
0.61181992 0.0099596633 0.028364582
0.61108744 0.010679229 0.027702767
0.61035502 0.011401978 0.027040916
0.61037767 0.012147344 0.027036374
0.60964543 0.012874871 0.026374511
0.60966814 0.013621827 0.026369959
0.60893601 0.014354132 0.02570805
0.60820401 0.015089626 0.025046138
0.60822684 0.015839767 0.025041567
0.60749489 0.016580036 0.024379607
0.60751778 0.01733177 0.024375027
0.60678607 0.018076817 0.023713058
0.60605443 0.018825052 0.02305105
0.60607737 0.019579969 0.023046449
0.6053459 0.020332981 0.022384431
0.60536885 0.021089491 0.022379821
0.60463756 0.021847282 0.021717776
0.60466057 0.022605384 0.021713154
0.6039294 0.023367953 0.02105106
0.60395247 0.024127647 0.021046432
0.60322142 0.024894994 0.020384327
0.60249048 0.025665525 0.019722182
0.60251367 0.026428407 0.019717533
0.60178286 0.027203714 0.01905538
0.6018061 0.027968189 0.019050721
0.60107541 0.028748276 0.018388519
0.60034484 0.029531548 0.017726317
0.6003682 0.030299207 0.01772164
0.59963775 0.031087257 0.017059408
0.59966117 0.031856511 0.017054722
0.59893084 0.032649338 0.016392441
0.59895432 0.033420183 0.016387744
0.59822416 0.034217786 0.015725454
0.59749413 0.035018578 0.015063127
0.59751767 0.035792612 0.01505841
0.59678775 0.036598179 0.014396072
0.59605795 0.037406933 0.013733695
0.59532827 0.038218874 0.013071318
0.59535193 0.03899768 0.013066573
0.59462243 0.039814398 0.012404167
0.59389293 0.040634301 0.011741723
0.59316361 0.041457389 0.011079278
0.59318739 0.042240977 0.011074503
0.59245819 0.043068845 0.010412009
0.59248203 0.043854021 0.010407225
0.59175301 0.044686664 0.0097447224
0.59102404 0.045522496 0.0090821804
0.591048 0.046310861 0.0090773767
0.59031916 0.047151469 0.0084148254
0.58959043 0.047995258 0.0077522546
0.58886182 0.048842236 0.0070896451
0.58738065 0.049749423 0.0057692593
0.58514708 0.050721593 0.0037910095
0.58291376 0.051703323 0.0018127009
0.58068079 0.0526946 -0.00016562527
0.61492258 -0.027381819 0.031311009
0.61494488 -0.026647603 0.031306535
0.61496717 -0.025913393 0.031302061
0.61498952 -0.025179178 0.031297587
0.61501181 -0.024444966 0.031293113
0.61503416 -0.023710748 0.031288635
0.61581278 -0.022880623 0.03194226
0.61583501 -0.022148002 0.031937797
0.6158573 -0.021415381 0.03193333
0.61663568 -0.02059163 0.032586973
0.61665791 -0.019860603 0.032582518
0.61743617 -0.019041626 0.033236191
0.61821431 -0.018225832 0.033889901
0.61899239 -0.017413227 0.034543607
0.61901444 -0.016686976 0.034539182
0.6197924 -0.015879147 0.03519294
0.6198144 -0.015154491 0.035188526
0.62059218 -0.014351443 0.035842296
0.62061417 -0.013628377 0.035837889
0.62139177 -0.012830107 0.036491703
0.62141371 -0.012108633 0.036487307
0.62143564 -0.011387156 0.036482912
0.62145758 -0.010665687 0.036478516
0.62147951 -0.0099442136 0.03647412
0.62150145 -0.0092227403 0.03646972
0.62152338 -0.0085012708 0.036465324
0.62154531 -0.007779798 0.036460929
0.62081194 -0.0071207937 0.035798233
0.62083393 -0.0063977269 0.035793826
0.62010074 -0.0057339389 0.035131119
0.62012279 -0.0050092819 0.035126705
0.62014478 -0.0042846254 0.035122287
0.61941183 -0.0036144694 0.034459524
0.61943388 -0.002888219 0.034455098
0.61870104 -0.0022132862 0.033792324
0.61796826 -0.0015351694 0.03312951
0.61799043 -0.00080573361 0.033125065
0.61725783 -0.00012283445 0.032462239
0.61728007 0.00060819316 0.032457788
0.61654758 0.0012958696 0.031794935
0.61656988 0.002028489 0.031790469
0.61583757 0.0027209413 0.03112757
0.61510533 0.0034165785 0.030464668
0.61512768 0.0041523874 0.030460184
0.61439562 0.0048528006 0.029797236
0.61441803 0.005590199 0.029792741
0.61368608 0.0062953946 0.029129783
0.61370856 0.0070343865 0.029125281
0.61297679 0.0077443579 0.028462272
0.61224508 0.0084575145 0.027799265
0.61226767 0.0091996901 0.027794741
0.61153615 0.0099176271 0.027131706
0.61155874 0.010661397 0.027127173
0.61082733 0.011384108 0.026464088
0.61009604 0.012110008 0.025801003
0.61011875 0.012856963 0.025796451
0.60938758 0.01358764 0.025133317
0.60941029 0.014336186 0.025128756
0.60867929 0.015071642 0.024465613
0.60794836 0.015810281 0.023802431
0.60797125 0.016562013 0.023797849
0.6072405 0.017305432 0.023134658
0.6065098 0.018052034 0.022471428
0.60653275 0.018806953 0.022466827
0.60580224 0.019558333 0.021803586
0.60582525 0.020314842 0.021798976
0.60509485 0.021071002 0.021135706
0.60511792 0.021829106 0.021131087
0.60438764 0.022590043 0.020467769
0.60441071 0.023349738 0.020463141
0.60368067 0.024115453 0.019799812
0.6037038 0.024876742 0.019795174
0.60297382 0.025647234 0.019131796
0.60224402 0.026420912 0.018468421
0.60226721 0.027185386 0.018463762
0.60153753 0.027963843 0.017800337
0.60080791 0.028745484 0.017136913
0.60083127 0.029513143 0.017132234
0.60010183 0.030299563 0.016468782
0.60012519 0.031068815 0.016464094
0.59939587 0.031860013 0.01580059
0.5994193 0.032630857 0.015795892
0.59869015 0.033426832 0.015132382
0.59796107 0.034225993 0.01446883
0.59798455 0.035000023 0.014464113
0.59725565 0.035803959 0.013800552
0.5965268 0.036611084 0.013136953
0.59579808 0.037421394 0.012473353
0.59582174 0.0382002 0.012468608
0.59509319 0.039015289 0.011804979
0.59436464 0.039833561 0.011141312
0.59363627 0.040655017 0.010477644
0.59366012 0.041438602 0.01047287
0.59293181 0.042264841 0.0098091541
0.59295571 0.043050017 0.009804369
0.59222758 0.043881033 0.0091406433
0.59149957 0.044715229 0.0084768794
0.59152353 0.045503594 0.0084720748
0.5907957 0.046342574 0.0078083007
0.59081972 0.047132529 0.0078034871
0.590092 0.047976281 0.0071396837
0.58861268 0.04887861 0.0058168424
0.58713353 0.049787316 0.004493942
0.58490306 0.050760962 0.0025120249
0.58267283 0.051744167 0.00053000893
0.61536545 -0.028133636 0.03074728
0.6153878 -0.027399421 0.030742805
0.61541009 -0.026665207 0.030738331
0.61543244 -0.025930995 0.030733857
0.61545473 -0.025196781 0.030729383
0.61547703 -0.02446257 0.030724909
0.61549938 -0.02372835 0.030720435
0.61627698 -0.022898188 0.031375289
0.61629921 -0.022165567 0.031370826
0.6163215 -0.021432946 0.031366363
0.61709887 -0.020609157 0.032021236
0.6171211 -0.019878129 0.03201678
0.61789834 -0.019059114 0.032671686
0.61867553 -0.018243283 0.033326626
0.61869764 -0.017515438 0.033322193
0.61947465 -0.016704388 0.033977143
0.6194967 -0.015978137 0.033972718
0.62027359 -0.015171865 0.034627721
0.62029558 -0.014447208 0.034623303
0.62107229 -0.013645712 0.035278313
0.62109429 -0.012922648 0.03527391
0.62111628 -0.012199582 0.035269503
0.62189281 -0.011404454 0.035924572
0.62191474 -0.010682984 0.035920173
0.62193668 -0.009961511 0.035915777
0.62195861 -0.0092400378 0.035911381
0.62122613 -0.0085842554 0.035247471
0.62124813 -0.0078611923 0.035243064
0.62127012 -0.0071381293 0.035238657
0.62053788 -0.0064759729 0.034574728
0.62055993 -0.0057513127 0.034570314
0.61982781 -0.0050843819 0.033906337
0.61984992 -0.0043581319 0.033901911
0.61911798 -0.0036864209 0.033237923
0.61914009 -0.0029585806 0.033233486
0.61840826 -0.0022820916 0.032569449
0.61843044 -0.0015526578 0.032565005
0.61769885 -0.00087139232 0.031900961
0.61772102 -0.00014036099 0.031896506
0.61698955 0.00054568355 0.03123243
0.61625814 0.0012349123 0.030568317
0.61628044 0.0019691254 0.030563843
0.61554921 0.0026631327 0.02989972
0.61557156 0.0033989376 0.029895235
0.61484045 0.0040977225 0.029231064
0.61486286 0.0048351213 0.029226569
0.61413187 0.0055386848 0.028562387
0.61415434 0.0062776771 0.028557884
0.61342353 0.0069860183 0.027893655
0.61269277 0.007697545 0.027229423
0.61271536 0.0084397206 0.0272249
0.61198479 0.0091560241 0.026560642
0.61200738 0.0098997951 0.02655611
0.61127692 0.010620877 0.025891801
0.61054659 0.011345145 0.025227493
0.6105693 0.0120921 0.025222942
0.60983908 0.012821146 0.024558585
0.60986185 0.013569693 0.024554024
0.60913181 0.014303516 0.023889657
0.60840183 0.015040525 0.023225252
0.60842472 0.015792258 0.023220671
0.60769492 0.016534043 0.022556257
0.60771781 0.01728737 0.022551667
0.60698813 0.018033935 0.021887204
0.60625857 0.018783685 0.02122274
0.60628158 0.019540194 0.02121813
0.60555214 0.020294724 0.020553637
0.6055752 0.021052826 0.020549018
0.60484594 0.021812133 0.019884476
0.60486901 0.022571828 0.019879848
0.60413986 0.023335911 0.019215297
0.60416305 0.0240972 0.019210657
0.60343403 0.024866063 0.018546058
0.60270518 0.025638111 0.01788146
0.60272837 0.026402583 0.017876802
0.60199964 0.027179409 0.017212152
0.60127097 0.027959419 0.016547507
0.60129434 0.028727079 0.016542828
0.60056585 0.029511867 0.015878152
0.60058922 0.030281119 0.015873464
0.59986085 0.031070685 0.015208739
0.59988427 0.031841531 0.015204041
0.59915608 0.032635875 0.014539307
0.59842795 0.033433404 0.013874533
0.5984515 0.034207433 0.013869816
0.59772354 0.035009742 0.013205032
0.59699565 0.035815235 0.01254021
0.59701926 0.03659245 0.012535474
0.59629154 0.037402723 0.011870641
0.59556395 0.038216177 0.011205791
0.59483641 0.039032821 0.0105409
0.59486014 0.039814811 0.010536134
0.59413278 0.04063623 0.0098712351
0.59340549 0.041460838 0.0092062959
0.59342933 0.042246014 0.0092015108
0.59270221 0.043075398 0.0085365633
0.59197515 0.043907966 0.0078715757
0.59199911 0.044696331 0.007866771
0.59127223 0.045533676 0.007201775
0.59129626 0.046323635 0.007196961
0.5905695 0.047165755 0.0065319343
0.5898428 0.048011065 0.0058668703
0.58836561 0.048914909 0.0045415731
0.58613789 0.049882077 0.0025559568
0.58391052 0.050858796 0.00057028257
0.61583066 -0.02815124 0.030179081
0.61585301 -0.027417025 0.030174607
0.6158753 -0.026682809 0.030170133
0.61589766 -0.025948599 0.030165659
0.61591995 -0.025214383 0.030161185
0.61594224 -0.024480172 0.030156711
0.61671889 -0.023648374 0.030812789
0.61674118 -0.022915753 0.030808324
0.61676341 -0.022183131 0.030803859
0.61753988 -0.021357711 0.031459957
0.61756206 -0.020626683 0.031455502
0.61758429 -0.019895656 0.031451046
0.61836052 -0.019076603 0.032107186
