# .PCD v0.7 - Point Cloud Data file format
VERSION 0.7
FIELDS x y z
SIZE 4 4 4
TYPE F F F
COUNT 1 1 1
WIDTH 1388
HEIGHT 1
VIEWPOINT 0 0 0 1 0 0 0
POINTS 1388
DATA ascii
0.52929622 0.11908505 0.018831477
0.52851486 0.12012535 0.018239211
0.52773362 0.12116885 0.017646922
0.52775979 0.12202888 0.01764168
0.52697867 0.12307715 0.017049363
0.52619761 0.12412863 0.016456993
0.52622384 0.12499184 0.016451733
0.52544302 0.12604807 0.015859367
0.5254693 0.12691289 0.015854098
0.55054301 0.05224191 0.035016309
0.55056769 0.053054161 0.035011362
0.55059236 0.053866416 0.035006411
0.55061704 0.054678671 0.03500146
0.55145168 0.055423759 0.035584118
0.55147636 0.056234419 0.035579178
0.55150098 0.05704508 0.035574239
0.55233538 0.057783805 0.0361569
0.55236 0.058592871 0.036151968
0.55238456 0.059401941 0.036147039
0.55240917 0.060211007 0.036142107
0.55324334 0.060941767 0.036724817
0.5532679 0.061749246 0.036719896
0.55329239 0.062556721 0.036714975
0.55331695 0.063364193 0.036710054
0.55334151 0.064171672 0.036705133
0.55336607 0.064979151 0.036700215
0.55339056 0.065786622 0.036695294
0.55341512 0.066594094 0.036690373
0.55343968 0.067401573 0.036685452
0.5526551 0.068301693 0.036092807
0.55267966 0.069110766 0.036087874
0.55270427 0.069919832 0.036082946
0.55191988 0.070826322 0.03549026
0.55194449 0.071636975 0.03548532
0.55196917 0.072447643 0.03548038
0.55118489 0.073360503 0.034887619
0.55120957 0.074172758 0.034882672
0.55123425 0.07498502 0.034877721
0.55045027 0.075904243 0.034284957
0.550475 0.076718092 0.034279998
0.54969114 0.077642098 0.033687208
0.54971594 0.078457534 0.033682238
0.54893219 0.079386324 0.033089414
0.54814857 0.080318294 0.032496575
0.54817343 0.08113692 0.032491587
0.54738992 0.082073674 0.031898681
0.54741484 0.082893893 0.031893682
0.54663152 0.083835423 0.031300783
0.54665649 0.084657229 0.031295776
0.54587328 0.085603535 0.030702848
0.54589832 0.086426936 0.03069783
0.54511529 0.087378018 0.030104872
0.54514039 0.088203013 0.030099845
0.54435742 0.089158885 0.029506823
0.54438257 0.089985467 0.029501786
0.54359978 0.090946108 0.028908771
0.543625 0.091774292 0.028903723
0.54284239 0.092739701 0.028310679
0.5428676 0.09356948 0.028305624
0.54289281 0.094399251 0.028300567
0.54211038 0.095371038 0.027707482
0.54132807 0.096346013 0.02711438
0.5413534 0.097178966 0.027109304
0.54057115 0.098158725 0.026516138
0.54059654 0.098993279 0.026511053
0.53981453 0.099977814 0.02591789
0.53903258 0.10096552 0.02532471
0.53825074 0.10195643 0.024731508
0.53827626 0.10279575 0.024726393
0.5374946 0.10379142 0.024133164
0.53671294 0.10479029 0.023539882
0.53673851 0.10563282 0.023534749
0.5359571 0.10663645 0.022941468
0.53517574 0.10764328 0.022348173
0.5343945 0.1086533 0.021754855
0.53442025 0.10950058 0.021749692
0.53363907 0.11051538 0.021156311
0.53366488 0.11136427 0.021151138
0.53288394 0.11238384 0.020557765
0.53290981 0.1132343 0.020552583
0.53212899 0.11425865 0.019959178
0.53134823 0.11528619 0.019365754
0.53137422 0.11613984 0.019360553
0.53059363 0.11717216 0.018767098
0.52981311 0.11820766 0.018173592
0.52983916 0.11906451 0.018168371
0.52905881 0.12010477 0.017574871
0.52827859 0.12114824 0.01698135
0.5283047 0.12200826 0.016976109
0.52752465 0.1230565 0.01638256
0.5267446 0.12410793 0.015788956
0.52677083 0.12497114 0.015783696
0.52599096 0.12602735 0.015190098
0.52601725 0.12689216 0.015184828
0.55105764 0.052222434 0.034387715
0.55189145 0.052972339 0.034971576
0.55191606 0.053783 0.034966636
0.55194074 0.054593664 0.034961697
0.55196536 0.055404324 0.034956757
0.55198997 0.056214985 0.034951817
0.55282342 0.056955338 0.035535701
0.55284804 0.057764407 0.035530768
0.5528726 0.058573473 0.03552584
0.55370587 0.059307456 0.03610976
0.55373043 0.060114931 0.036104839
0.55375499 0.06092241 0.036099922
0.55377948 0.061729886 0.036095001
0.55380404 0.062537357 0.03609008
0.5538286 0.063344836 0.036085159
0.55385315 0.064152315 0.036080237
0.55387765 0.064959787 0.036075316
0.55390221 0.065767266 0.036070399
0.55392677 0.066574737 0.036065478
0.55314314 0.067473225 0.035471607
0.5531677 0.068282299 0.035466678
0.55319232 0.069091365 0.035461746
0.55240887 0.069996223 0.034867838
0.55243349 0.070806883 0.034862898
0.55245817 0.071617544 0.034857959
0.55167484 0.07252878 0.034263976
0.55169958 0.073341034 0.034259025
0.55172426 0.074153282 0.034254078
0.55094117 0.075070888 0.033660091
0.55096591 0.07588473 0.033655129
0.550183 0.076807112 0.033061117
0.55020779 0.077622548 0.033056147
0.54942507 0.078549705 0.032462101
0.5486424 0.079480045 0.031868041
0.54866725 0.08029867 0.031863052
0.5478847 0.081233792 0.031268921
0.54790962 0.082054012 0.031263925
0.54712725 0.08299391 0.030669801
0.546345 0.083936989 0.03007566
0.54637003 0.08476039 0.030070644
0.5455879 0.085708253 0.029476473
0.54561293 0.086533241 0.029471446
0.54483092 0.087485887 0.02887721
0.54485607 0.088312477 0.028872173
0.54407424 0.089269899 0.028277945
0.54409939 0.090098076 0.028272897
0.54412454 0.090926252 0.028267851
0.54334289 0.091890037 0.027673583
0.5433681 0.092719808 0.027668526
0.54258662 0.093688376 0.027074231
0.5426119 0.094519742 0.027069164
0.54183054 0.095493078 0.026474837
0.54185587 0.096326046 0.026469762
0.54107457 0.097304173 0.025875373
0.54109997 0.09813872 0.025870286
0.54031891 0.099121615 0.025275903
0.53953791 0.10010771 0.024681499
0.53956342 0.10094544 0.024676396
0.5387826 0.1019363 0.02408196
0.53800184 0.10293034 0.02348751
0.53722119 0.10392758 0.022893004
0.53724676 0.10477009 0.022887869
0.5364663 0.10577211 0.022293368
0.5356859 0.1067773 0.021698847
0.53490561 0.10778569 0.02110431
0.53493136 0.10863298 0.021099146
0.5341512 0.10964614 0.020504542
0.53337109 0.11066249 0.019909956
0.53339696 0.11151296 0.019904772
0.53261709 0.11253409 0.019310156
0.53264296 0.11338615 0.019304963
0.53186321 0.11441205 0.018710317
0.53188914 0.11526572 0.018705115
0.53110951 0.1162964 0.018110437
0.53033 0.11733027 0.017515708
0.53035599 0.11818711 0.017510487
0.52957666 0.11922576 0.016915763
0.52960277 0.12008419 0.016910532
0.52882349 0.12112761 0.016315781
0.5280444 0.12217422 0.015721008
0.52726531 0.12322402 0.015126182
0.52729154 0.12408724 0.015120922
0.52651262 0.1251418 0.014526101
0.52653891 0.12600662 0.014520831
0.52576017 0.12706596 0.013925982
0.55157232 0.052202962 0.033759125
0.55240506 0.052952904 0.034344215
0.55242974 0.053763565 0.034339275
0.55245435 0.054574229 0.034334335
0.55247903 0.055384889 0.034329396
0.55331147 0.05612687 0.034914501
0.55333608 0.05693594 0.034909572
0.5533607 0.05774501 0.03490464
0.55419296 0.058480624 0.035489786
0.55421752 0.059288099 0.035484865
0.55424207 0.060095571 0.035479944
0.55426657 0.06090305 0.035475023
0.55429113 0.061710525 0.035470102
0.55431569 0.062518001 0.035465185
0.55434024 0.063325472 0.035460263
0.5543648 0.064132951 0.035455342
0.5543893 0.06494043 0.035450421
0.55441386 0.065747902 0.0354455
0.55363119 0.066644758 0.034850407
0.5536558 0.067453824 0.034845479
0.55368036 0.068262897 0.034840547
0.55289787 0.069166131 0.034245417
0.55292255 0.069976784 0.034240477
0.55294716 0.070787452 0.034235537
0.55216485 0.071697049 0.033640333
0.55218953 0.072509304 0.033635382
0.55221421 0.073321559 0.033630431
0.55143213 0.074237525 0.033035222
0.55065012 0.075156681 0.032439996
0.55067492 0.075972125 0.032435026
0.54989308 0.076896057 0.031839769
0.54991794 0.07771308 0.031834789
0.54913622 0.078641795 0.031239502
0.54916108 0.079460412 0.031234514
0.54837948 0.08039391 0.030639162
0.5484044 0.08121413 0.030634165
0.54762298 0.082152396 0.030038821
0.54684168 0.083093844 0.029443456
0.54686671 0.083917245 0.029438438
0.54608554 0.084863476 0.028843045
0.54611063 0.085688472 0.028838018
0.54532957 0.086639486 0.02824256
0.54535466 0.087466076 0.028237522
0.54457378 0.088421851 0.027642071
0.54459894 0.089250043 0.027637025
0.54381824 0.090210602 0.027041543
0.54384345 0.091040373 0.027036488
0.54386866 0.091870144 0.027031431
0.54308814 0.09283708 0.026435912
0.54311341 0.093668446 0.026430845
0.54233301 0.094640151 0.025835298
0.54235834 0.095473111 0.025830222
0.54157805 0.096449614 0.025234608
0.54160339 0.097284161 0.025229523
0.54082328 0.098265424 0.024633916
0.54004329 0.099249884 0.024038291
0.54006875 0.10008763 0.024033185
0.53928888 0.10107684 0.02343753
0.53850913 0.10206927 0.022841854
0.5385347 0.10291018 0.02283673
0.53775501 0.10390738 0.022240991
0.5369755 0.10490776 0.021645268
0.53619605 0.10591133 0.021049524
0.53541672 0.10691807 0.020453762
0.53544247 0.10776537 0.020448599
0.53466326 0.10877691 0.019852774
0.53388417 0.10979162 0.019256962
0.53390998 0.1106421 0.019251779
0.53313106 0.11166158 0.018655939
0.53315693 0.11251366 0.018650748
0.53237814 0.11353792 0.018054878
0.53159946 0.11456538 0.01745899
0.53162545 0.11542064 0.017453779
0.53084683 0.11645287 0.016857825
0.53087288 0.11730973 0.016852604
0.5300945 0.11834673 0.016256656
0.53012055 0.11920518 0.016251426
0.52934229 0.12024695 0.015655451
0.52936846 0.121107 0.015650211
0.52859032 0.12215356 0.015054205
0.52781224 0.12320332 0.014458146
0.52703434 0.12425626 0.013862103
0.52706063 0.12512107 0.013856833
0.52628285 0.12617879 0.013260759
0.52630919 0.12704518 0.01325548
0.55208695 0.052183487 0.03313053
0.55211169 0.052995741 0.033125579
0.55294341 0.05374413 0.033711914
0.55296803 0.054554794 0.033706974
0.55299264 0.055365454 0.033702035
0.55382413 0.056107473 0.034288373
0.55384874 0.056916542 0.034283444
0.55468005 0.057653788 0.034869809
0.55470461 0.058461264 0.034864891
0.55472916 0.059268739 0.03485997
0.55475366 0.060076214 0.034855049
0.55477822 0.06088369 0.034850128
0.55480278 0.061691165 0.034845207
0.55482733 0.06249864 0.034840286
0.55485189 0.063306116 0.034835368
0.55487639 0.064113595 0.034830447
0.55409467 0.065007225 0.03423414
0.55411923 0.065816298 0.034229212
0.55414385 0.066625364 0.034224279
0.5541684 0.06743443 0.034219351
0.55338693 0.068336032 0.033622995
0.55341154 0.069146693 0.033618055
0.55263013 0.070053071 0.033021636
0.5526548 0.070865326 0.033016685
0.55267948 0.071677573 0.033011738
0.5518983 0.072590321 0.032415316
0.5519231 0.073404171 0.032410357
0.55114204 0.074321687 0.031813905
0.55116683 0.075137131 0.031808935
0.55038595 0.076059431 0.031212457
0.55041075 0.076876469 0.031207478
0.54963005 0.077803545 0.030610967
0.54884934 0.078733809 0.030014403
0.54887426 0.079554029 0.030009404
0.54809374 0.080489069 0.029412847
0.54811877 0.081310883 0.029407838
0.54733837 0.082250707 0.028811252
0.5473634 0.0830741 0.028806234
0.54658324 0.084018707 0.028209617
0.54580307 0.084966496 0.027612947
0.54582816 0.085793078 0.02760791
0.54585332 0.086619668 0.027602874
0.54507339 0.087573819 0.0270062
0.54509854 0.088401996 0.027001154
0.5443188 0.089360937 0.026404448
0.54434401 0.090190709 0.026399391
0.54356438 0.091154411 0.025802659
0.54358965 0.091985784 0.025797592
0.54281014 0.092954271 0.025200831
0.54283547 0.093787231 0.025195755
0.54286081 0.094620183 0.025190679
0.54208148 0.095595047 0.024593845
0.54130226 0.096573099 0.023997024
0.54132766 0.097409241 0.023991929
0.54054862 0.098392062 0.02339508
0.54057407 0.099229798 0.023389975
0.53979516 0.1002174 0.022793097
0.53901637 0.10120818 0.022196198
0.53904194 0.1020491 0.022191074
0.53826326 0.10304467 0.021594113
0.53748465 0.10404342 0.020997167
0.53670621 0.10504535 0.020400202
0.53592783 0.10605048 0.019803217
0.53595358 0.10689776 0.019798053
0.53517532 0.10790767 0.019201003
0.53439718 0.10892075 0.018603969
0.53442305 0.10977123 0.018598787
0.53364503 0.11078909 0.018001724
0.53367096 0.11164115 0.017996533
0.53289312 0.1126638 0.01739944
0.5321154 0.11368962 0.01680233
0.53214139 0.11454488 0.016797118
0.53136373 0.11557548 0.016199943
0.53138977 0.11643233 0.016194722
0.53061235 0.11746771 0.01559755
0.5306384 0.11832615 0.01559232
0.52986109 0.1193663 0.014995121
0.52988726 0.12022634 0.01498988
0.52911007 0.12127127 0.014392653
0.52833295 0.1223194 0.013795371
0.52835923 0.12318262 0.013790111
0.52758229 0.12423553 0.013192834
0.52760857 0.12510033 0.013187565
0.52602875 0.12635088 0.011998225
0.5252521 0.12741332 0.011400889
0.52206665 0.12906712 0.0090273367
0.5517956 0.052224651 0.03190947
0.55262631 0.052976266 0.032496985
0.55265105 0.05378852 0.032492034
0.55267572 0.054600775 0.032487087
0.55350631 0.055346016 0.03307467
0.55433679 0.056088075 0.033662241
0.5543614 0.056897145 0.033657312
0.55438596 0.057706214 0.033652384
0.55521625 0.058441903 0.034239992
0.55524081 0.059249379 0.034235071
0.55526531 0.060056854 0.03423015
0.55528986 0.060864329 0.034225229
0.55531442 0.061671808 0.034220308
0.55533898 0.062479284 0.034215387
0.5545581 0.063369691 0.033617869
0.55458272 0.064178765 0.03361294
0.55460727 0.064987831 0.033608008
0.55463189 0.065796897 0.03360308
0.55385131 0.066695273 0.033005513
0.55387592 0.067505926 0.033000574
0.55390054 0.068316594 0.03299563
0.55312014 0.06922134 0.032397993
0.55314481 0.070033595 0.032393042
0.55316949 0.07084585 0.032388091
0.55238926 0.071756966 0.031790446
0.552414 0.072570808 0.031785488
0.55163395 0.073486701 0.031187812
0.55165869 0.074302137 0.031182844
0.55087876 0.075222813 0.030585142
0.55090362 0.076039843 0.030580163
0.55012387 0.076965295 0.029982429
0.54934412 0.077893928 0.029384643
0.54936904 0.078714147 0.029379643
0.54858953 0.079647556 0.028781865
0.5486145 0.08046937 0.028776856
0.54783511 0.081407554 0.028179046
0.54786015 0.082230963 0.028174028
0.54708087 0.083173931 0.027576189
0.54630166 0.084120087 0.026978295
0.54632682 0.084946677 0.026973259
0.54554778 0.085897602 0.02637537
0.54557294 0.086725786 0.026370324
0.54559815 0.087553963 0.026365278
0.5448193 0.088511266 0.025767352
0.54484457 0.089341044 0.025762295
0.54406589 0.090303116 0.02516434
0.54409117 0.091134481 0.025159273
0.54331261 0.092101343 0.02456129
0.54333794 0.092934296 0.024556214
0.5425595 0.093905941 0.023958165
0.5425849 0.094740495 0.023953078
0.54180664 0.095716901 0.023355035
0.54183209 0.09655305 0.023349941
0.54105395 0.097534239 0.02275187
0.54107946 0.098371975 0.022746764
0.5403015 0.099357948 0.022148663
0.53952366 0.10034709 0.021550542
0.53954923 0.10118802 0.021545418
0.53877145 0.10218196 0.020947233
0.53799385 0.10317907 0.020349063
0.53721637 0.10417937 0.019750876
0.53643894 0.10518286 0.019152667
0.53646469 0.10603016 0.019147504
0.53568739 0.10703843 0.018549232
0.5349102 0.10804988 0.017950976
0.53413314 0.10906452 0.0173527
0.53415906 0.10991659 0.017347507
0.53338212 0.11093601 0.016749203
0.53340805 0.11178967 0.016744001
0.53263128 0.11281386 0.016145667
0.53265727 0.11366911 0.016140455
0.53188062 0.1146981 0.015542056
0.53190666 0.11555494 0.015536835
0.53113014 0.11658868 0.014938443
0.53115624 0.11744713 0.014933212
0.53037989 0.11848565 0.014334791
0.53040606 0.11934569 0.01432955
0.52962983 0.12038899 0.013731099
0.52965605 0.12125061 0.013725849
0.52887994 0.1222987 0.013127333
0.52890617 0.12316193 0.013122073
0.52813029 0.12421479 0.012523565
0.52735448 0.12527083 0.011925037
0.52577668 0.1265229 0.010733222
0.52419907 0.12778133 0.0095413327
0.52101773 0.12943816 0.0071628289
0.55233598 0.053018983 0.031274684
0.55316567 0.053769045 0.03186344
0.55319035 0.054581299 0.031858489
0.55321509 0.055393554 0.031853542
0.5540446 0.056137241 0.032442369
0.55406928 0.056947902 0.032437429
0.55489862 0.057686817 0.033026252
0.55492324 0.058495883 0.033021323
0.5557524 0.059230018 0.033610173
0.55577695 0.060037494 0.033605255
0.55580151 0.060844973 0.033600334
0.55502158 0.061732158 0.033001602
0.55504614 0.062541224 0.032996669
0.55507076 0.063350298 0.032991741
0.55509537 0.064159364 0.032986812
0.55431569 0.065054514 0.032388031
0.5543403 0.065865174 0.032383092
0.55436492 0.066675834 0.032378152
0.55358541 0.067577362 0.031779297
0.55361009 0.068389617 0.031774346
0.55363476 0.069201872 0.031769399
0.55285549 0.070109762 0.03117054
0.55288023 0.070923604 0.031165579
0.55290496 0.071737453 0.031160621
0.55212581 0.072651714 0.030561723
0.55215061 0.07346715 0.030556755
0.55137163 0.074386187 0.029957829
0.55059278 0.07530842 0.029358882
0.55061764 0.076127037 0.029353894
0.5498389 0.077054046 0.028754884
0.54986382 0.077874266 0.028749885
0.54908526 0.07880605 0.028150883
0.54911023 0.079627857 0.028145874
0.5483318 0.080564409 0.027546842
0.54755348 0.081504159 0.026947789
0.54757851 0.082329154 0.026942762
0.54680032 0.083273679 0.026343646
0.54682541 0.084100269 0.026338609
0.54604739 0.08504957 0.025739498
0.54607254 0.085877746 0.025734453
0.54529464 0.086831823 0.025135312
0.54531986 0.087661594 0.025130255
0.54454213 0.088620454 0.024531087
0.54456741 0.08945182 0.024526021
0.54378974 0.090415455 0.023926824
0.54381508 0.091248415 0.023921749
0.54384041 0.092081368 0.023916671
0.54306293 0.093051381 0.0233174
0.54308832 0.093885928 0.023312315
0.54231101 0.09486071 0.02271305
0.54233646 0.095696852 0.022707954
0.54155934 0.096676417 0.022108659
0.54158479 0.097514153 0.022103554
0.54080778 0.098498486 0.021504231
0.5400309 0.099486016 0.020904887
0.54005647 0.10032693 0.020899763
0.5392797 0.10131925 0.020300355
0.53850305 0.10231473 0.019700963
0.53772652 0.1033134 0.019101551
0.53775221 0.1041591 0.019096397
0.5369758 0.10516255 0.018496957
0.53619945 0.10616919 0.017897462
0.53542328 0.10717901 0.017297983
0.53464717 0.10819202 0.016698485
0.53467304 0.10904409 0.016693292
0.5338971 0.11006188 0.016093764
0.53312123 0.11108284 0.015494218
0.53314722 0.1119381 0.015489006
0.53237146 0.11296386 0.014889394
0.53239751 0.1138207 0.014884172
0.53162193 0.11485123 0.014284567
0.53164798 0.11570967 0.014279336
0.53167409 0.1165681 0.014274104
0.53089869 0.117605 0.01367446
0.53092486 0.11846504 0.01366922
0.53014958 0.11950671 0.013069547
0.53017581 0.12036833 0.013064296
0.52940065 0.1214148 0.012464559
0.52942687 0.12227801 0.012459299
0.52865195 0.12332924 0.011859567
0.52867824 0.12419406 0.011854297
0.52710235 0.12544125 0.010660046
0.52552658 0.12669484 0.0094657205
0.52315009 0.12814915 0.0076768822
0.51997292 0.12980902 0.0052934284
0.55121881 0.052306749 0.029459963
0.55204767 0.053061627 0.030049922
0.55287641 0.05381332 0.0306399
0.55290115 0.054627165 0.03063494
0.55372971 0.055374082 0.031224946
0.55375439 0.056186333 0.031219997
0.55458289 0.056928467 0.031810068
0.55460757 0.057739127 0.031805128
0.55543584 0.058476485 0.032395195
0.55546045 0.059285555 0.032390263
0.55548501 0.060094621 0.032385334
0.55550963 0.060903691 0.032380402
0.55553424 0.06171276 0.032375474
0.5555588 0.06252183 0.032370545
0.55478001 0.063413754 0.03177055
0.55480468 0.064224415 0.03176561
0.5548293 0.065035075 0.03176067
0.55485398 0.065845735 0.031755731
0.55407536 0.066745631 0.031155651
0.55410004 0.067557886 0.031150702
0.55412477 0.068370141 0.031145751
0.5533464 0.0692764 0.030545672
0.55337113 0.070090249 0.030540712
0.55259293 0.071001284 0.029940601
0.55261773 0.071816728 0.029935632
0.55183965 0.072732538 0.029335495
0.5518645 0.073549569 0.029330516
0.5510866 0.074470162 0.028730346
0.55111146 0.075288787 0.028725358
0.55033368 0.076214164 0.028125126
0.55035859 0.077034384 0.028120128
0.54958099 0.077964537 0.0275199
0.54960597 0.078786343 0.027514894
0.54882848 0.079721272 0.026914638
0.54805112 0.080659382 0.026314363
0.54807621 0.081484377 0.026309336
0.54729891 0.082427278 0.025708996
0.54732406 0.083253868 0.025703959
0.54654694 0.084201537 0.025103627
0.54657215 0.085029714 0.025098579
0.5457952 0.085982159 0.024498217
0.54582042 0.08681193 0.02449316
0.54504359 0.087769158 0.02389277
0.54506886 0.088600524 0.023887703
0.54429221 0.089562528 0.023287281
0.54431754 0.09039548 0.023282206
0.54354101 0.091362275 0.022681722
0.54356635 0.092196822 0.022676637
0.54279 0.093168378 0.022076158
0.54281545 0.094004519 0.022071062
0.54203922 0.094980866 0.021470554
0.54206467 0.095818602 0.021465451
0.54128861 0.096799709 0.020864911
0.54131413 0.097639039 0.020859797
0.54053819 0.09862493 0.020259231
0.54056376 0.099465854 0.020254107
0.53978795 0.10045654 0.019653477
0.53901225 0.10145038 0.019052861
0.53823668 0.10244744 0.018452227
0.53826237 0.10329312 0.018447075
0.53748691 0.10429495 0.017846411
0.53671151 0.10529996 0.017245693
0.5359363 0.10630815 0.01664499
0.53596216 0.10715862 0.016639808
0.53518707 0.10817159 0.016039077
0.53441203 0.10918775 0.015438327
0.53363711 0.11020708 0.014837557
0.53366309 0.11106234 0.014832346
0.53288829 0.11208646 0.01423151
0.53291434 0.11294331 0.014226289
0.53213972 0.1139722 0.013625461
0.53216583 0.11483064 0.013620229
0.53139138 0.11586432 0.013019373
0.53141749 0.11672435 0.013014132
0.53064317 0.1177628 0.012413247
0.53066939 0.11862443 0.012407996
0.52989513 0.11966766 0.011807045
0.52992135 0.12053087 0.011801784
0.52994764 0.12139411 0.011796524
0.52917361 0.12244369 0.011195569
0.5291999 0.12330851 0.011190299
0.52842605 0.12436289 0.010589316
0.52765232 0.12542045 0.0099883126
0.52527857 0.12686671 0.0081957905
0.52290517 0.1283225 0.0064032432
0.51973206 0.12998381 0.0040148511
0.55093348 0.052347682 0.028231511
0.55176133 0.053104192 0.028822694
0.55258912 0.053857516 0.029413894
0.55261391 0.054672953 0.029408924
0.55344152 0.055421498 0.030000154
0.55426908 0.056166857 0.030591404
0.55429375 0.056979112 0.030586453
0.55512118 0.057719693 0.031177767
0.55514586 0.058530353 0.031172827
0.55597311 0.059266157 0.031764135
0.55599767 0.060075223 0.031759206
0.55602229 0.060884293 0.031754274
0.55524439 0.061772998 0.031153068
0.55526906 0.062583655 0.031148128
0.55529368 0.063394316 0.031143188
0.55531836 0.064204983 0.031138247
0.55454063 0.065101653 0.030536957
0.55456537 0.065913908 0.030532008
0.55459005 0.066726156 0.030527059
0.55461472 0.06753841 0.030522108
0.55383736 0.068443045 0.029920805
0.55386209 0.069256887 0.029915845
0.55308485 0.070166297 0.029314512
0.55310965 0.070981734 0.029309543
0.55233252 0.07189592 0.028708182
0.55235738 0.07271295 0.028703203
0.55158043 0.073631912 0.028101811
0.55080354 0.074554063 0.027500367
0.55082846 0.075374283 0.027495367
0.55085337 0.076194502 0.02749037
0.55007672 0.077123024 0.02688892
0.54930019 0.078054726 0.026287451
0.54932517 0.078878127 0.026282433
0.54854876 0.079814613 0.025680937
0.54857385 0.080639601 0.02567591
0.54779756 0.08158087 0.025074346
0.54782265 0.08240746 0.025069308
0.54704654 0.083353497 0.024467753
0.54627049 0.084302723 0.023866178
0.5462957 0.085132495 0.023861121
0.54632097 0.085962266 0.023856066
0.5455451 0.086917855 0.02325445
0.54557037 0.08774922 0.023249384
0.54479468 0.088709593 0.022647742
0.54482001 0.08954256 0.022642666
0.54404444 0.090507716 0.022040958
0.54406977 0.091342263 0.022035873
0.54329437 0.092312194 0.021434171
0.54331982 0.093148336 0.021429075
0.54254454 0.094123036 0.020827346
0.54256999 0.094960779 0.02082224
0.5417949 0.095940262 0.020220481
0.54182041 0.096779592 0.020215366
0.54104549 0.097763851 0.019613577
0.54027057 0.098751307 0.019011732
0.54029614 0.099593818 0.019006599
0.53952146 0.10058604 0.018404761
0.53874683 0.10158145 0.017802903
0.53877252 0.10242715 0.017797751
0.53799802 0.10342734 0.017195866
0.53722358 0.10443072 0.016593922
0.53644931 0.10543727 0.015991999
0.53647518 0.10628776 0.015986817
0.53570104 0.10729909 0.015384863
0.53492701 0.10831362 0.01478289
0.53415304 0.10933132 0.014180897
0.53337914 0.11035222 0.013578848
0.53340518 0.11120907 0.013573626
0.53263146 0.11223474 0.012971587
0.53265756 0.11309319 0.012966355
0.53188401 0.11412363 0.012364285
0.53191018 0.11498366 0.012359045
0.53193629 0.1158437 0.012353803
0.53116292 0.11688051 0.011751694
0.53118914 0.11774214 0.011746444
0.53041583 0.11878375 0.011144268
0.53044212 0.11964697 0.011139008
0.52966905 0.12069334 0.010536841
0.52969533 0.12155815 0.010531571
0.52972162 0.12242296 0.010526301
0.52894872 0.12347571 0.0099240961
0.52817595 0.12453164 0.0093218703
0.52660412 0.12578188 0.0081226332
0.52503258 0.12703849 0.0069233943
0.52266216 0.12849578 0.005127104
0.51949316 0.13015853 0.0027337719
0.54982311 0.051627219 0.026408173
0.55065012 0.052388545 0.027000559
0.55147707 0.053146679 0.027592996
0.55230385 0.053901631 0.028185422
0.55232871 0.054718666 0.028180443
0.55315536 0.055468842 0.028772894
0.55398196 0.056215834 0.029365366
0.55480844 0.05695964 0.029957859
0.55483311 0.057771895 0.029952908
0.55565953 0.058510918 0.030545464
0.55568415 0.059321579 0.030540524
0.55570877 0.060132239 0.030535584
0.55573344 0.060942903 0.030530645
0.55575806 0.061753564 0.030525705
0.55578274 0.062564224 0.030520765
0.55580735 0.063374884 0.030515825
0.55503064 0.064269923 0.029913312
0.55505532 0.065082178 0.029908361
0.55508 0.065894432 0.029903412
0.55510467 0.06670668 0.029898463
0.55432826 0.067609683 0.029295936
0.554353 0.068423532 0.029290976
0.55357677 0.069331311 0.02868842
0.5536015 0.070146747 0.028683452
0.55282539 0.071059301 0.028080868
0.55285025 0.071876332 0.028075889
0.55207425 0.072793663 0.027473273
0.55129832 0.073714182 0.026870606
0.55132324 0.074534401 0.026865607
0.55054748 0.075459704 0.026262945
0.55057245 0.07628151 0.026257936
0.54979688 0.077211581 0.025655245
0.54982191 0.078034982 0.025650227
0.54904646 0.078969836 0.025047507
0.54907149 0.079794832 0.02504248
0.54829615 0.080734469 0.024439694
0.54752094 0.08167728 0.023836926
0.54754615 0.082505465 0.023831878
0.54677105 0.083453059 0.023229081
0.54679626 0.08428283 0.023224024
0.54602134 0.085235193 0.022621198
0.54604661 0.086066559 0.022616131
0.54527187 0.087023705 0.022013275
0.54529715 0.087856665 0.022008197
0.54452246 0.088818602 0.021405276
0.54454786 0.089653157 0.021400191
0.54377335 0.090619855 0.020797277
0.5437988 0.091455996 0.020792183
0.54302442 0.092427485 0.020189239
0.54304993 0.093265221 0.020184133
0.54227573 0.094241478 0.01958116
0.54230124 0.095080808 0.019576045
0.54152715 0.096061841 0.018973043
0.54155272 0.096902765 0.018967919
0.54077876 0.097888596 0.018364852
0.54080439 0.098731101 0.018359719
0.5400306 0.099721693 0.017756658
0.53925699 0.10071548 0.017153578
0.53848338 0.10171244 0.016550479
0.53850913 0.10255974 0.016545316
0.5377357 0.10356148 0.015942153
0.53696233 0.10456641 0.015339005
0.53618914 0.10557452 0.014735837
0.53621501 0.1064266 0.014730644
0.53544194 0.10743948 0.014127449
0.53466898 0.10845556 0.013524234
0.53389603 0.10947483 0.012920964
0.53392208 0.11033168 0.012915742
0.5331493 0.11135572 0.012312477
0.53317541 0.11221416 0.012307246
0.53240281 0.11324298 0.011703953
0.53242898 0.11410301 0.011698713
0.5316565 0.11513661 0.011095391
0.53168267 0.11599823 0.01109014
0.53091031 0.11703661 0.010486753
0.5309366 0.11789984 0.010481493
0.53096282 0.11876305 0.010476233
0.53019071 0.11980779 0.0098728426
0.53021699 0.12067261 0.0098675732
0.52944499 0.12172213 0.0092641525
0.52947134 0.12258853 0.0092588728
0.52869952 0.12364283 0.0086554252
0.52792782 0.12470032 0.0080519561
0.52715611 0.125761 0.0074484344
0.52478856 0.1272102 0.005648532
0.52242124 0.12866896 0.0038485348
0.51925629 0.13033316 0.0014502626
0.55034381 0.051607516 0.025772184
0.55036879 0.052429326 0.025767177
0.55119473 0.053189095 0.026360804
0.55202067 0.053945675 0.026954485
0.55284643 0.054699078 0.027548151
0.55287123 0.055516109 0.027543172
0.55369687 0.056264732 0.028136866
0.5545224 0.057010166 0.028730581
0.5553478 0.057752419 0.029324314
0.55537248 0.058564674 0.029319365
0.55619782 0.05930214 0.029913163
0.55622244 0.060112804 0.029908223
0.55624706 0.060923465 0.029903283
0.55627173 0.061734125 0.029898344
0.55549592 0.062625945 0.029294616
0.55552059 0.063438199 0.029289667
0.55554527 0.064250447 0.029284716
0.55557001 0.065062702 0.029279767
0.55559468 0.065874957 0.029274818
0.55481923 0.066776328 0.028671067
0.55484396 0.06759017 0.028666109
0.55406862 0.068496317 0.028062331
0.55409342 0.06931176 0.028057363
0.55331826 0.070222683 0.027453555
0.55334306 0.071039714 0.027448576
0.55256808 0.071955413 0.026844738
0.5517931 0.0728743 0.026240848
0.55181801 0.07369452 0.026235849
0.55104321 0.074618183 0.025631964
0.55106819 0.075439997 0.025626956
0.55029356 0.076368436 0.025023041
0.5503186 0.077191837 0.025018023
0.5495441 0.07812506 0.024414079
0.54956919 0.078950055 0.024409052
0.54879481 0.079888061 0.023805045
0.54802054 0.080829248 0.023201052
0.54804569 0.081657425 0.023196006
0.54727161 0.082603388 0.022591984
0.54729682 0.083433159 0.022586929
0.54652286 0.084383897 0.021982878
0.54654813 0.085215263 0.021977812
0.54577434 0.086170778 0.021373734
0.54579961 0.087003738 0.021368658
0.54502589 0.087964043 0.020764513
0.54505128 0.08879859 0.020759428
0.54427773 0.089763671 0.02015529
0.54430318 0.090599813 0.020150194
0.54352981 0.091569662 0.019546028
0.54355526 0.092407398 0.019540925
0.54278201 0.093382023 0.018936727
0.54280752 0.094221354 0.018931612
0.54203445 0.095200762 0.018327389
0.54126137 0.09618336 0.01772311
0.541287 0.097025879 0.017717974
0.54051417 0.098013252 0.017113701
0.5405398 0.098857358 0.017108558
0.53976709 0.0998495 0.016504254
0.53899449 0.10084484 0.015899932
0.53902024 0.10169213 0.015894769
0.53824776 0.10269225 0.015290383
0.53747541 0.10369555 0.014686013
0.53670311 0.10470203 0.014081622
0.53672904 0.10555409 0.014076429
0.53595692 0.10656536 0.01347201
0.53518486 0.1075798 0.012867574
0.53441292 0.10859744 0.012263079
0.53443897 0.10945429 0.012257857
0.53366715 0.1104767 0.01165337
0.53369325 0.11133514 0.011648139
0.53292161 0.11236233 0.011043625
0.53294778 0.11322236 0.011038383
0.53217626 0.11425432 0.010433839
0.53140479 0.11528948 0.009829239
0.53143108 0.1161527 0.0098239779
0.5314573 0.11701592 0.0098187178
0.53068608 0.11805744 0.0092141144
0.53071237 0.11892225 0.009208845
0.52994132 0.11996856 0.0086042117
0.52996767 0.12083495 0.0085989321
0.52999401 0.12170136 0.0085936524
0.52922314 0.12275402 0.007988981
0.52845234 0.12380987 0.00738429
0.52768165 0.12486893 0.0067795445
0.52611405 0.12612219 0.0055753938
0.52454656 0.12738183 0.0043712058
0.52218235 0.12884207 0.0025675017
0.51902151 0.13050771 0.00016428954
0.54923934 0.050880451 0.023941526
0.55006444 0.051646631 0.024536347
0.55008948 0.052470028 0.024531329
0.55091447 0.053231433 0.025126178
0.55173939 0.053989649 0.025721049
0.5525642 0.054744676 0.026315972
0.55338895 0.055496521 0.026910881
0.55341375 0.056313552 0.026905902
0.55423832 0.057060618 0.027500838
0.55506277 0.057804503 0.028095795
0.55588716 0.058545198 0.02869077
0.55591184 0.059357453 0.028685821
0.55593652 0.060169708 0.028680872
0.55596119 0.060981963 0.028675921
0.55598587 0.061794214 0.028670972
0.5560106 0.062606469 0.028666023
0.55603528 0.063418724 0.028661072
0.55605996 0.064230978 0.028656123
0.55528539 0.065129124 0.02805116
0.55531013 0.065942965 0.0280462
0.55533487 0.066756815 0.028041242
0.55456054 0.067661323 0.02743624
0.55458534 0.068476766 0.027431272
0.55381113 0.069386058 0.026826242
0.55383593 0.070203096 0.026821263
0.5530619 0.071117163 0.026216203
0.55228788 0.072034419 0.02561109
0.55231279 0.072854638 0.02560609
0.55153894 0.07377667 0.025000982
0.55156392 0.074598484 0.024995973
0.55079025 0.075525299 0.024390837
0.55081528 0.0763487 0.024385819
0.55004174 0.07728029 0.023780653
0.54926831 0.07821507 0.023175431
0.5492934 0.07904166 0.023170395
0.54852009 0.079981208 0.02256518
0.5485453 0.080809392 0.022560135
0.54777217 0.081753716 0.02195489
0.54779738 0.082583494 0.021949833
0.54702437 0.083532602 0.021344559
0.54625148 0.084484898 0.020739269
0.54627675 0.085317858 0.020734193
0.54550397 0.086274929 0.020128835
0.54552937 0.087109484 0.020123748
0.5455547 0.087944031 0.020118663
0.54478216 0.088907473 0.019513303
0.54480755 0.089743622 0.019508209
0.54403514 0.090711839 0.01890282
0.54326284 0.091683246 0.01829741
0.54328835 0.092522576 0.018292295
0.54251617 0.093498759 0.017686857
0.54254168 0.094339676 0.017681733
0.54176962 0.095320642 0.01707623
0.54179525 0.096163161 0.017071096
0.54102337 0.097148903 0.016465601
0.54025155 0.098137826 0.015860084
0.54027724 0.098983519 0.015854931
0.5395056 0.099977233 0.015249386
0.53873402 0.10097413 0.014643786
0.53875983 0.10182301 0.014638614
0.53798842 0.10282468 0.01403302
0.53721714 0.10382953 0.013427407
0.53724301 0.1046816 0.013422214
0.53647184 0.10569122 0.012816573
0.5357008 0.10670404 0.012210913
0.53492975 0.10772004 0.011605196
0.5349558 0.10857689 0.011599975
0.53418499 0.10959768 0.010994265
0.53341424 0.11062163 0.010388535
0.53344041 0.11148167 0.010383294
0.53266984 0.11251041 0.0097775366
0.53269601 0.11337204 0.0097722858
0.53192556 0.11440556 0.0091664623
0.53195179 0.11526878 0.0091612022
0.53118151 0.11630709 0.0085553862
0.5312078 0.11717189 0.0085501168
0.53043765 0.11821497 0.007944271
0.53046399 0.11908137 0.0079389913
0.53049028 0.11994778 0.0079337116
0.52972037 0.12099722 0.0073278267
0.52895051 0.12204985 0.0067219231
0.52897692 0.12291943 0.0067166239
0.52820718 0.12397686 0.0061106551
0.52743757 0.12503746 0.0055047031
0.52666807 0.12610123 0.0048987316
0.5243066 0.1275534 0.0030913779
0.52194548 0.12901512 0.0012840036
0.5187887 0.13068219 -0.0011241487
0.54891264 0.049264684 0.022712039
0.54973698 0.050035674 0.0233081
0.54976207 0.050860669 0.023303073
0.55058622 0.051626887 0.023899125
0.5506112 0.052450288 0.023894107
0.55143523 0.05321173 0.024490191
0.55225909 0.053969983 0.025086291
0.552284 0.054790203 0.025081294
0.5531078 0.055543672 0.025677459
0.55393147 0.056293964 0.02627361
0.55475503 0.057041068 0.026869779
0.55557847 0.057784989 0.027465967
0.55560321 0.058598839 0.027461009
0.55642653 0.059337981 0.028057227
0.5564512 0.060150232 0.028052278
0.55647588 0.060962487 0.028047327
0.55650055 0.061774742 0.028042378
0.55652523 0.062586993 0.028037429
0.55654997 0.063399248 0.028032478
0.55577636 0.064295761 0.027426293
0.55580109 0.065109611 0.027421333
0.55582583 0.065923452 0.027416375
0.55505246 0.066826336 0.026810151
0.5550772 0.067641772 0.026805183
0.55430394 0.068549439 0.026198929
0.5543288 0.06936647 0.02619395
0.55355567 0.070278913 0.025587667
0.55278265 0.071194537 0.024981329
0.55280757 0.072014757 0.024976332
0.55203474 0.072935164 0.02437
0.55205971 0.07375697 0.024364993
0.551287 0.074682146 0.023758633
0.55051434 0.075610518 0.023152255
0.55053943 0.076435514 0.023147227
0.5497669 0.077368662 0.022540782
0.54979205 0.078195252 0.022535745
0.54901969 0.079133168 0.021929309
0.54904485 0.079961352 0.021924261
0.54827267 0.080904052 0.021317795
0.54829788 0.081733823 0.021312738
0.54752588 0.082681306 0.020706242
0.54675394 0.08363197 0.020099726
0.54677922 0.084464923 0.02009465
0.54600739 0.08542037 0.01948807
0.54603279 0.086254925 0.019482985
0.54526109 0.08721514 0.018876411
0.54528654 0.088051282 0.018871317
0.54451501 0.089016281 0.018264715
0.54454046 0.089854024 0.018259609
0.54376912 0.090823792 0.017652977
0.54379463 0.091663122 0.017647862
0.54302341 0.092637673 0.017041201
0.54304898 0.093478598 0.017036077
0.54227787 0.094457939 0.016429352
0.54150689 0.095440455 0.015822642
0.54153252 0.096284553 0.015817499
0.54076171 0.097271852 0.015210761
0.5407874 0.098117553 0.015205608
0.54001671 0.09910962 0.01459884
0.53924608 0.10010488 0.013992016
0.53927189 0.10095378 0.013986843
0.53850144 0.10195381 0.013380028
0.53773111 0.10295703 0.012773192
0.53775704 0.1038091 0.012767999
0.53698683 0.1048171 0.012161135
0.53621668 0.10582828 0.011554251
0.53544664 0.10684266 0.010947311
0.53547269 0.1076995 0.01094209
0.53470284 0.10871866 0.010335159
0.53393304 0.10974099 0.0097282063
0.53395921 0.11060102 0.0097229658
0.53318959 0.11162813 0.0091159837
0.53321576 0.11248975 0.0091107339
0.53244627 0.11352166 0.0085036885
0.53247249 0.11438487 0.0084984275
0.53170317 0.11542154 0.0078913886
0.53172946 0.11628635 0.0078861183
0.53096026 0.11732779 0.0072790496
0.53098661 0.1181942 0.0072737699
0.53021759 0.11924041 0.0066666733
0.53024393 0.12010841 0.0066613839
0.52947503 0.12115941 0.006054257
0.5295015 0.12202901 0.0060489578
0.52873272 0.12308478 0.0054417667
0.52796406 0.12414376 0.0048345914
0.52719551 0.1252059 0.0042273961
0.52563202 0.12646221 0.003018297
0.52406865 0.12772489 0.0018091226
0.52171057 0.12918809 -1.9961885e-06
0.54858786 0.047642466 0.02148016
0.5494113 0.048418276 0.022077387
0.54943645 0.049244866 0.022072351
0.54946154 0.050071452 0.022067314
0.5502848 0.050840892 0.022664616
0.5503099 0.051665887 0.022659589
0.55113298 0.052430548 0.023256885
0.55115801 0.053253949 0.023251867
0.55277878 0.053950317 0.024451533
0.55280375 0.054770537 0.024446536
0.55362654 0.055524047 0.025043935
0.55444914 0.056274373 0.025641317
0.554474 0.057091407 0.025636338
0.55529648 0.057836957 0.026233749
0.55611885 0.058579326 0.02683118
0.55614358 0.059393171 0.026826221
0.55696583 0.06013076 0.027423682
0.55699056 0.060943015 0.027418731
0.55701524 0.061755266 0.027413782
0.55703992 0.062567517 0.027408833
0.55626726 0.063462399 0.026801424
0.556292 0.064276248 0.026796466
0.55631679 0.065090097 0.026791506
0.55554432 0.06599135 0.02618406
0.55556911 0.066806786 0.02617909
0.55559391 0.067622222 0.026174121
0.55482167 0.068529852 0.025566636
0.55404949 0.069440663 0.02495913
0.55407441 0.070259288 0.024954142
0.55330235 0.071174875 0.024346571
0.55253047 0.072093651 0.023739018
0.55255544 0.072915457 0.023734011
0.55178368 0.073839009 0.023126427
0.55180871 0.07466241 0.023121411
0.55103707 0.075590737 0.022513798
0.55026555 0.076522261 0.02190613
0.55029064 0.077348843 0.021901093
0.5495193 0.078285135 0.021293433
0.54954445 0.079113312 0.021288386
0.54877323 0.080054387 0.020680698
0.54879844 0.080884159 0.020675641
0.5480274 0.081830002 0.020067923
0.54725641 0.082779042 0.019460184
0.54728168 0.083611995 0.019455109
0.54651082 0.084565811 0.018847305
0.54653621 0.085400365 0.01884222
0.54576552 0.08635895 0.018234424
0.54579091 0.087195098 0.018229328
0.54502034 0.088158458 0.017621502
0.54504585 0.088996194 0.017616399
0.5442754 0.089964345 0.017008545
0.54430091 0.090803675 0.01700343
0.5435307 0.091776595 0.016395545
0.54276049 0.09275271 0.015787607
0.54278606 0.093595222 0.015782474
0.54201609 0.094576105 0.01517454
0.54204172 0.095420212 0.015169396
0.54127187 0.096405871 0.014561434
0.54050207 0.097394727 0.013953454
0.54052782 0.098242015 0.013948292
0.53975815 0.099235654 0.013340245
0.53898865 0.10023247 0.012732216
0.53901452 0.10108294 0.012727033
0.53824508 0.10208453 0.012118976
0.53827101 0.1029366 0.012113784
0.53750175 0.10394297 0.011505696
0.53673261 0.10495252 0.01089759
0.53596354 0.10596526 0.010289427
0.53598958 0.10682212 0.010284206
0.53522068 0.10783963 0.0096760504
0.53445184 0.10886033 0.0090678744
0.53447801 0.10972037 0.0090626338
0.53370935 0.11074584 0.0084544299
0.53294075 0.11177452 0.007846171
0.53296697 0.11263774 0.0078409109
0.53219855 0.11367118 0.0072326586
0.53222483 0.11453599 0.0072273887
0.53145659 0.11557421 0.0066191074
0.53148293 0.11644062 0.0066138278
0.53150922 0.11730701 0.0066085481
0.53074116 0.11835162 0.0060002278
0.52997321 0.11939938 0.0053918883
0.52999961 0.12026898 0.0053865896
0.52923173 0.12132154 0.0047781845
0.52925819 0.12219272 0.0047728755
0.52849054 0.12325004 0.0041644778
0.52772295 0.12431057 0.0035560608
0.52695543 0.12537429 0.0029476227
0.52539396 0.12663209 0.0017360123
0.52383274 0.12789628 0.00052439939
0.5482145 0.044354256 0.02025597
0.54823971 0.045184031 0.020250913
0.54826492 0.046013802 0.020245858
0.54908746 0.046794429 0.020844288
0.54911262 0.04762261 0.020839242
0.54913783 0.04845079 0.020834194
0.5499602 0.049225047 0.021432664
0.54998529 0.050051637 0.021427628
0.55080754 0.050821111 0.022026163
0.55083263 0.051646106 0.022021135
0.55085772 0.052471101 0.022016108
0.55167973 0.053234208 0.022614645
0.55250162 0.05399413 0.023213202
0.55332345 0.054750871 0.023811778
0.55334836 0.055571087 0.023806781
0.55417007 0.056323044 0.024405422
0.55499166 0.057071816 0.025004046
0.55581313 0.057817407 0.025602689
0.55583793 0.058632847 0.025597721
0.55665928 0.059373658 0.026196394
0.55668402 0.060187504 0.026191436
0.55670875 0.061001353 0.026186476
0.55673349 0.061815199 0.026181517
0.55675822 0.062629044 0.026176557
0.55678296 0.063442893 0.026171599
0.5568077 0.064256743 0.026166638
0.55603623 0.065156363 0.025557969
0.55606103 0.065971799 0.025552999
0.55608582 0.066787235 0.02554803
0.55531454 0.067693226 0.024939323
0.55454332 0.068602405 0.024330594
0.55456823 0.069421038 0.024325605
0.55379713 0.070334993 0.023716813
0.55382204 0.071155213 0.023711815
0.55305117 0.072073944 0.023103029
0.55228037 0.072995864 0.022494223
0.5523054 0.073819265 0.022489205
0.55153477 0.074745961 0.021880371
0.55155981 0.075570963 0.021875344
0.5507893 0.076502442 0.021266444
0.55001885 0.077437103 0.02065756
0.55004406 0.07826528 0.020652514
0.54927379 0.079204716 0.0200436
0.549299 0.080034487 0.020038545
0.54852885 0.080978706 0.019429604
0.54775888 0.081926107 0.018820642
0.54778415 0.082759067 0.018815566
0.54701424 0.083711259 0.01820654
0.54624444 0.084666617 0.017597532
0.54626989 0.085502759 0.017592436
0.54550028 0.086462907 0.016983399
0.54552573 0.087300643 0.016978294
0.54475623 0.088265561 0.016369225
0.54478174 0.089104891 0.016364111
0.54401237 0.090074591 0.015755013
0.54403794 0.090915509 0.015749888
0.54326868 0.091889992 0.015140728
0.54329431 0.092732511 0.015135594
0.54252529 0.093711764 0.01452644
0.54175633 0.094694205 0.013917265
0.54178202 0.095539898 0.013912112
0.54101318 0.096527115 0.013302907
0.54103893 0.097374409 0.013297744
0.54027027 0.098366417 0.012688476
0.53950167 0.099361598 0.012079223
0.53952754 0.10021207 0.012074041
0.53875911 0.10121204 0.011464761
0.53799075 0.10221517 0.01085546
0.53801674 0.10306884 0.010850257
0.53724855 0.10407676 0.010240929
0.53648043 0.10508788 0.0096315425
0.53650647 0.10594472 0.0096263215
0.53573853 0.10696061 0.0090169441
0.53497064 0.10797967 0.0084075462
0.53499681 0.10883971 0.0084023057
0.5342291 0.10986356 0.007792878
0.53346145 0.1108906 0.0071833963
0.53348768 0.11175383 0.0071781361
0.53272027 0.11278563 0.0065686605
0.53274655 0.11365044 0.0065633906
0.5319792 0.11468703 0.005953887
0.53200555 0.11555344 0.0059486073
0.53123838 0.11659481 0.0053390735
0.53126478 0.11746281 0.005333784
0.53049773 0.11850896 0.0047242222
0.5297308 0.11955828 0.0041146036
0.52975726 0.12042947 0.0041092946
0.52899051 0.12148357 0.0034996846
0.52901703 0.12235636 0.0034943661
0.5282504 0.12341524 0.0028847253
0.52748382 0.12447731 0.0022750651
0.52592432 0.12573189 0.0010610089
0.52515799 0.12680191 0.00045130163
0.52359885 0.12806761 -0.00076278613
0.54868978 0.042674817 0.019623931
0.54871505 0.043504588 0.019618876
0.54953671 0.044290032 0.02021851
0.54876548 0.045164134 0.019608762
0.54958707 0.045946393 0.020208417
0.54961222 0.046774574 0.020203369
0.54963738 0.047602754 0.020198323
0.55045879 0.048378643 0.020798014
0.55048394 0.049205229 0.020792978
0.55050904 0.050031818 0.020787941
0.55133027 0.050801333 0.021387707
0.55135536 0.051626328 0.02138268
0.55217642 0.052391067 0.021982441
0.55220145 0.053214468 0.021977423
0.55302233 0.053974427 0.022577213
0.55384314 0.054731209 0.023177022
0.55386811 0.055551425 0.023172023
0.55468881 0.056303415 0.023771897
0.55550939 0.057052229 0.024371754
0.55553418 0.057869263 0.024366776
0.55635464 0.058613297 0.024966663
0.55637944 0.059428737 0.024961693
0.55719972 0.060167994 0.025561608
0.55722445 0.06098184 0.02555665
0.55724919 0.061795685 0.02555169
0.55727392 0.062609531 0.025546731
0.55650336 0.063505933 0.024936847
0.55652815 0.064321369 0.02493188
0.55655289 0.065136813 0.02492691
0.55578256 0.066039577 0.024316989
0.55580735 0.066856608 0.02431201
0.55503714 0.067764156 0.023702059
0.55506206 0.068582781 0.023697071
0.5542919 0.069495112 0.023087054
0.55431682 0.070315331 0.023082057
0.55354691 0.071232431 0.022472048
0.55277705 0.072152719 0.021862019
0.55280209 0.07297612 0.021857001
0.55203241 0.073901191 0.021246944
0.5520575 0.074726179 0.021241916
0.55128789 0.075656034 0.020631794
0.55051845 0.076589063 0.020021688
0.55054361 0.077417247 0.02001664
0.54977429 0.078355052 0.019406507
0.54979956 0.079184823 0.01940145
0.54903036 0.080127411 0.018791286
0.54826134 0.08107318 0.018181102
0.54828662 0.081906132 0.018176027
0.54751766 0.082856692 0.017565778
0.54674888 0.083810426 0.016955545
0.54677427 0.084646575 0.016950449
0.54600561 0.085605085 0.016340189
0.54603106 0.086442821 0.016335083
0.54526252 0.087406106 0.015724793
0.54528803 0.088245437 0.015719678
0.54451966 0.089213505 0.015109359
0.54454523 0.09005443 0.015104235
0.54377693 0.091027282 0.01449385
0.54380256 0.091869794 0.014488716
0.54303443 0.092847422 0.013878338
0.54226649 0.093828231 0.013267941
0.54229218 0.094673932 0.013262788
0.54152429 0.095659509 0.012652362
0.54075652 0.096648298 0.01204188
0.54078233 0.09749718 0.012036706
0.54001468 0.09849073 0.011426232
0.54004055 0.099341206 0.011421049
0.53927308 0.10033954 0.010810546
0.53850573 0.10134105 0.010200023
0.53853166 0.1021947 0.01019482
0.53776443 0.103201 0.0095842667
0.53699726 0.10421048 0.0089736599
0.53702331 0.10506734 0.008968438
0.53625637 0.10608158 0.0083578378
0.53548944 0.10709903 0.0077472171
0.53551561 0.10795905 0.0077419765
0.53474885 0.10898128 0.0071313255
0.53398216 0.11000669 0.0065206219
0.53400844 0.11086991 0.0065153618
0.53324193 0.11190009 0.0059046638
0.53326821 0.11276489 0.0058993939
0.53250188 0.11379986 0.0052886652
0.53252822 0.11466626 0.0052833855
0.531762 0.115706 0.0046726293
0.53099591 0.11674893 0.004061854
0.53102231 0.11761852 0.0040565548
0.53025633 0.11866622 0.0034457152
0.5302828 0.1195374 0.0034404064
0.52951699 0.12058988 0.0028295713
0.52875125 0.12164554 0.0022187179
0.52877784 0.12251991 0.0022133898
0.52801228 0.12358035 0.0016025075
0.52645463 0.12483165 0.00038600547
0.5256893 0.12590006 -0.00022492542
0.52492404 0.12697165 -0.00083587569
0.54919034 0.041825149 0.018986834
0.54921556 0.042654924 0.018981777
0.55003631 0.043441996 0.019582635
0.55006146 0.044270176 0.019577589
0.55008662 0.045098357 0.019572543
0.55011183 0.045926537 0.019567495
0.55013698 0.046754718 0.019562449
0.55016214 0.047582898 0.019557402
0.55098253 0.048358824 0.020158326
0.55100769 0.049185414 0.02015329
0.55103278 0.050012 0.020148253
0.551853 0.050781552 0.020749252
0.55187809 0.051606547 0.020744225
0.55269814 0.052371323 0.021345217
0.55272317 0.053194728 0.021340201
0.55354309 0.053954724 0.02194122
0.55436289 0.054711543 0.022542262
0.55438781 0.055531759 0.022537265
0.55520749 0.056283791 0.02313837
0.55523241 0.057102416 0.023133382
0.55605191 0.057849675 0.023734484
0.55687129 0.058593746 0.0243356
0.55689609 0.059409186 0.024330633
0.55692089 0.060224622 0.024325663
0.55694568 0.061040066 0.024320694
0.55697048 0.061855502 0.024315724
0.55699521 0.062670939 0.024310756
0.55702001 0.063486382 0.024305787
0.55625057 0.064385928 0.023694653
0.55627543 0.065202959 0.023689674
0.55630022 0.06601999 0.023684695
0.55553097 0.066925906 0.023073521
0.55555588 0.067744531 0.023068532
0.55478668 0.06865523 0.022457294
0.5548116 0.06947545 0.022452297
0.55404264 0.070390925 0.021841064
0.55406761 0.071212731 0.021836055
0.55329883 0.072132982 0.021224795
0.55253005 0.073056415 0.020613514
0.55255514 0.07388141 0.020608487
0.55178654 0.074809626 0.019997142
0.55181164 0.075636216 0.019992106
0.55104321 0.076569207 0.019380767
0.55027485 0.077505387 0.01876941
0.55030006 0.078335159 0.018764352
0.54953188 0.079276107 0.018152965
0.54876381 0.080220252 0.017541559
0.54878908 0.081053212 0.017536484
0.54802108 0.082002133 0.016925013
0.54725325 0.082954243 0.016313557
0.54727864 0.083790384 0.01630846
0.54651093 0.084747262 0.015696978
0.54653639 0.085584998 0.015691873
0.54576886 0.086546659 0.015080359
0.54579437 0.087385982 0.015075244
0.54502696 0.088352427 0.014463702
0.54505247 0.089193344 0.014458578
0.54428518 0.090164572 0.013846969
0.54431081 0.091007084 0.013841836
0.54354364 0.091983072 0.013230235
0.54277658 0.09296225 0.012618615
0.54280233 0.093807951 0.012613461
0.5420354 0.094791904 0.012001813
0.54126859 0.095779061 0.011390108
0.5412944 0.096627943 0.011384934
