# .PCD v0.7 - Point Cloud Data file format
VERSION 0.7
FIELDS x y z
SIZE 4 4 4
TYPE F F F
COUNT 1 1 1
WIDTH 1374
HEIGHT 1
VIEWPOINT 0 0 0 1 0 0 0
POINTS 1374
DATA ascii
0.51188797 0.087001301 0.02645519
0.51108694 0.087992936 0.025885375
0.51111341 0.08886411 0.025880067
0.51031256 0.089860514 0.025310257
0.50951177 0.090860106 0.024740426
0.5087111 0.09186288 0.024170574
0.50873774 0.092738837 0.024165235
0.50793719 0.093746394 0.023595359
0.5071367 0.094757132 0.023025427
0.50716347 0.095636278 0.02302007
0.50636315 0.096651793 0.022450142
0.50638992 0.097532533 0.022444773
0.50558978 0.098552823 0.021874815
0.50561661 0.099435158 0.02186944
0.50481665 0.10046022 0.021299455
0.5040167 0.10148849 0.020729417
0.50321692 0.10251993 0.02015939
0.50324386 0.10340704 0.020153984
0.50244421 0.10444326 0.019583929
0.50164467 0.10548266 0.019013857
0.50084519 0.10652525 0.018443765
0.50087231 0.10741714 0.01843833
0.50007296 0.10846452 0.017868174
0.49927375 0.10951506 0.017298032
0.49847463 0.11056881 0.016727874
0.49850187 0.11146547 0.016722409
0.4977029 0.11252398 0.016152218
0.49690402 0.11358569 0.015582008
0.49610519 0.11465058 0.015011746
0.49613258 0.11555202 0.015006253
0.49533394 0.1166217 0.014435997
0.49536139 0.11752472 0.014430494
0.49456292 0.11859917 0.013860206
0.49376452 0.11967679 0.013289899
0.49379206 0.12058302 0.013284377
0.49299377 0.12166543 0.012714008
0.49302137 0.12257324 0.012708476
0.49222326 0.12366043 0.012138113
0.49225089 0.12456983 0.012132572
0.49145293 0.12566181 0.011562177
0.49148065 0.12657279 0.011556625
0.49068281 0.12766954 0.010986201
0.49071056 0.12858212 0.010980641
0.4899129 0.12968364 0.010410191
0.48994067 0.13059783 0.01040462
0.4891431 0.13170412 0.0098341061
0.48917094 0.1326199 0.0098285256
0.48837358 0.13373098 0.0092580141
0.48757631 0.13484524 0.0086874831
0.48760423 0.1357642 0.008681884
0.48763216 0.13668317 0.008676284
0.48683506 0.13780379 0.0081057176
0.48521307 0.13913088 0.0069701173
0.48276639 0.14066917 0.0052695242
0.47949508 0.14242348 0.0030038427
0.47622412 0.14419053 0.00073808315
0.47295359 0.14597033 -0.0015277539
0.5124476 0.059952151 0.026511898
0.51330191 0.060747523 0.027072024
0.51332819 0.061613929 0.027066743
0.51335454 0.06248033 0.027061464
0.51420867 0.063269332 0.027621631
0.51423496 0.064134143 0.027616359
0.51426125 0.064998955 0.02761109
0.5151152 0.065781586 0.028171292
0.51514143 0.066644803 0.028166031
0.51516765 0.06750802 0.028160771
0.51602143 0.068284273 0.028721048
0.5160476 0.069145903 0.028715797
0.51607382 0.070007525 0.028710546
0.51609999 0.070869148 0.028705297
0.51612622 0.071730785 0.028700046
0.51615238 0.072592407 0.028694795
0.51617855 0.07345403 0.028689545
0.51620477 0.07431566 0.028684294
0.51623094 0.075177282 0.028679043
0.51625711 0.076038904 0.028673792
0.51545626 0.077003427 0.02810291
0.51548249 0.077866644 0.02809765
0.51550871 0.078729868 0.028092388
0.515535 0.079593085 0.028087128
0.51473439 0.080565564 0.027516231
0.51476067 0.081430368 0.027510962
0.51396024 0.082407624 0.026940033
0.51398659 0.083274029 0.026934752
0.51318628 0.084256053 0.026363797
0.51238608 0.085241273 0.025792822
0.51241255 0.08611086 0.025787523
0.51161242 0.087100863 0.025216484
0.51081252 0.088094041 0.024645459
0.51083905 0.088966817 0.024640139
0.51003921 0.08996477 0.024069088
0.50923949 0.090965919 0.023498015
0.50926614 0.091841877 0.023492677
0.5084666 0.092847794 0.022921573
0.50766706 0.093856916 0.022350417
0.50769377 0.094736055 0.02234506
0.50689447 0.095749944 0.02177391
0.50692123 0.096630678 0.021768544
0.50612205 0.097649336 0.021197366
0.50532299 0.09867119 0.020626165
0.50534987 0.099555112 0.020620778
0.50455087 0.10058174 0.020049516
0.50375205 0.10161155 0.019478269
0.50377899 0.10249866 0.019472864
0.50298029 0.10353325 0.018901588
0.50218171 0.10457102 0.018330289
0.50138324 0.10561199 0.017758975
0.50141031 0.10650387 0.01775354
0.5006119 0.10754962 0.017182162
0.49981368 0.10859854 0.016610797
0.49901551 0.10965064 0.016039416
0.49904278 0.1105473 0.016033951
0.49824476 0.11160419 0.015462537
0.49744684 0.11266426 0.014891107
0.49664897 0.11372753 0.014319621
0.49585125 0.11479397 0.013748151
0.4958787 0.115697 0.013742648
0.49508113 0.11676823 0.013171147
0.4951086 0.11767285 0.013165634
0.49431118 0.11874884 0.012594106
0.49433872 0.11965507 0.012588584
0.49354139 0.12073585 0.012016991
0.49356899 0.12164367 0.012011459
0.49277183 0.12272922 0.011439873
0.49279949 0.12363863 0.011434332
0.49200249 0.12472895 0.010862713
0.49203017 0.12563996 0.010857161
0.49123332 0.12673506 0.010285517
0.49126107 0.12764765 0.010279956
0.49046436 0.12874754 0.0097082825
0.49049214 0.12966172 0.0097027114
0.48969555 0.13076641 0.0091309734
0.48889908 0.13187425 0.0085592484
0.48892695 0.13279162 0.0085536586
0.48813063 0.13390423 0.0079819076
0.48815858 0.1348232 0.0079763075
0.48736238 0.13594061 0.0074045267
0.48739037 0.13686116 0.0073989173
0.48659429 0.13798337 0.0068270727
0.48497441 0.13931195 0.0056890314
0.48253074 0.14085175 0.0039846995
0.47926357 0.14260748 0.0017141099
0.47682053 0.14416797 9.6519707e-06
0.51299757 0.059931342 0.025840165
0.51385087 0.060726751 0.026401524
0.51387721 0.061593156 0.026396243
0.51473033 0.062383786 0.026957631
0.51475662 0.063248597 0.02695236
0.51478291 0.064113408 0.02694709
0.51480919 0.06497822 0.026941821
0.51566213 0.065760888 0.027503256
0.51568836 0.066624105 0.027497996
0.51571459 0.067487329 0.027492736
0.51656735 0.06826362 0.028054245
0.51659358 0.069125243 0.028048994
0.51661974 0.069986872 0.028043743
0.51664597 0.070848495 0.028038492
0.51667213 0.071710125 0.028033243
0.5166983 0.072571747 0.028027993
0.51672453 0.073433369 0.028022742
0.51675069 0.074294999 0.028017491
0.51677692 0.075156622 0.02801224
0.51597697 0.076119512 0.027440133
0.51600325 0.076982729 0.027434872
0.51602948 0.077845946 0.027429612
0.51522982 0.078815207 0.026857501
0.51525611 0.079680011 0.026852231
0.51528239 0.080544829 0.026846962
0.51448292 0.081520446 0.026274811
0.5145092 0.082386851 0.026269533
0.5137099 0.083367251 0.025697354
0.51291066 0.084350832 0.025125155
0.51293713 0.085220426 0.025119856
0.51213795 0.086208798 0.024547594
0.51133901 0.087200344 0.023975346
0.51136553 0.08807312 0.023970028
0.51056665 0.089069448 0.023397751
0.50976789 0.090068959 0.022825455
0.50979453 0.090944916 0.022820119
0.50899595 0.09194921 0.022247793
0.50819737 0.092956685 0.021675415
0.50822413 0.093835838 0.021670057
0.50742573 0.094848089 0.021097684
0.50745255 0.09572883 0.021092316
0.50665432 0.096745856 0.020519914
0.50585622 0.097766072 0.019947493
0.50588304 0.098649994 0.019942107
0.50508505 0.099674992 0.019369625
0.50428718 0.10070317 0.018797154
0.50431412 0.10159029 0.018791748
0.50351638 0.10262324 0.018219246
0.50271875 0.10365938 0.017646726
0.50192124 0.10469871 0.017074188
0.50194836 0.1055906 0.017068753
0.50115091 0.10663471 0.016496154
0.50035357 0.107682 0.015923567
0.49955639 0.10873248 0.015350961
0.49958366 0.10962915 0.015345497
0.4987866 0.1106844 0.014772859
0.49798965 0.11174284 0.014200205
0.49719274 0.11280446 0.013627498
0.49722016 0.11370592 0.013622005
0.49642342 0.11477232 0.013049302
0.49562681 0.1158419 0.012476579
0.49565431 0.11674654 0.012471067
0.49485785 0.1178209 0.011898316
0.49488539 0.11872712 0.011892793
0.49408901 0.11980627 0.011319977
0.4941166 0.12071408 0.011314445
0.49332044 0.12179802 0.010741635
0.49334806 0.12270742 0.010736094
0.49255204 0.12379612 0.010163255
0.49257973 0.12470711 0.010157703
0.49178383 0.12580059 0.0095848348
0.49098805 0.12689725 0.0090119475
0.49101582 0.12781143 0.0090063764
0.49022013 0.1289129 0.0084334249
0.49024796 0.12982866 0.0084278444
0.48945245 0.13093489 0.0078548985
0.48948035 0.13185225 0.0078493087
0.48868498 0.13296326 0.0072763339
0.48871291 0.13388221 0.0072707338
0.48791769 0.13499799 0.0066977297
0.48794568 0.13591854 0.0066921203
0.48797366 0.13683909 0.0066865105
0.4863556 0.13816285 0.0055459994
0.48473778 0.13949296 0.0044054845
0.48229718 0.14103422 0.0026974434
0.47985694 0.14258502 0.00098937866
0.47741696 0.1441454 -0.00071877922
0.51354754 0.059910532 0.025168432
0.51357394 0.060778528 0.025163142
0.51442617 0.061572384 0.025725743
0.51445252 0.062438786 0.025720464
0.51530463 0.063227862 0.026283095
0.51533091 0.064092673 0.026277823
0.5153572 0.064957485 0.026272554
0.51620907 0.06574019 0.026835224
0.51623535 0.066603407 0.026829962
0.51626158 0.067466632 0.026824702
0.51711333 0.06824296 0.027387442
0.51713949 0.06910459 0.027382191
0.51716572 0.069966212 0.02737694
0.51719189 0.070827834 0.02737169
0.51721811 0.071689464 0.027366441
0.51724428 0.072551087 0.02736119
0.51727045 0.073412716 0.027355939
0.51647145 0.074372381 0.026782621
0.51649773 0.075235598 0.026777361
0.51652396 0.076098815 0.0267721
0.51655018 0.076962039 0.02676684
0.51575148 0.077929653 0.026193505
0.51577777 0.078794472 0.026188236
0.51580405 0.079659283 0.026182964
0.51500553 0.080633275 0.025609592
0.51503187 0.081499673 0.025604311
0.51423353 0.082478441 0.025030909
0.51343524 0.083460398 0.024457486
0.51346165 0.084329985 0.024452189
0.51266348 0.085316725 0.023878705
0.51186544 0.086306646 0.023305234
0.51189202 0.087179422 0.023299916
0.51109409 0.088174112 0.022726417
0.51029634 0.089171998 0.022152901
0.51032293 0.090047956 0.022147562
0.5095253 0.09105061 0.021574013
0.50872773 0.092056461 0.021000411
0.50875443 0.092935607 0.020995054
0.50795704 0.093946233 0.02042146
0.5079838 0.094826974 0.020416092
0.50718653 0.095842376 0.019842466
0.50638938 0.09686096 0.019268822
0.50641626 0.097744882 0.019263435
0.50561923 0.098768249 0.018689729
0.50482231 0.099794798 0.018116035
0.50402546 0.10082453 0.017542321
0.50405246 0.10171324 0.017536907
0.50325584 0.10274775 0.016963163
0.50245923 0.10378544 0.016389405
0.50248635 0.10467733 0.01638397
0.50168985 0.10571981 0.015810143
0.50089353 0.10676547 0.015236334
0.50092077 0.10766055 0.015230879
0.50012457 0.10871098 0.014657043
0.49932846 0.10976461 0.014083184
0.49853247 0.11082141 0.013509306
0.49773651 0.11188142 0.012935376
0.49776393 0.11278285 0.012929883
0.49696818 0.11384764 0.012355956
0.49617252 0.11491559 0.01178201
0.49620003 0.11582021 0.011776498
0.49540451 0.11689296 0.011202522
0.49543205 0.11779917 0.011197
0.49463663 0.1188767 0.010622963
0.49466422 0.11978451 0.010617431
0.49386901 0.12086681 0.010043398
0.49307388 0.12195228 0.0094693452
0.49310157 0.12286328 0.0094637936
0.49312925 0.12377428 0.009458242
0.49233434 0.12486612 0.0088841505
0.49153951 0.12596115 0.0083100423
0.49156728 0.12687534 0.0083044712
0.49077255 0.12797517 0.0077302959
0.49080038 0.12889093 0.0077247154
0.49000585 0.12999552 0.0071505462
0.49003372 0.1309129 0.0071449559
0.48923934 0.13202226 0.0065707602
0.48926726 0.13294122 0.0065651601
0.488473 0.13405536 0.0059909327
0.48850098 0.13497593 0.0059853229
0.48770684 0.13609485 0.0054110312
0.48773485 0.137017 0.0054054121
0.48694089 0.13814071 0.0048311292
0.48450315 0.13967387 0.0031194713
0.48288754 0.14101188 0.001976409
0.47962844 0.14276892 -0.00030408322
0.51409751 0.059889723 0.024496699
0.51494879 0.060685206 0.025060523
0.51497513 0.061551612 0.025055243
0.51500148 0.062418014 0.025049964
0.51585257 0.063207127 0.025613824
0.51587886 0.064071938 0.025608554
0.51672983 0.064856276 0.026172446
0.51675606 0.065719493 0.026167186
0.51678228 0.066582717 0.026161926
0.51763308 0.067360677 0.02672589
0.51765925 0.068222307 0.026720639
0.51768547 0.069083929 0.026715389
0.51771164 0.069945551 0.026710138
0.51773787 0.070807174 0.026704887
0.51776403 0.071668811 0.026699636
0.51696593 0.07262525 0.026125105
0.51699221 0.073488466 0.026119845
0.51701844 0.074351683 0.026114585
0.51704466 0.0752149 0.026109325
0.51707089 0.076078117 0.026104065
0.51627314 0.077044107 0.025529506
0.51629943 0.077908918 0.025524236
0.51550186 0.078879692 0.024949651
0.5155282 0.079746097 0.024944371
0.51555449 0.080612503 0.024939092
0.5147571 0.081589639 0.024364466
0.51395977 0.082569957 0.023789823
0.51398623 0.083439551 0.023784524
0.51318902 0.08442466 0.023209816
0.51239192 0.085412942 0.022635123
0.51241845 0.086285725 0.022629805
0.51162153 0.087278783 0.022055084
0.51082474 0.088275038 0.021480341
0.51085138 0.089150995 0.021475002
0.51005465 0.090152025 0.020900235
0.50925803 0.091156244 0.020325407
0.50928479 0.092035383 0.02032005
0.5084883 0.093044378 0.019745233
0.50851512 0.093925118 0.019739866
0.5077188 0.094938889 0.019165017
0.5069226 0.095955841 0.01859015
0.50694948 0.096839763 0.018584764
0.5061534 0.097861506 0.018009834
0.50535744 0.098886423 0.017434916
0.50456154 0.099914528 0.016859982
0.5045886 0.10080322 0.016854567
0.50379288 0.10183612 0.016279601
0.50299728 0.10287217 0.015704619
0.50302434 0.10376406 0.015699184
0.50222886 0.10480492 0.015124137
0.50143349 0.10584895 0.014549103
0.50146067 0.10674401 0.014543649
0.50066543 0.10779282 0.013968589
0.49987033 0.10884482 0.013393505
0.49907529 0.10989999 0.012818407
0.49910262 0.11079983 0.012812924
0.4983077 0.11185981 0.012237757
0.49751291 0.11292294 0.01166261
0.49754035 0.11382598 0.011657108
0.49674571 0.11489391 0.011081927
0.49595115 0.115965 0.010506731
0.49597871 0.11687123 0.01050121
0.49518424 0.11794712 0.0099259494
0.49521184 0.11885493 0.0099204173
0.49441758 0.11993559 0.0093451599
0.49362344 0.12101944 0.0087698866
0.49365112 0.12193044 0.008764335
0.4928571 0.12301906 0.0081890291
0.49288484 0.12393165 0.0081834681
0.49209097 0.12502505 0.0076081366
0.49211875 0.12593924 0.0076025655
0.49132499 0.12703742 0.0070271669
0.49053136 0.1281388 0.0064517865
0.49055922 0.12905616 0.0064461962
0.48976573 0.1301623 0.0058707837
0.48979369 0.13108127 0.0058651837
0.48982161 0.13200022 0.0058595841
0.4890283 0.13311274 0.0052841357
0.48905629 0.13403329 0.0052785259
0.4882631 0.1351506 0.0047030137
0.48747006 0.13627106 0.0041275136
0.48749813 0.13719481 0.0041218847
0.48670521 0.13832007 0.0035463588
0.48427051 0.13985473 0.001830962
0.48183614 0.14139894 0.00011553922
0.47940198 0.14295273 -0.0015999739
0.51637423 0.062321585 0.024949828
0.51640052 0.063186392 0.024944557
0.5164268 0.064051203 0.024939287
0.51645309 0.064916015 0.024934018
0.51730299 0.065698802 0.02549915
0.51732922 0.066562019 0.02549389
0.5173555 0.067425236 0.02548863
0.51738173 0.06828846 0.02548337
0.51740795 0.06915167 0.02547811
0.51743418 0.070014894 0.02547285
0.51746041 0.070878111 0.025467589
0.51748669 0.071741335 0.025462329
0.51751292 0.072604552 0.025457069
0.51753914 0.073467769 0.025451809
0.51756537 0.074330993 0.025446549
0.51676857 0.075293757 0.024870779
0.51679486 0.076158561 0.024865508
0.51682115 0.07702338 0.024860239
0.51602447 0.077992514 0.02428443
0.51605082 0.078858919 0.024279151
0.51525432 0.079832837 0.023703314
0.51528072 0.08070083 0.023698024
0.51448435 0.081679523 0.023122156
0.51451081 0.08254911 0.023116857
0.51371455 0.083532587 0.022540925
0.51291841 0.084519245 0.02196501
0.51294494 0.085392021 0.021959692
0.51214898 0.086383455 0.021383747
0.51135314 0.087378077 0.020807784
0.51137978 0.088254035 0.020802448
0.51058406 0.089253433 0.020226451
0.50978839 0.09025602 0.019650407
0.5098151 0.091135167 0.01964505
0.50901961 0.092142522 0.019069007
0.50822425 0.093153067 0.018492945
0.50825107 0.094035402 0.018487569
0.50745583 0.09505073 0.017911479
0.50666064 0.096069239 0.017335335
0.50668752 0.096954755 0.017329939
0.50589257 0.097978048 0.0167538
0.50509769 0.099004515 0.016177639
0.50430286 0.10003417 0.015601463
0.50432992 0.10092447 0.015596038
0.50353527 0.10195891 0.015019831
0.50356239 0.10285079 0.015014397
0.5027678 0.10389001 0.014438126
0.50197339 0.10493241 0.013861872
0.50200063 0.10582749 0.013856417
0.50120634 0.10687466 0.013280134
0.50041217 0.10792503 0.012703828
0.49961811 0.10897857 0.012127506
0.49964544 0.10987842 0.012122022
0.49885148 0.11093675 0.011545635
0.49805763 0.11199826 0.010969264
0.49808508 0.11290129 0.010963761
0.49729142 0.11396758 0.010387361
0.49649781 0.11503707 0.0098109385
0.49652538 0.11594328 0.0098054158
0.49573186 0.11701754 0.0092289355
0.49575946 0.11792535 0.0092234034
0.49496618 0.11900438 0.0086469222
0.49417296 0.1200866 0.0080704251
0.49420065 0.12099759 0.0080648735
0.49340761 0.1220846 0.0074883476
0.49343532 0.12299718 0.0074827862
0.49264243 0.12408895 0.0069062309
0.49184957 0.12518391 0.0063296212
0.49187741 0.12609969 0.0063240407
0.49108472 0.12719943 0.0057474338
0.49029216 0.12830235 0.00517081
0.49032009 0.12922131 0.0051652105
0.49034801 0.13014027 0.0051596104
0.48955566 0.13124956 0.0045829481
0.48958361 0.13217011 0.0045773387
0.48879135 0.1332842 0.0040006121
0.48881936 0.13420634 0.0039949929
0.48802727 0.13532519 0.0034182724
0.48723528 0.13644721 0.0028415325
0.48726341 0.13737255 0.0028358935
0.48565161 0.13870084 0.0016879914
0.48322001 0.14023857 -3.1121705e-05
0.51525027 0.061584093 0.023142656
0.51609945 0.062376469 0.023708964
0.51694852 0.063165657 0.024275292
0.51697481 0.064030476 0.02427002
0.51700109 0.06489528 0.024264751
0.51784998 0.065678105 0.024831116
0.51787621 0.066541322 0.024825856
0.51790243 0.067404546 0.024820596
0.51792866 0.068267763 0.024815336
0.51795489 0.069130979 0.024810076
0.51798117 0.069994196 0.024804816
0.5180074 0.070857413 0.024799556
0.51803362 0.071720637 0.024794295
0.51805985 0.072583854 0.024789035
0.51726395 0.0735434 0.024212051
0.51729023 0.074408211 0.024206782
0.51731652 0.075273022 0.024201512
0.51734281 0.076137826 0.024196243
0.51654714 0.077105336 0.02361921
0.51657343 0.077971742 0.023613932
0.51577795 0.078944027 0.023036869
0.51580429 0.079812028 0.023031581
0.51500893 0.080789089 0.022454491
0.51421356 0.08176934 0.021877347
0.51424009 0.082640521 0.021872038
0.5134449 0.083625548 0.021294899
0.51347142 0.084498324 0.02128958
0.51267642 0.085488118 0.020712413
0.51188153 0.086481117 0.020135226
0.51190817 0.087357074 0.020129887
0.51111341 0.088354841 0.01955267
0.5103187 0.089355797 0.018975403
0.5103454 0.090234943 0.018970046
0.50955093 0.091240674 0.018392781
0.50875646 0.092249587 0.017815497
0.50878328 0.093131915 0.017810121
0.50798905 0.094145611 0.017232807
0.50719482 0.095162496 0.01665544
0.5064007 0.096182562 0.016078088
0.50642771 0.097069666 0.016072681
0.50563377 0.098094508 0.015495301
0.5048399 0.099122539 0.0149179
0.50486696 0.10001283 0.014912475
0.50407326 0.10104564 0.014335046
0.50410038 0.10193752 0.01432961
0.50330681 0.10297512 0.013752117
0.50251335 0.10401588 0.013174641
0.50254053 0.10491095 0.013169187
0.50174725 0.1059565 0.01259168
0.50177449 0.10685316 0.012586216
0.50098133 0.1079035 0.012008679
0.50018829 0.10895699 0.011431123
0.49939525 0.1100137 0.010853512
0.49860239 0.11107358 0.010275918
0.49862984 0.11197662 0.010270415
0.4978371 0.11304126 0.0096927909
0.49704447 0.11410911 0.0091151483
0.49707201 0.11501534 0.0091096256
0.49627951 0.11608796 0.0085319187
0.49630708 0.11699578 0.0085263867
0.49551475 0.11807317 0.0079486854
0.49472252 0.11915376 0.0073709642
0.4947502 0.12006476 0.0073654125
0.49395809 0.12115011 0.0067876657
0.49398583 0.12206271 0.0067821043
0.49319389 0.12315285 0.0062043252
0.49240199 0.12424619 0.0056264917
0.49242982 0.12516196 0.0056209113
0.49163812 0.12626007 0.0050430838
0.49084651 0.12736134 0.0044652368
0.49087444 0.12828031 0.0044596368
0.49008298 0.12938638 0.0038817606
0.49011096 0.13030693 0.0038761511
0.48931959 0.1314178 0.0032982107
0.48934761 0.13233994 0.0032925913
0.48855644 0.13345556 0.002714657
0.48858452 0.1343793 0.0027090281
0.48779348 0.1354997 0.0021310644
0.48700255 0.13662328 0.0015530816
0.48621172 0.13775006 0.00097507914
0.48460194 0.13908146 -0.00017533831
0.48299244 0.14041923 -0.0013257625
0.51580024 0.061563283 0.022470923
0.51664841 0.062355697 0.023038464
0.51754904 0.064874545 0.023595482
0.51839691 0.065657407 0.02416308
0.51842314 0.066520624 0.02415782
0.51844937 0.067383848 0.02415256
0.51847565 0.068247065 0.0241473
0.51768047 0.069198608 0.023569131
0.51770675 0.070063412 0.023563862
0.51773304 0.070928231 0.023558592
0.51775932 0.071793042 0.023553323
0.51778561 0.072657853 0.023548052
0.51781189 0.073522665 0.023542782
0.51783818 0.074387476 0.023537513
0.51704341 0.07535176 0.02295927
0.51706976 0.076218158 0.022953991
0.51627517 0.077187218 0.022375716
0.51630151 0.078055218 0.022370426
0.51550704 0.079029061 0.021792121
0.51553351 0.079898648 0.021786822
0.5147391 0.080877267 0.021208458
0.51476556 0.081748456 0.021203149
0.51397139 0.08273185 0.020624787
0.51317734 0.083718427 0.020046405
0.51320386 0.084592797 0.020041076
0.51240993 0.085584149 0.019462669
0.51243657 0.086460114 0.019457331
0.51164275 0.087456249 0.018878892
0.510849 0.088455573 0.018300401
0.51087576 0.089334719 0.018295042
0.51008219 0.090338819 0.017716555
0.50928873 0.0913461 0.017138047
0.50931555 0.092228435 0.01713267
0.50852221 0.093240492 0.016554134
0.50772899 0.094255753 0.015975544
0.50693583 0.095274188 0.015396969
0.50696284 0.096161291 0.015391563
0.50616986 0.097184502 0.014812961
0.50537694 0.098210901 0.014234337
0.505404 0.099101193 0.014228912
0.50461131 0.10013236 0.013650259
0.50463837 0.10102426 0.013644824
0.50384575 0.10206021 0.013066109
0.50387293 0.10295369 0.013060665
0.50308049 0.10399442 0.012481953
0.50310767 0.10488949 0.012476498
0.5023154 0.105935 0.01189776
0.5015232 0.10698369 0.011319001
0.50073111 0.10803557 0.010740221
0.50075841 0.10893542 0.010734738
0.49996644 0.10999209 0.010155897
0.49917457 0.11105192 0.0095770694
0.49920201 0.11195496 0.0095715662
0.49841031 0.11301957 0.0089927092
0.49761868 0.11408739 0.0084138354
0.49764624 0.11499362 0.0084083127
0.49685469 0.1160662 0.0078293728
0.49606332 0.11714197 0.0072504501
0.49527204 0.11822092 0.0066715055
0.49529973 0.11913192 0.0066659544
0.49450859 0.12021564 0.0060869809
0.49371755 0.12130257 0.0055079907
0.49374536 0.12221675 0.0055024195
0.4929544 0.12330845 0.0049233628
0.49216363 0.12440334 0.0043443213
0.49219149 0.1253207 0.0043387311
0.49140084 0.12642036 0.0037596631
0.49142879 0.12733932 0.0037540633
0.49063829 0.12844375 0.0031749634
0.48984781 0.12955138 0.0025958123
0.48987585 0.13047354 0.0025901929
0.48908558 0.13158594 0.0020110444
0.48911366 0.13250966 0.0020054155
0.48832354 0.13362685 0.0014262381
0.48835167 0.13455218 0.0014205994
0.4875617 0.13567413 0.0008413957
0.48677182 0.13679928 0.00026216978
0.485982 0.13792762 -0.00031711059
0.48437434 0.13926052 -0.0014699694
0.50075454 0.062947564 0.010892062
0.51727641 0.064934142 0.022352122
0.51812327 0.065718628 0.022920946
0.51814955 0.06658344 0.022915676
0.5181759 0.067448251 0.022910405
0.51820219 0.068313062 0.022905136
0.51822847 0.069177873 0.022899866
0.51743442 0.070132561 0.022320446
0.5174607 0.070998967 0.022315165
0.51748705 0.071865372 0.022309886
0.51751339 0.072731771 0.022304606
0.51753974 0.073598176 0.022299327
0.51756608 0.074464582 0.022294046
0.51677239 0.075430423 0.021714561
0.51679873 0.076298416 0.021709271
0.51600516 0.077269025 0.021129757
0.51603162 0.07813862 0.021124458
0.51605803 0.079008214 0.021119159
0.51526463 0.079985201 0.020539567
0.51529109 0.080856383 0.020534258
0.51449788 0.081838146 0.019954676
0.51370478 0.082823098 0.019375073
0.51373136 0.083697461 0.019369744
0.51293838 0.084687188 0.018790111
0.51296496 0.085563146 0.018784773
0.51217216 0.086557657 0.018205112
0.51137936 0.087555349 0.017625397
0.51140606 0.088434495 0.01762004
0.5106135 0.089436963 0.017040327
0.509821 0.09044262 0.016460599
0.50984782 0.091324948 0.016455222
0.50905544 0.092335381 0.015875462
0.50826317 0.093349002 0.01529565
0.50747097 0.094365805 0.014715853
0.50749797 0.095252916 0.014710448
0.50670594 0.096274495 0.014130619
0.50591403 0.097299255 0.013550774
0.50594109 0.098189555 0.013545349
0.5051493 0.099219099 0.012965475
0.50517642 0.10011098 0.01296004
0.50438476 0.10114531 0.012380099
0.50441188 0.10203879 0.012374654
0.50362039 0.10307789 0.011794722
0.50364763 0.10397296 0.011789268
0.50285625 0.10501684 0.011209306
0.50206506 0.1060639 0.010629322
0.50209236 0.10696215 0.010623849
0.50130123 0.108014 0.010043839
0.50051022 0.10906903 0.009463775
0.49971932 0.11012724 0.0088837231
0.49974677 0.11103027 0.0088782199
0.49895599 0.11209327 0.0082981419
0.49816534 0.11315943 0.007718042
0.49819288 0.11406566 0.0077125197
0.49740234 0.11513662 0.0071323584
0.49661192 0.11621075 0.0065522129
0.49663955 0.11712017 0.006546671
0.49584928 0.11819907 0.0059664929
0.4950591 0.11928118 0.005386299
0.49508685 0.12019376 0.0053807376
0.49429682 0.12128065 0.0048005143
0.49350685 0.12237072 0.0042202333
0.492717 0.12346397 0.0036399714
0.49274489 0.12438134 0.0036343811
0.49195519 0.12547937 0.0030540896
0.49116561 0.12658058 0.002473776
0.49119359 0.12750113 0.0024681664
0.49040407 0.12860714 0.0018877914
0.49043211 0.12952927 0.0018821722
0.4896428 0.13064004 0.001301803
0.4888536 0.131754 0.00072141172
0.48888174 0.13267933 0.00071577303
0.48890987 0.13360466 0.00071013434
0.48812085 0.13472499 0.00012970706
0.48733193 0.13584849 -0.00045074252
0.48572603 0.13717337 -0.0016060515
0.51785171 0.065779768 0.021676339
0.51787806 0.066646174 0.02167106
0.51790434 0.067512579 0.021665782
0.51793069 0.068378985 0.021660501
0.51713765 0.069333628 0.021079849
0.51798338 0.070111789 0.021649942
0.51719046 0.071069621 0.021069271
0.5172168 0.071937621 0.021063982
0.51724321 0.072805621 0.021058692
0.51645046 0.073769823 0.020477982
0.51647687 0.074639417 0.020472685
0.51650333 0.075509004 0.020467386
0.51652974 0.076378591 0.020462086
0.51573718 0.077350765 0.019881293
0.5157637 0.078221947 0.019875985
0.51579016 0.079093136 0.019870676
0.51499784 0.080071673 0.019289879
0.51420563 0.081053399 0.018709062
0.51423222 0.081927761 0.018703735
0.5142588 0.082802132 0.018698405
0.51346678 0.083790228 0.018117551
0.51349336 0.084666185 0.018112212
0.51270151 0.085659064 0.017531326
0.51190966 0.086655132 0.016950388
0.51193643 0.087534271 0.016945031
0.51114476 0.088535115 0.016364098
0.51035321 0.089539133 0.015783146
0.50956178 0.09054634 0.015202174
0.50958866 0.091430262 0.015196787
0.50879729 0.092442259 0.014615752
0.5080061 0.093457423 0.014034732
0.50721502 0.094475783 0.013453692
0.50724202 0.095364489 0.013448277
0.50645107 0.096387625 0.012867209
0.50566024 0.097413942 0.01228612
0.5056873 0.098305829 0.012280686
0.50489658 0.09933693 0.011699533
0.5049237 0.10023041 0.011694089
0.50413316 0.10126629 0.011112942
0.50416034 0.10216136 0.011107489
0.50418758 0.10305643 0.011102034
0.50339717 0.10409867 0.010520847
0.50260693 0.10514411 0.0099396417
0.50263423 0.10604237 0.0099341683
0.50184405 0.10709257 0.0093529345
0.50105399 0.10814598 0.0087716468
0.50026405 0.10920256 0.0081903739
0.50029153 0.11010559 0.0081848716
0.49950171 0.11116695 0.0076035699
0.498712 0.11223149 0.007022249
0.49873954 0.11313771 0.0070167268
0.49794996 0.11420704 0.0064353417
0.49797755 0.11511486 0.0064298096
0.49718812 0.11618895 0.0058484306
0.49639884 0.11726624 0.005267032
0.49642652 0.11817724 0.0052614803
0.49563736 0.1192593 0.0046800501
0.49484828 0.12034454 0.004098603
0.49405926 0.12143299 0.0035171015
0.4932704 0.12252461 0.0029356156
0.49248162 0.12361941 0.0023541104
0.49250954 0.12453837 0.0023485103
0.49172091 0.12563795 0.001766976
0.49093232 0.12674072 0.0011853871
0.49096036 0.12766287 0.0011797679
0.49017197 0.12877041 0.00059818494
0.49020004 0.12969415 0.00059255591
0.4894118 0.13080648 1.0943823e-05
0.48943993 0.13173182 5.3050862e-06
0.48865181 0.13284892 -0.00057633605
0.48786381 0.1339692 -0.0011579967
0.48789203 0.13489771 -0.0011636547
0.48879185 0.064086504 0.00027734553
0.51678997 0.066792265 0.019847408
0.51681644 0.067661852 0.019842111
0.51684284 0.068531446 0.019836811
0.51686931 0.069401026 0.019831512
0.51689571 0.07027062 0.019826213
0.51692218 0.071140207 0.019820914
0.51694858 0.072009802 0.019815614
0.51697505 0.072879389 0.019810315
0.51618326 0.073845156 0.019228332
0.51620978 0.074716337 0.019223021
0.51623625 0.075587519 0.019217713
0.51626271 0.0764587 0.019212404
0.51628917 0.077329881 0.019207096
0.5154978 0.0783052 0.018625086
0.51552433 0.079177976 0.018619766
0.51473308 0.08015807 0.018037727
0.51475966 0.08103244 0.018032398
0.51396853 0.08201731 0.017450331
0.51399517 0.082893267 0.017444992
0.51320422 0.083882913 0.016862893
0.51323086 0.084760472 0.016857546
0.51244003 0.085754901 0.016275387
0.51246673 0.086634055 0.01627003
0.51167607 0.08763326 0.015687874
0.51088548 0.088635653 0.015105698
0.510095 0.089641228 0.014523502
0.51012188 0.09052515 0.014518117
0.50933146 0.091535509 0.013935857
0.50854123 0.092549048 0.013353613
0.50775111 0.093565777 0.012771353
0.50696105 0.094585694 0.012189071
0.50698811 0.095475987 0.012183646
0.50619823 0.096500672 0.011601334
0.50622535 0.097392559 0.011595899
0.50543553 0.098422028 0.011013524
0.50546271 0.099315509 0.011008079
0.50467306 0.10034975 0.010425709
0.5047003 0.10124482 0.010420254
0.50391084 0.10228385 0.0098378556
0.50393808 0.10318052 0.0098323915
0.50314873 0.10422431 0.0092499666
0.50317603 0.10512257 0.0092444932
0.50238687 0.10617115 0.0086620357
0.50159776 0.10722292 0.0080795242
0.50162518 0.10812437 0.0080740312
0.50083625 0.1091809 0.0074915253
0.50004739 0.11024063 0.0069090002
0.50007492 0.11114526 0.0069034877
0.4992862 0.11220976 0.0063209333
0.49931374 0.11311598 0.0063154111
0.49852517 0.11418527 0.0057327957
0.49773672 0.11525775 0.0051501929
0.49694836 0.1163334 0.0045675705
0.49697605 0.1172444 0.0045620194
0.49618787 0.11832482 0.0039793681
0.49539974 0.11940844 0.0033966973
0.49461168 0.12049526 0.0028139751
0.49382377 0.12158524 0.0022312657
0.49303594 0.12267842 0.0016485368
0.4930639 0.12359738 0.0016429368
0.49227622 0.12469533 0.0010601789
0.49148861 0.12579647 0.00047736644
0.49151662 0.12671863 0.00047174713
0.49072918 0.12782453 -0.00011105652
0.48994187 0.12893364 -0.00069388252
0.48996997 0.12985896 -0.00069952122
0.4891828 0.13097285 -0.0012823764
0.48921096 0.13189977 -0.0012880247
0.51082772 0.068320893 0.014546534
0.51412421 0.06885691 0.016852504
0.51496816 0.069644697 0.017425001
0.51581204 0.070429303 0.017997522
0.51583856 0.071302079 0.017992202
0.51586509 0.072174855 0.017986884
0.51670879 0.072953083 0.018559439
0.51673526 0.073824272 0.018554131
0.51594472 0.074793175 0.017970929
0.51597124 0.075665951 0.017965611
0.51599777 0.076538727 0.017960291
0.51520735 0.077514 0.017377049
0.51523393 0.078388371 0.01737172
0.51526052 0.079262741 0.017366391
0.51447034 0.080244385 0.016783111
0.51449692 0.081120349 0.016777774
0.51452357 0.081996307 0.016772436
0.51373357 0.082984328 0.016189113
0.51294363 0.083975539 0.015605741
0.51297033 0.084854685 0.015600383
0.51218057 0.085850663 0.015017013
0.51220733 0.086731404 0.015011647
0.51141775 0.087732166 0.014428247
0.51062822 0.088736109 0.013844831
0.51065505 0.089620031 0.013839445
0.50986564 0.090628766 0.013255962
0.50907636 0.091640674 0.012672498
0.50828719 0.09265577 0.012089011
0.50749809 0.093674049 0.011505508
0.50752515 0.094564348 0.011500083
0.50673622 0.095587403 0.010916548
0.50676334 0.096479289 0.010911113
0.50597453 0.097507134 0.010327516
0.50518578 0.098538153 0.0097439326
0.50521302 0.099433228 0.0097384779
0.5052402 0.1003283 0.0097330241
0.50445169 0.10136569 0.0091494014
0.50447899 0.10226236 0.0091439374
0.5036906 0.10330453 0.0085602887
0.50290233 0.10434987 0.0079766177
0.50292969 0.10524973 0.007971134
0.50214154 0.10629987 0.0073874015
0.50216895 0.10720131 0.0073819086
0.50138098 0.10825622 0.0067981794
0.5014084 0.10915925 0.0067926762
0.5006206 0.11021894 0.0062089209
0.49983287 0.11128182 0.0056251427
0.49986041 0.11218803 0.0056196204
0.49907279 0.1132557 0.0050357818
0.49828529 0.11432654 0.0044519552
0.49749792 0.11540056 0.0038681095
0.4975256 0.11631156 0.0038625582
0.49673834 0.11739036 0.0032786862
0.49595121 0.11847235 0.0026947919
0.4951641 0.11955753 0.0021108461
0.49437717 0.12064587 0.0015269129
0.4935903 0.12173742 0.00094296329
0.49361822 0.12265639 0.00093736337
0.49283153 0.12375271 0.00035338174
0.49204487 0.12485223 -0.00023065144
0.49207288 0.12577437 -0.0002362707
0.49128643 0.12687865 -0.00082030089
0.49050003 0.12798612 -0.0014043476
0.49052817 0.12891145 -0.0014099863
0.51059723 0.069268607 0.013279274
0.51225674 0.06997627 0.014432025
0.51391619 0.070677549 0.015584853
0.51475912 0.071463786 0.016158594
0.51478571 0.072339751 0.016153255
0.51562852 0.073121205 0.016727025
0.5156551 0.073995568 0.016721698
0.51568162 0.074869938 0.016716368
0.51570821 0.075744309 0.016711041
0.51573479 0.076618671 0.016705712
0.51576138 0.077493034 0.016700385
0.51497209 0.078471467 0.016115891
0.51499873 0.079347432 0.016110552
0.51502538 0.080223389 0.016105214
0.51423627 0.081208184 0.015520682
0.51426291 0.082085736 0.015515334
0.51347393 0.083075315 0.014930737
0.51350063 0.083954461 0.01492538
0.51271188 0.084948808 0.014340786
0.51273865 0.085829549 0.014335419
0.51194996 0.086828679 0.013750799
0.51116139 0.087830998 0.01316616
0.51118827 0.08871492 0.013160774
0.51039982 0.089722015 0.012576067
0.50961149 0.090732299 0.011991379
0.50882328 0.091745757 0.011406672
0.50803518 0.092762411 0.010821945
0.50806224 0.093652703 0.01081652
0.50727427 0.094674133 0.010231761
0.50730133 0.095566019 0.010226326
0.50651348 0.096592233 0.0096415058
0.50572574 0.097621627 0.0090567013
0.50575292 0.098516695 0.0090512475
0.50496536 0.099550858 0.0084664105
0.5049926 0.10044752 0.0084609464
0.50420517 0.10148647 0.0078760842
0.50423247 0.10238473 0.0078706099
0.50344515 0.10342845 0.0072857183
0.50347251 0.1043283 0.0072802352
0.50268531 0.10537682 0.0066952789
0.50271273 0.10627826 0.006689786
0.50192571 0.10733153 0.006104833
0.50195318 0.10823457 0.0060993303
0.50116628 0.10929263 0.0055143512
0.5003795 0.11035387 0.0049293526
0.5004071 0.11126009 0.0049238303
0.49962041 0.11232612 0.0043387678
0.49883386 0.11339533 0.0037537178
0.49804744 0.11446772 0.0031686511
0.49807513 0.11537872 0.0031630998
0.49728885 0.11645589 0.0025780043
0.49650267 0.11753625 0.0019928862
0.49571654 0.11861979 0.0014077169
0.49493054 0.11970652 0.00082256307
0.49414465 0.12079643 0.00023738691
0.49417257 0.12171539 0.00023178701
0.49338683 0.12281008 -0.00035341538
0.49260113 0.12390796 -0.00093867211
0.49262914 0.12483012 -0.00094429147
0.49184364 0.12593277 -0.0015295424
0.4972125 0.067984961 0.0027467587
0.50955343 0.07030753 0.011429191
0.51202631 0.070925578 0.013164752
0.51368362 0.071625344 0.014320021
0.51371032 0.072504498 0.014314665
0.51455224 0.073289171 0.01488968
0.51457894 0.074166723 0.014884332
0.51542062 0.074946627 0.015459348
0.51544726 0.075822584 0.01545401
0.5154739 0.076698542 0.015448672
0.51550049 0.077574506 0.015443334
0.51471227 0.078554481 0.014857594
0.51473898 0.07943204 0.014852247
0.51476562 0.080309592 0.0148469
0.51397753 0.081295945 0.014261091
0.51400429 0.082175091 0.014255734
0.51321638 0.083166219 0.013669929
0.51324314 0.08404696 0.013664562
0.5132699 0.084927693 0.013659195
0.51248223 0.085925199 0.013073348
0.51169461 0.086925887 0.012487486
0.51172149 0.087809809 0.012482099
0.510934 0.088815272 0.011896175
0.51014662 0.089823924 0.011310264
0.50935936 0.09083575 0.010724329
0.50857222 0.091850773 0.010138379
0.50859928 0.092741065 0.010132954
0.50781226 0.093760863 0.0095469747
0.50783938 0.09465275 0.0095415395
0.50705248 0.095677331 0.0089554954
0.5062657 0.096705087 0.0083694682
0.50629288 0.097600162 0.0083640134
0.50550628 0.098632693 0.0077779563
0.50553352 0.099529363 0.0077724922
0.50474703 0.10056668 0.0071864058
0.50396061 0.10160718 0.0066003003
0.50398797 0.10250703 0.0065948167
0.50401533 0.10340688 0.0065893331
0.50322908 0.10445376 0.006003154
0.50244302 0.10550381 0.0054169898
0.50247043 0.10640685 0.0054114871
0.50168449 0.10746168 0.004825294
0.50171196 0.10836631 0.0048197815
0.5009262 0.10942592 0.0042335591
0.50095373 0.11033215 0.0042280369
0.50016803 0.11139654 0.0036417507
0.49938247 0.11246412 0.0030554801
0.498597 0.11353488 0.0024691899
0.49862468 0.11444588 0.0024636385
0.49783936 0.11552142 0.0018773193
0.49705413 0.11660014 0.0012909807
0.49626896 0.11768206 0.00070458773
0.49548393 0.11876716 0.00011821026
0.494699 0.11985543 -0.0004681866
0.49472693 0.1207744 -0.00047378649
0.49394214 0.12186746 -0.0010602125
0.50110286 0.069445632 0.0043567419
0.50438786 0.070004404 0.006677364
0.50932819 0.071263023 0.010155716
0.51098371 0.071969241 0.01131341
0.51182485 0.072761923 0.01188961
0.51347995 0.073456988 0.013047372
0.51350671 0.074337728 0.013042005
0.51434755 0.075120851 0.013618232
0.51437426 0.075999998 0.013612875
0.51440096 0.076879144 0.013607517
0.51442772 0.07775829 0.01360216
0.51445442 0.078637429 0.013596803
0.51448113 0.079516582 0.013591445
0.51450789 0.080395721 0.013586088
0.51453459 0.081274867 0.013580731
0.51374769 0.082264364 0.012993703
0.51377445 0.083145104 0.012988335
0.51298767 0.084139384 0.012401278
0.5130145 0.085021712 0.012395901
0.51222783 0.08602076 0.011808814
0.51225471 0.08690469 0.011803428
0.51146817 0.087908529 0.01121628
0.51068175 0.088915542 0.010629144
0.50989544 0.089925751 0.01004199
0.50910926 0.090939134 0.0094548166
0.50913632 0.091829427 0.0094493907
0.50835025 0.092847593 0.0088621909
0.50837737 0.09373948 0.0088567557
0.50759143 0.09476243 0.0082694888
0.5068056 0.095788561 0.0076822368
0.50683284 0.096683629 0.0076767826
0.50604713 0.097714536 0.0070895017
0.5052616 0.098748632 0.0065022046
0.5052889 0.099646889 0.0064967307
0.50450343 0.10068575 0.0059094015
0.50453079 0.1015856 0.0059039178
0.5037455 0.10262927 0.0053165248
0.50377285 0.1035307 0.0053110314
0.50298774 0.10457912 0.0047236439
0.50301516 0.10548216 0.0047181412
0.50223017 0.10653538 0.0041307271
0.5022577 0.10743999 0.0041252146
0.50147283 0.10849798 0.0035377687
0.50068808 0.10955915 0.0029502688
0.50071567 0.11046696 0.0029447367
0.49993104 0.1115329 0.0023572454
0.49914652 0.11260204 0.0017697316
0.49836212 0.11367435 0.0011821985
0.49838987 0.11458694 0.0011766375
0.49760559 0.11566404 0.00058907515
0.49682137 0.11674432 1.4614504e-06
0.4960373 0.1178278 -0.00058613962
0.49525332 0.11891443 -0.00117376
0.49528128 0.1198334 -0.00117936
0.49514073 0.069185242 -0.00099980226
0.50170356 0.070328571 0.0036511472
0.50417101 0.070969142 0.0053939698
0.50910509 0.072221614 0.0088797575
0.51075852 0.072926328 0.010039925
0.51159859 0.073719047 0.010617326
0.51325172 0.074412592 0.011777597
0.51409155 0.075197347 0.012355044
0.51411831 0.076078087 0.012349677
0.51414508 0.076958828 0.01234431
0.51498473 0.077737212 0.012921799
0.51501149 0.078616351 0.012916442
0.51422542 0.079601042 0.012328209
0.51425219 0.080481775 0.012322842
0.51427895 0.081362516 0.012317475
0.51349306 0.08235357 0.011729207
0.51351988 0.083235897 0.01172383
0.51273417 0.084231727 0.01113553
0.51276106 0.085115649 0.011130143
0.51278794 0.085999571 0.011124756
0.51200235 0.087001786 0.010536385
0.51121688 0.088007167 0.0099480264
0.51043159 0.089015737 0.0093596512
0.5096463 0.090027496 0.0087712528
0.50967336 0.090917788 0.0087658279
0.5088883 0.091934323 0.0081774043
0.50891542 0.09282621 0.0081719691
0.50813037 0.093847528 0.0075834785
0.50734556 0.094872028 0.006995006
0.50737274 0.095767096 0.0069895517
0.50658804 0.096796371 0.0064010471
0.50580341 0.097828835 0.0058125262
0.50583076 0.098727092 0.0058070524
0.50504625 0.099764332 0.0052184998
0.50507361 0.10066418 0.0052130162
0.50428927 0.10170621 0.0046244022
0.50350505 0.10275141 0.0040358035
0.50353247 0.10365444 0.0040303008
0.50355995 0.10455748 0.0040247981
0.50277591 0.10560905 0.0034361575
0.50199199 0.10666381 0.0028475008
0.50201952 0.10757003 0.0028419786
0.50123566 0.10862958 0.0022532546
0.50045198 0.10969229 0.0016645495
0.50047964 0.1106017 0.0016590077
0.49969608 0.1116692 0.0010702704
0.49891263 0.11273988 0.00048151656
0.49812928 0.11381375 -0.0001072596
0.49815705 0.11472794 -0.0001128304
0.49737379 0.11580659 -0.00070166774
0.4965907 0.11688843 -0.0012904924
0.4965623 0.069995828 -0.0011313529
0.5023042 0.071211509 0.0029455523
0.50476855 0.071847416 0.0046921042
0.50723255 0.072473772 0.0064386791
0.50888413 0.073183328 0.0076013156
0.51053548 0.073886514 0.0087639568
0.51218659 0.074583329 0.0099266395
0.51302558 0.075371303 0.010505335
0.5138644 0.076156102 0.011084016
0.51389122 0.07703843 0.011078639
0.51472992 0.077818446 0.011657349
0.51475668 0.078699179 0.011651983
0.51478344 0.079579927 0.011646615
0.51399851 0.080567755 0.011057133
0.51402533 0.081450082 0.011051756
0.51405215 0.08233241 0.011046379
0.5132674 0.083326608 0.010456858
0.51329428 0.08421053 0.010451471
0.51250958 0.085209519 0.0098618865
0.51253653 0.086095035 0.0098564904
0.51175201 0.087098792 0.0092669101
0.51096767 0.088105731 0.0086773084
0.51018339 0.089115858 0.00808769
0.51021045 0.09000615 0.008082265
0.5094263 0.091021053 0.0074926177
0.50945342 0.09191294 0.0074871825
0.50866938 0.092932627 0.0068974714
0.50788546 0.093955494 0.0063077752
0.5079127 0.09485057 0.0063023209
0.50712895 0.095878214 0.005712593
0.50634527 0.096909046 0.0051228483
0.50556171 0.09794306 0.0045330841
0.50558907 0.098842904 0.0045276009
0.50480562 0.099881716 0.0039377729
0.50483304 0.10078315 0.0039322795
0.50404978 0.10182672 0.0033424576
0.5040772 0.10272976 0.0033369546
0.50329411 0.10377811 0.0027471005
0.50332159 0.10468273 0.0027415878
0.50253862 0.10573587 0.0021517074
0.50256616 0.10664208 0.0021461851
0.50178331 0.1077 0.0015562407
0.50100058 0.10876109 0.00096631178
0.50102818 0.10967049 0.00096077018
0.50024563 0.11073636 0.00037081205
0.49946314 0.11180541 -0.00021916826
0.49868074 0.11287766 -0.00080916518
0.49870852 0.11379184 -0.00081473595
0.49792624 0.11486886 -0.0014047968
0.49963218 0.071541592 -9.5494303e-05
0.50290489 0.072094448 0.0022399577
0.50536609 0.072725691 0.0039902325
0.50782686 0.07334739 0.0057405336
0.50947636 0.074053831 0.0069056568
0.51112556 0.074753903 0.0080707837
0.51196361 0.07554511 0.0086506587
0.51280153 0.076333128 0.0092305532
0.51363939 0.077117957 0.0098105017
0.51447713 0.077899605 0.010390435
0.51450396 0.078781933 0.010385059
0.51453078 0.079664268 0.010379682
0.51374686 0.080653653 0.0097889565
0.51377374 0.081537575 0.0097835697
0.51380062 0.082421497 0.0097781839
0.51301682 0.083417259 0.0091873845
0.51304376 0.084302776 0.0091819884
0.5122602 0.085303307 0.0085911946
0.51228714 0.08619041 0.0085857892
0.51150376 0.087195724 0.0079949666
0.51153076 0.088084422 0.0079895509
0.51074749 0.089094512 0.0073986994
0.50996429 0.090107784 0.0068078283
0.50999141 0.09099967 0.0068023931
0.50920832 0.092017725 0.0062114582
0.50842541 0.093038969 0.0056205383
0.50845259 0.093934037 0.005615084
0.50766987 0.094960056 0.0050241356
0.50688714 0.09598925 0.0044331672
0.50610453 0.097021639 0.0038421797
0.50613189 0.097921491 0.0038366963
0.5053494 0.098958656 0.0032456447
0.50537682 0.099860102 0.0032401516
0.5045945 0.10090204 0.0026491086
0.50462198 0.10180507 0.0026436057
0.50383979 0.10285179 0.0020525309
0.50305772 0.10390169 0.0014614365
0.50308526 0.10480791 0.0014559142
0.5023033 0.1058626 0.00086475583
0.5023309 0.10677043 0.00085922383
0.50154912 0.10782988 0.00026807131
0.50076747 0.10889252 -0.00032310066
0.50079519 0.10980352 -0.00032865204
0.50001365 0.11087095 -0.0009198531
0.50104731 0.072341256 -0.00021957996
0.50431579 0.072886303 0.002120848
0.50596356 0.073603973 0.0032883696
0.50761116 0.074315272 0.0044558924
0.5100686 0.074924335 0.006210003
0.51171571 0.075621299 0.0073776133
0.51255268 0.076410949 0.0079587316
0.5141995 0.077096768 0.0091264443
0.51422632 0.07798069 0.0091210576
0.5142532 0.078864612 0.0091156717
0.51428008 0.079748534 0.009110285
0.51430696 0.080632456 0.0091048991
0.51352412 0.081624992 0.0085128853
0.513551 0.082510509 0.0085074892
0.51276839 0.083507814 0.0079154847
0.51279533 0.084394924 0.0079100793
0.51282227 0.085282035 0.007904673
0.51203984 0.08628571 0.007312627
0.51125747 0.087292582 0.0067205615
0.51128453 0.088182874 0.0067151366
0.51050234 0.089194514 0.0061230445
0.51052946 0.090086401 0.0061176098
0.50974733 0.091102831 0.0055254507
0.50896537 0.092122436 0.0049333107
0.50899255 0.093017504 0.0049278564
0.50821072 0.094041884 0.0043356838
0.507429 0.095069461 0.0037434921
0.5074563 0.095967717 0.0037380182
0.50667471 0.097000062 0.0031458002
0.50589317 0.098035596 0.0025535251
0.50592059 0.098937042 0.002548032
0.50513923 0.099977352 0.0019557625
0.50516671 0.10088038 0.0019502597
0.50438547 0.10192547 0.001357964
0.50360441 0.10297375 0.00076564611
0.50363195 0.10387997 0.00076012383
0.50285095 0.10493303 0.00016774185
0.50287855 0.10584084 0.00016220989
0.50209773 0.10689867 -0.0004301634
0.50131702 0.10795968 -0.001022559
0.50134468 0.10887069 -0.0010281104
0.50491542 0.073767692 0.0014164962
0.5065611 0.074482247 0.0025865012
0.50901556 0.07509461 0.0043442547
0.51066083 0.075794838 0.0055143437
0.51149684 0.076587707 0.006096676
0.51314169 0.077276789 0.0072668013
0.51397753 0.0780617 0.0078491792
0.51400441 0.078947216 0.0078437831
0.51403135 0.079832733 0.007838387
0.51324958 0.080825225 0.0072451779
0.51327652 0.081712335 0.007239772
0.51330352 0.082599446 0.0072343661
0.51333046 0.08348655 0.0072289607
0.51254892 0.084487006 0.0066357004
0.51257592 0.085375704 0.0066302852
0.51179451 0.086380936 0.0060369987
0.51182157 0.087271236 0.0060315733
0.51104033 0.088281244 0.0054382551
0.51106745 0.089173131 0.0054328204
0.51028627 0.09018793 0.0048394408
0.51031345 0.091081411 0.0048339963
0.50953251 0.09210097 0.0042406223
0.50875163 0.093123727 0.0036472264
0.50797087 0.094149664 0.0030538139
0.50799817 0.095047921 0.0030483401
0.50721753 0.096078634 0.0024548986
0.50643694 0.097112551 0.0018613997
0.50646436 0.09801399 0.0018559067
0.50568396 0.09905266 0.0012624165
0.50490367 0.10009453 0.00066890405
0.50493121 0.10099916 0.00066339149
0.50415105 0.1020458 6.9852853e-05
0.50417858 0.10295203 6.4330561e-05
0.50339854 0.10400345 -0.00052927213
0.50342613 0.10491126 -0.00053480413
0.50264633 0.10596746 -0.0011284039
0.5030632 0.074023858 -0.0010492662
0.5055151 0.074649073 0.00071214448
0.50715864 0.075360522 0.0018846325
0.50960994 0.075968221 0.003646112
0.51125306 0.076665342 0.0048186905
0.51208806 0.077456661 0.0054022628
0.51292294 0.07824479 0.0059858542
0.51375771 0.079029739 0.0065694652
0.51378471 0.07991685 0.0065640593
0.51381165 0.080803961 0.0065586534
0.51303101 0.081799597 0.0059641921
0.51305801 0.082688294 0.0059587765
0.51308501 0.083577 0.0059533613
0.51230454 0.084579006 0.0053588608
0.5123316 0.085469298 0.0053534359
0.51235867 0.086359598 0.0053480105
0.51157838 0.087367974 0.0047534714
0.51160544 0.088259861 0.0047480366
0.51082528 0.089273028 0.0041534333
0.5108524 0.090166509 0.0041479887
0.51007241 0.091184445 0.0035533886
0.51009965 0.092079513 0.0035479343
0.50931978 0.093102224 0.0029533079
0.50854003 0.094128124 0.0023586622
0.50776035 0.095157214 0.0017639969
0.5077877 0.096057065 0.0017585135
0.50700814 0.097090937 0.0011637842
0.50622874 0.098127984 0.00056907046
0.50625616 0.099031016 0.00056356762
0.50547689 0.10007284 -3.1175252e-05
0.50469774 0.10111785 -0.00062593754
0.50472528 0.10202407 -0.00063145981
0.50394619 0.10307387 -0.0012262891
0.50397378 0.10398169 -0.001231821
0.50447309 0.074815743 -0.0011671076
0.5085631 0.076141454 0.001772985
0.51020426 0.076841831 0.0029479726
0.51184529 0.077535838 0.004123034
0.51267922 0.078325607 0.0047078491
0.51351303 0.07911218 0.0052926838
0.51273334 0.080106191 0.0046969987
0.5127604 0.080996491 0.0046915738
0.51278746 0.081886783 0.0046861484
0.51281452 0.082777075 0.0046807234
0.51284158 0.083667368 0.004675298
0.51286864 0.08455766 0.0046698726
0.51208925 0.085562818 0.00407412
0.51211637 0.086454704 0.0040686848
0.51214349 0.087346591 0.00406325
0.51136422 0.088358127 0.0034674234
0.5113914 0.089251608 0.0034619786
0.51061237 0.090267912 0.0028661578
0.51063955 0.09116298 0.0028607035
0.50986069 0.092184067 0.0022648536
0.5090819 0.093208335 0.0016689841
0.50830317 0.094235785 0.001073098
0.50833052 0.095135644 0.0010676146
