# .PCD v0.7 - Point Cloud Data file format
VERSION 0.7
FIELDS x y z
SIZE 4 4 4
TYPE F F F
COUNT 1 1 1
WIDTH 1365
HEIGHT 1
VIEWPOINT 0 0 0 1 0 0 0
POINTS 1365
DATA ascii
0.51981467 0.076114304 0.019601485
0.51902509 0.07708317 0.019017046
0.51823556 0.078055225 0.018432591
0.51826203 0.07892482 0.018427292
0.51747262 0.079901658 0.017842773
0.51749915 0.080772839 0.017837465
0.51670992 0.081754446 0.01725295
0.51592082 0.082739241 0.016668415
0.5159474 0.083613612 0.016663088
0.51515847 0.084603183 0.016078526
0.51518512 0.08547914 0.016073188
0.51439631 0.086473495 0.015488597
0.51442295 0.087351047 0.015483249
0.51363426 0.088350184 0.014898594
0.51366097 0.08922933 0.014893237
0.51287246 0.090233244 0.014308585
0.51289928 0.091113977 0.014303218
0.51211089 0.092122667 0.013718539
0.51213771 0.093004994 0.013713162
0.5113495 0.094018459 0.013128455
0.51056135 0.095035113 0.01254369
0.50895834 0.096189268 0.011379594
0.50654066 0.097485714 0.0096360613
0.50330842 0.098929204 0.0073131355
0.50007653 0.10038545 0.0049900971
0.49195647 0.10269859 -0.00080942799
0.53516614 0.0248383 0.030838763
0.53600931 0.025664389 0.031413529
0.53603464 0.026497347 0.031408455
0.53687763 0.027318656 0.031983215
0.5369029 0.028150022 0.031978149
0.53774571 0.028966555 0.032552939
0.53777093 0.029796328 0.03254788
0.5377962 0.030626101 0.032542825
0.53782141 0.031455874 0.03253777
0.53784662 0.032285646 0.032532711
0.53787184 0.03311542 0.032527655
0.53789705 0.033945192 0.0325226
0.53792226 0.034774967 0.032517541
0.53794748 0.035604738 0.032512486
0.53715557 0.036463678 0.031927485
0.53718084 0.037295043 0.031922422
0.53720611 0.038126409 0.031917356
0.53641444 0.038991719 0.031332318
0.53643972 0.039824679 0.03132724
0.53646505 0.040657636 0.031322166
0.5356735 0.04152932 0.030737054
0.53569883 0.042363871 0.030731967
0.53490746 0.043240327 0.030146861
0.53493291 0.044076473 0.030141765
0.5349583 0.044912614 0.030136671
0.53416711 0.045795444 0.029551527
0.53337604 0.04668146 0.028966362
0.53340155 0.047520787 0.028961247
0.53342706 0.048360117 0.028956132
0.53263617 0.049252499 0.02837093
0.53184533 0.050148074 0.027785672
0.53187096 0.050990589 0.027780538
0.53108031 0.051890936 0.027195286
0.53110594 0.052735046 0.027190143
0.53031546 0.053640168 0.026604861
0.53034115 0.054485869 0.026599709
0.52955079 0.055395771 0.026014399
0.52957654 0.056243066 0.026009236
0.5287863 0.057157751 0.02542386
0.52881211 0.058006633 0.025418688
0.52802205 0.058926094 0.02483332
0.52804792 0.059776574 0.024828138
0.52807373 0.060627051 0.024822954
0.52728385 0.061552878 0.024237549
0.52649409 0.062481895 0.023652121
0.52652001 0.06333556 0.023646919
0.52573043 0.064269349 0.023061464
0.52494085 0.065206334 0.022475954
0.5249669 0.066063181 0.022470733
0.52417749 0.067004941 0.021885229
0.5242036 0.067863382 0.021879997
0.52341431 0.068809919 0.021294465
0.52262521 0.069759637 0.020708913
0.52265137 0.07062126 0.020703662
0.52186233 0.071575768 0.020118045
0.5210734 0.072533451 0.019532444
0.52109969 0.073398262 0.019527175
0.52031094 0.074360721 0.018941544
0.52033728 0.075227126 0.018936265
0.51954865 0.076194361 0.018350605
0.51876014 0.077164784 0.017764926
0.51878661 0.078034379 0.017759627
0.51799816 0.079009585 0.017173884
0.51802462 0.079880767 0.017168576
0.51723641 0.080860749 0.016582839
0.51644826 0.081843913 0.015997082
0.51647484 0.082718283 0.015991755
0.51568687 0.083706222 0.015405969
0.51571351 0.084582187 0.015400631
0.51492566 0.085574903 0.014814814
0.51413786 0.086570822 0.014228947
0.51416457 0.08744996 0.01422359
0.51419133 0.088329107 0.014218234
0.51340377 0.089331388 0.013632361
0.51343054 0.090212122 0.013626994
0.51264316 0.091219179 0.013041088
0.51185584 0.092229418 0.012455167
0.51188272 0.09311334 0.012449781
0.51109546 0.09412837 0.011863799
0.51030844 0.095146574 0.011277828
0.50789356 0.096436523 0.00953067
0.50629288 0.097600162 0.0083640134
0.50225085 0.099182568 0.0054555098
0.49658176 0.10105902 0.001385684
0.49254075 0.10267647 -0.0015230679
0.53569496 0.024818292 0.030192912
0.53653711 0.025644418 0.030768912
0.53656244 0.026477376 0.030763837
0.53740442 0.027298724 0.031339832
0.53742969 0.02813009 0.031334765
0.53745496 0.028961457 0.031329699
0.5382967 0.029776435 0.031905729
0.53832191 0.030606208 0.031900674
0.53834718 0.031435981 0.031895619
0.5383724 0.032265753 0.03189056
0.53839761 0.033095527 0.031885505
0.53760654 0.033949651 0.0312993
0.53763181 0.034781016 0.031294234
0.53765708 0.035612382 0.031289168
0.53768235 0.036443748 0.031284101
0.53770763 0.037275113 0.031279035
0.53691691 0.038138792 0.030692775
0.53694218 0.038971748 0.030687699
0.53615153 0.03984021 0.030101374
0.53617692 0.040674757 0.030096287
0.53620231 0.041509312 0.030091202
0.53541189 0.042384136 0.029504875
0.53543729 0.043220282 0.02949978
0.53546268 0.044056427 0.029494684
0.5346725 0.044937622 0.028908316
0.53388238 0.045822006 0.028321927
0.53390789 0.046661336 0.028316814
0.5339334 0.047500663 0.0283117
0.53314346 0.048391417 0.027725272
0.53235358 0.04928536 0.027138794
0.53237921 0.050127875 0.02713366
0.53158951 0.05102659 0.026547184
0.53161514 0.0518707 0.026542041
0.53082561 0.052774195 0.025955537
0.53003615 0.053680874 0.025369013
0.5300619 0.054528166 0.025363849
0.52927256 0.055439629 0.024777265
0.52929837 0.056288514 0.024772093
0.52932417 0.0571374 0.024766918
0.52853507 0.058055226 0.024180327
0.52856094 0.058905702 0.024175145
0.52777195 0.059828311 0.023588523
0.52779788 0.060680382 0.023583332
0.52700907 0.061607767 0.022996681
0.527035 0.062461428 0.02299148
0.52624631 0.063393593 0.022404803
0.52545768 0.064328946 0.02181807
0.52548373 0.065185793 0.021812849
0.52469534 0.066125914 0.021226121
0.52390701 0.067069232 0.020639375
0.52393311 0.06792926 0.020634133
0.52314496 0.068877354 0.020047359
0.52235681 0.069828629 0.019460529
0.52238303 0.070691846 0.019455269
0.52159512 0.071647905 0.018868444
0.52162141 0.072512716 0.018863175
0.52083361 0.073473543 0.018276321
0.52085996 0.074339949 0.018271042
0.52007228 0.075305559 0.017684162
0.51928473 0.07627435 0.017097259
0.51931113 0.077143937 0.01709196
0.51852369 0.078117512 0.016504994
0.51773638 0.079094276 0.015918046
0.5177629 0.079967052 0.015912727
0.51697576 0.080948584 0.015325747
0.51700228 0.081822947 0.015320419
0.51621526 0.082809262 0.01473341
0.51624191 0.083685219 0.014728072
0.51545501 0.08467631 0.014141034
0.51466823 0.08567059 0.013553944
0.51469493 0.086549744 0.013548587
0.51390827 0.087548792 0.0129615
0.51393503 0.088429533 0.012956133
0.51314855 0.089433365 0.012369018
0.51317537 0.090315692 0.012363641
0.51238906 0.0913243 0.011776496
0.51241589 0.092208229 0.01177111
0.51162964 0.09322162 0.011183904
0.51084358 0.094238199 0.01059671
0.51005757 0.095257953 0.010009497
0.50764573 0.096549392 0.0082585989
0.50442141 0.097986206 0.0059258519
0.5011974 0.099435776 0.0035929915
0.53706491 0.025624448 0.030124294
0.53790593 0.026447428 0.030701512
0.5379312 0.027278792 0.030696446
0.53795648 0.028110158 0.03069138
0.53798175 0.028941525 0.030686313
0.53800696 0.029772891 0.030681247
0.53803223 0.030604254 0.03067618
0.53805751 0.03143562 0.030671114
0.53808278 0.032266986 0.03066605
0.53810805 0.033098351 0.030660983
0.53813332 0.033929717 0.030655917
0.5381586 0.034761082 0.03065085
0.53736871 0.035619948 0.030063385
0.53739405 0.036452904 0.030058309
0.53741938 0.037285861 0.030053234
0.53744465 0.038118821 0.030048156
0.53665501 0.038985651 0.029460611
0.53668034 0.039820202 0.029455526
0.53670573 0.040654749 0.029450439
0.53591627 0.041527949 0.028862886
0.53594166 0.042364091 0.028857792
0.53515238 0.043242067 0.028270211
0.53517783 0.044079803 0.028265107
0.53438866 0.044962555 0.027677495
0.53441417 0.045801882 0.02767238
0.53443968 0.046641212 0.027667265
0.53365076 0.047530334 0.027079618
0.53286183 0.048422646 0.026491914
0.5328874 0.049265161 0.026486779
0.53209871 0.050162248 0.025899084
0.53212434 0.051006354 0.02589394
0.53133577 0.051908217 0.025306212
0.53054726 0.052813269 0.024718467
0.53057301 0.05366056 0.024713304
0.52978462 0.054570392 0.024125496
0.52981043 0.055419277 0.024120323
0.52902228 0.056333885 0.023532517
0.52904809 0.057184361 0.023527334
0.52907395 0.058034837 0.023522152
0.52828598 0.058955811 0.02293431
0.52831185 0.059807885 0.022929117
0.52752399 0.060733639 0.022341244
0.52673626 0.061662577 0.021753354
0.52676225 0.062517829 0.021748142
0.52597457 0.063451551 0.021160185
0.52518708 0.064388454 0.020572247
0.52521318 0.065246895 0.020567017
0.5244258 0.066188574 0.019979045
0.52445191 0.067048609 0.019973805
0.52366471 0.067995071 0.019385807
0.52287751 0.068944715 0.018797753
0.52209049 0.06989754 0.018209718
0.52211678 0.070762359 0.018204449
0.52132988 0.071719967 0.01761638
0.52135623 0.072586365 0.017611101
0.5205695 0.073548757 0.017023006
0.51978284 0.074514322 0.016434891
0.51980931 0.075383909 0.016429592
0.5190227 0.076354265 0.015841413
0.51904923 0.077225447 0.015836105
0.51826286 0.078200571 0.015247931
0.51747662 0.079178885 0.01465974
0.5175032 0.080053255 0.014654412
0.51671708 0.081036344 0.014066191
0.51674366 0.081912301 0.014060854
0.51595771 0.082900167 0.013472602
0.51598442 0.083777718 0.013467254
0.51519853 0.084770374 0.012878941
0.51522523 0.085649513 0.012873583
0.51443958 0.086646944 0.012285274
0.51446635 0.087527677 0.012279906
0.51368082 0.088529877 0.01169157
0.51289541 0.089535266 0.011103211
0.51292223 0.090419188 0.011097824
0.51294911 0.09130311 0.011092438
0.51216382 0.092314877 0.010504008
0.51137871 0.093329817 0.0099155912
0.51059365 0.094347946 0.0093271583
0.50899673 0.09550187 0.0081556644
0.50658804 0.096796371 0.0064010471
0.50336778 0.098236233 0.0040633176
0.50014794 0.099688835 0.0017255078
0.49611667 0.10129316 -0.001195459
0.53759271 0.025604477 0.029479677
0.53843266 0.026427496 0.030058127
0.53845793 0.02725886 0.030053061
0.5384832 0.028090226 0.030047996
0.53850847 0.028921593 0.03004293
0.53853375 0.029752959 0.030037863
0.53774458 0.030602226 0.029449223
0.53776991 0.031435184 0.029444147
0.53779525 0.032268144 0.029439069
0.53782058 0.0331011 0.029433994
0.53784585 0.03393406 0.029428918
0.53787118 0.034767017 0.029423842
0.53789651 0.035599977 0.029418766
0.53792185 0.036432933 0.029413691
0.53713304 0.037296537 0.028824931
0.53715843 0.038131088 0.028819846
0.53718376 0.038965642 0.028814759
0.53639525 0.039835613 0.028225996
0.53642064 0.040671758 0.028220899
0.53644603 0.0415079 0.028215805
0.5356577 0.042384245 0.027627002
0.53568316 0.04322198 0.027621897
0.534895 0.044103105 0.027033065
0.53492051 0.044942431 0.02702795
0.53413242 0.045828331 0.026439086
0.53415799 0.046669252 0.026433961
0.53337002 0.047559932 0.025845036
0.53339565 0.048402447 0.025839902
0.53260785 0.049297903 0.025250982
0.53182024 0.050196543 0.024662044
0.53184593 0.051042244 0.02465689
0.53105837 0.051945664 0.024067922
0.53108412 0.052792955 0.024062758
0.53029674 0.053701155 0.023473723
0.53032255 0.054550037 0.02346855
0.52953529 0.055463012 0.022879524
0.52956116 0.056313492 0.022874342
0.52958697 0.057163969 0.022869159
0.52879995 0.058083314 0.022280093
0.52882588 0.058935381 0.022274902
0.52803898 0.059859507 0.021685807
0.52725214 0.060786817 0.021096693
0.52727818 0.061642069 0.021091482
0.52649146 0.062574163 0.020502301
0.52570492 0.063509434 0.019913139
0.52573097 0.064367875 0.019907909
0.5249446 0.065307923 0.019318717
0.5241583 0.066251159 0.018729506
0.52337199 0.067197584 0.018140242
0.52339822 0.0680608 0.01813498
0.52261215 0.069012001 0.017545719
0.52263844 0.069876812 0.017540447
0.52185255 0.070832789 0.016951161
0.5218789 0.071699195 0.01694588
0.52109307 0.072659947 0.016356563
0.52030742 0.073623888 0.015767226
0.52033383 0.074493475 0.015761927
0.51954824 0.0754622 0.015172526
0.51957476 0.076333381 0.015167217
0.51878935 0.077306874 0.014577819
0.51800406 0.078283556 0.013988405
0.51803064 0.079157926 0.013983076
0.51724547 0.080139384 0.013393632
0.51727211 0.081015341 0.013388295
0.51648706 0.082001574 0.012798822
0.51651376 0.082879126 0.012793475
0.51572883 0.08387015 0.012203937
0.51575559 0.084749296 0.01219858
0.51497084 0.085745089 0.011609047
0.51499766 0.086625829 0.01160368
0.51421309 0.087626398 0.011014119
0.51342857 0.088630155 0.010424539
0.51345545 0.089514077 0.010419154
0.51267105 0.09052261 0.00982951
0.51269799 0.091408126 0.0098241139
0.51191384 0.092421442 0.0092344759
0.51112974 0.093437932 0.0086448155
0.51034576 0.094457619 0.0080551393
0.50793988 0.095745638 0.0062968666
0.50553441 0.097043209 0.0045385677
0.50231826 0.098486096 0.0021958856
0.49910253 0.09994173 -0.00014687426
0.53895944 0.026407564 0.029414738
0.53817111 0.027250424 0.028824907
0.53819644 0.028083382 0.028819831
0.53822172 0.02891634 0.028814755
0.53824705 0.029749298 0.02880968
0.5374589 0.030600123 0.028219763
0.53829771 0.031415213 0.028799528
0.53750962 0.032269225 0.028209593
0.53753501 0.033103775 0.028204508
0.53756034 0.033938326 0.028199421
0.53758574 0.034772877 0.028194336
0.53761113 0.035607427 0.028189251
0.53763646 0.036441978 0.028184166
0.53766185 0.037276529 0.028179079
0.53768718 0.038111079 0.028173994
0.53689963 0.038979422 0.027584007
0.53692502 0.039815567 0.027578911
0.53613758 0.040688686 0.026988894
0.53616309 0.041526426 0.026983788
0.53618854 0.042364158 0.026978685
0.53540128 0.04324365 0.026388628
0.5354268 0.044082981 0.026383514
0.53463972 0.044967249 0.025793429
0.53466529 0.04580817 0.025788303
0.53387827 0.046697222 0.025198156
0.5339039 0.047539733 0.025193021
0.53311706 0.048433557 0.024602879
0.53233039 0.04933057 0.024012715
0.53235608 0.050176267 0.024007563
0.53156948 0.051078055 0.02341737
0.53159529 0.05192535 0.023412207
0.53080881 0.052831918 0.022821952
0.53083462 0.053680804 0.022816779
0.53004831 0.054592147 0.022226529
0.53007418 0.055442624 0.022221345
0.52928805 0.056358747 0.021631068
0.52931398 0.057210814 0.021625875
0.52933985 0.058062885 0.021620682
0.5285539 0.058985379 0.021030365
0.52776808 0.059911057 0.020440029
0.52779406 0.060766309 0.020434817
0.52700835 0.061696772 0.019844417
0.52622277 0.062630415 0.019254031
0.52624881 0.063488856 0.0192488
0.5254634 0.064427271 0.018658385
0.52467805 0.065368876 0.01806795
0.52389276 0.066313669 0.017477462
0.52391899 0.067176886 0.017472202
0.52313387 0.068126455 0.016881719
0.52316016 0.068991266 0.016876448
0.52237517 0.069945611 0.016285937
0.52240151 0.070812017 0.016280657
0.5216167 0.071771137 0.015690116
0.520832 0.072733454 0.015099555
0.52004731 0.073698953 0.01450894
0.52007377 0.074570127 0.014503632
0.51928931 0.075540401 0.013913022
0.51931584 0.076413177 0.013907705
0.5185315 0.07738822 0.013317066
0.51855808 0.07826259 0.013311738
0.51777387 0.079242423 0.012721071
0.51780051 0.08011838 0.012715733
0.51701647 0.08110299 0.012125037
0.51704311 0.081980534 0.012119689
0.51625919 0.082969926 0.011528932
0.5162859 0.083849072 0.011523574
0.51550215 0.084843233 0.010932819
0.51552892 0.085723966 0.010927453
0.5147453 0.08672291 0.010336668
0.51396179 0.087725036 0.0097458651
0.51398867 0.088608958 0.0097404793
0.51320523 0.089615867 0.0091496119
0.51323217 0.090501383 0.0091442158
0.51244897 0.09151306 0.0085533541
0.51166582 0.092527926 0.0079624737
0.51088279 0.093545981 0.0073715732
0.51009989 0.094567217 0.0067806537
0.50769711 0.095856711 0.0050186715
0.50448471 0.097289905 0.00267112
0.50208259 0.098600104 0.00090901158
0.49887097 0.10005716 -0.0014386533
0.5378862 0.02724191 0.027594257
0.53791159 0.028076461 0.027589172
0.53793699 0.028911013 0.027584087
0.53714985 0.029761799 0.026992973
0.5371753 0.030597942 0.026987877
0.53720069 0.031434085 0.026982782
0.53722608 0.03227023 0.026977686
0.53725153 0.033106372 0.026972592
0.53727692 0.033942517 0.026967496
0.53730237 0.034778658 0.026962401
0.53732777 0.035614803 0.026957305
0.53735316 0.036450945 0.026952211
0.53737861 0.03728709 0.026947115
0.537404 0.038123235 0.02694202
0.53661746 0.038993131 0.026350789
0.53664297 0.039830867 0.026345685
0.53666842 0.040668603 0.02634058
0.53669387 0.041506339 0.026335474
0.53590763 0.0423842 0.025744198
0.53593314 0.04322353 0.025739083
0.53514695 0.044106167 0.025147775
0.53517252 0.044947088 0.025142651
0.53438652 0.045834508 0.024551278
0.53441209 0.046677019 0.024546143
0.53362626 0.047569215 0.023954779
0.53284049 0.048464593 0.023363393
0.53286624 0.049310293 0.023358241
0.53208065 0.05021045 0.022766825
0.5321064 0.051057741 0.022761662
0.53132087 0.051962681 0.022170184
0.53134668 0.052811567 0.022165012
0.53056139 0.053721279 0.021573538
0.5305872 0.054571755 0.021568356
0.52980202 0.055486247 0.020976853
0.52982795 0.056338318 0.020971661
0.5290429 0.057257585 0.020380132
0.52906889 0.058111247 0.02037493
0.52828401 0.059035294 0.019783368
0.52831 0.05989055 0.019778157
0.52752519 0.06081938 0.019186532
0.52674055 0.061751392 0.018594926
0.52676666 0.062609829 0.018589694
0.5259822 0.06354662 0.017998056
0.5251978 0.064486593 0.017406398
0.52441347 0.065429755 0.016814688
0.52443969 0.066292971 0.016809428
0.52365553 0.067240909 0.016217722
0.52368182 0.06810572 0.016212452
0.52289784 0.069058433 0.015620717
0.52211392 0.070014335 0.015028965
0.52214032 0.070882328 0.015023675
0.52135652 0.071843013 0.014431891
0.52057284 0.07280688 0.013840052
0.52059931 0.073678061 0.013834744
0.5198158 0.074646704 0.013242913
0.51984233 0.075519472 0.013237596
0.51905894 0.076492898 0.012645734
0.51908553 0.077367261 0.012640405
0.51830226 0.078345455 0.012048515
0.51832891 0.07922142 0.012043176
0.51754582 0.080204397 0.011451259
0.51757252 0.081081949 0.011445912
0.5167895 0.082069702 0.010853928
0.51681626 0.082948849 0.010848571
0.51603341 0.083941378 0.010256592
0.51606023 0.084822118 0.010251225
0.51527756 0.085819423 0.0096592205
0.51530439 0.086701758 0.0096538439
0.5145219 0.087703846 0.0090618078
0.51373941 0.088709123 0.0084697166
0.51376635 0.089594632 0.0084643206
0.5129841 0.090604685 0.0078722388
0.51220191 0.09161792 0.0072801341
0.51141983 0.092634335 0.0066880104
0.51063788 0.093653947 0.0060958699
0.50985593 0.094676748 0.0055036722
0.5074563 0.095967717 0.0037380182
0.50505692 0.097268254 0.0019722711
0.50184894 0.098714024 -0.0003802884
0.53762883 0.028069464 0.026356079
0.53684276 0.028920211 0.025763733
0.53686821 0.029757949 0.02575863
0.53689367 0.030595684 0.025753524
0.53691912 0.031433418 0.025748419
0.53613329 0.032292131 0.025156023
0.53697008 0.033108894 0.025738209
0.53618431 0.033970788 0.025145793
0.53620982 0.034810118 0.025140679
0.53704643 0.035622101 0.025722895
0.53707188 0.036459837 0.025717789
0.53709739 0.037297573 0.025712684
0.53712285 0.038135309 0.02570758
0.53633738 0.039006762 0.025115106
0.53636289 0.039846089 0.025109991
0.5363884 0.040685419 0.025104877
0.53641391 0.041524749 0.025099762
0.53562868 0.042404164 0.024507241
0.53565425 0.043245085 0.024502117
0.53486913 0.044129279 0.023909533
0.5348947 0.044971794 0.0239044
0.53410977 0.045860764 0.02331182
0.53413546 0.04670487 0.023306675
0.53335065 0.047598619 0.022714069
0.5333764 0.04844432 0.022708915
0.53259176 0.049342845 0.022116276
0.53261751 0.050190136 0.022111112
0.53183293 0.051093444 0.021518413
0.53104854 0.05199993 0.020925729
0.5310744 0.05285041 0.020920545
0.53110027 0.05370089 0.020915363
0.53031605 0.05461375 0.020322638
0.53034192 0.055465817 0.020317445
0.52955788 0.056383457 0.019724691
0.52958381 0.057237118 0.019719491
0.52879989 0.058159534 0.019126706
0.52801603 0.059085138 0.018533869
0.52804208 0.059941988 0.018528648
0.5272584 0.060872369 0.017935818
0.5272845 0.06173081 0.017930586
0.526501 0.062665962 0.017337725
0.52571756 0.06360431 0.016744846
0.52493417 0.06454584 0.016151911
0.5249604 0.065409057 0.016146651
0.52417719 0.066355363 0.015553722
0.52339411 0.067304857 0.014960776
0.52342045 0.068171263 0.014955496
0.52263755 0.069125526 0.014362518
0.52266389 0.069993526 0.014357228
0.5218811 0.070952572 0.013764223
0.52109832 0.071914814 0.013171164
0.52112484 0.072785988 0.013165855
0.52034229 0.073752999 0.012572799
0.5195598 0.074723199 0.011979726
0.51958638 0.075597562 0.011974398
0.51880407 0.076572537 0.011381294
0.51883072 0.077448495 0.011375955
0.51804852 0.078428246 0.010782824
0.51807517 0.079305798 0.010777477
0.5172931 0.08029034 0.010184282
0.51731986 0.081169479 0.010178925
0.51734656 0.082048625 0.010173568
0.51656473 0.08303953 0.0095803654
0.51659149 0.083920263 0.0095749982
0.51580983 0.084915936 0.0089817699
0.51583666 0.085798271 0.0089763934
0.51505506 0.086798728 0.0083831334
0.51427358 0.08780238 0.0077898218
0.51349223 0.0888092 0.0071965256
0.51351923 0.08969631 0.0071911202
0.51273799 0.090707913 0.0065977918
0.51195687 0.091722697 0.0060044476
0.51198393 0.092612997 0.0059990222
0.51120299 0.093632564 0.0054056458
0.50961411 0.094786189 0.0042242594
0.50721753 0.096078634 0.0024548986
0.50401336 0.097514696 9.746413e-05
0.50161731 0.098827861 -0.0016720579
0.53656304 0.028914692 0.024526935
0.53577811 0.029770179 0.023933327
0.53580368 0.0306111 0.023928203
0.53582925 0.031452022 0.023923079
0.53585482 0.032292943 0.023917954
0.53588033 0.033133864 0.02391283
0.5359059 0.033974785 0.023907706
0.53593147 0.034815706 0.023902582
0.53595704 0.035656631 0.023897456
0.53598261 0.036497552 0.023892332
0.53681815 0.037307981 0.024475789
0.53684366 0.038147308 0.024470674
0.53605926 0.039020315 0.023876959
0.53608483 0.039861236 0.023871835
0.5361104 0.040702157 0.023866711
0.53613597 0.041543081 0.023861587
0.53616154 0.042384002 0.023856463
0.53537732 0.043266565 0.023262655
0.53540295 0.04410908 0.02325752
0.53461897 0.044996418 0.02266372
0.53464466 0.045840524 0.022658575
0.5338608 0.046732642 0.022064744
0.53388655 0.047578342 0.02205959
0.53310287 0.048475239 0.02146573
0.53231919 0.049375322 0.020871816
0.532345 0.050224207 0.020866644
0.53156155 0.051129065 0.020272736
0.53158742 0.051979542 0.020267554
0.53080416 0.052889179 0.019673616
0.53083003 0.05374125 0.019668423
0.53085595 0.054593321 0.019663231
0.53007281 0.055509325 0.019069254
0.52928984 0.056428522 0.018475257
0.52931583 0.057283774 0.018470045
0.52853292 0.05820775 0.017875984
0.52855897 0.059064597 0.017870763
0.52777624 0.059993349 0.01727671
0.52780235 0.060851786 0.017271478
0.5270198 0.061785311 0.016677396
0.52623731 0.062722027 0.016083293
0.52545488 0.063661925 0.015489137
0.5254811 0.064525142 0.015483877
0.52469891 0.065469816 0.014889725
0.5247252 0.066334628 0.014884456
0.52394313 0.067284085 0.014290276
0.52316111 0.068236724 0.013696074
0.52318752 0.069104716 0.013690785
0.52240568 0.070062131 0.013096556
0.52162385 0.071022741 0.012502273
0.52165037 0.071893923 0.012496964
0.52086878 0.072859302 0.011902687
0.52008724 0.07382787 0.011308391
0.52011383 0.074702233 0.011303063
0.51933247 0.075675577 0.010708737
0.51935911 0.076551534 0.010703399
0.51857787 0.077529654 0.010109045
0.51860458 0.078407206 0.010103697
0.51782346 0.079390116 0.0095092785
0.51785016 0.080269262 0.0095039206
0.51787686 0.081148401 0.0094985636
0.51709604 0.082137674 0.0089041386
0.51712281 0.083018407 0.0088987714
0.51714957 0.083899148 0.0088934042
0.51636887 0.084894784 0.0082989428
0.51558828 0.085893609 0.0077044619
0.51480776 0.08689563 0.007109927
0.51402736 0.087900825 0.006515407
0.51405436 0.088787928 0.0065100016
0.51327407 0.089797907 0.0059154527
0.51249397 0.090811059 0.0053208843
0.51252103 0.091701359 0.0053154593
0.51174098 0.092719294 0.004720862
0.51096106 0.093740419 0.0041262102
0.50937426 0.094895564 0.0029423798
0.50698072 0.096189491 0.0011692774
0.50458753 0.097492971 -0.00060384849
0.5362854 0.028909096 0.023287673
0.53550148 0.029766139 0.022692787
0.53552705 0.030608652 0.022687653
0.53555268 0.031451166 0.022682518
0.53557825 0.032293681 0.022677384
0.53560388 0.033136196 0.022672251
0.53482032 0.034002792 0.022077342
0.53565508 0.034821223 0.022661982
0.53568071 0.035663739 0.022656849
0.53570634 0.036506251 0.022651713
0.53573191 0.037348766 0.02264658
0.53575754 0.038191281 0.022641446
0.53578317 0.039033797 0.022636311
0.53580874 0.039876308 0.022631178
0.53583437 0.040718824 0.022626044
0.53586 0.041561339 0.022620909
0.53588557 0.042403851 0.022615775
0.53510255 0.043287966 0.022020761
0.53512818 0.044132076 0.022015618
0.53434527 0.045020968 0.021420574
0.53437096 0.045866668 0.02141542
0.53358823 0.046760339 0.020820346
0.53361398 0.04760763 0.020815182
0.53283131 0.048506085 0.020220047
0.53285706 0.04935497 0.020214874
0.53207463 0.050258197 0.019619742
0.53210044 0.051108677 0.019614561
0.53131813 0.052016679 0.019019399
0.53134406 0.05286875 0.019014206
0.53056186 0.053781535 0.018419018
0.53058779 0.054635197 0.018413816
0.52980572 0.055552758 0.017818596
0.52983177 0.056408014 0.017813385
0.52904981 0.057330359 0.017218102
0.52907586 0.058187205 0.017212881
0.52829409 0.059114322 0.016617604
0.52751243 0.060044628 0.016022308
0.5275386 0.060904659 0.016017066
0.52675706 0.061839741 0.015421741
0.52597558 0.062778011 0.014826361
0.52600187 0.063641228 0.014821101
0.52522057 0.06458427 0.014225728
0.52524686 0.065449089 0.014220458
0.52446574 0.066396907 0.013625054
0.52368474 0.067347914 0.013029631
0.52371109 0.068215914 0.013024341
0.5229302 0.069171697 0.012428891
0.52214938 0.070130669 0.011833385
0.52217585 0.071001858 0.011828076
0.52139521 0.071965605 0.011232575
0.52061468 0.072932534 0.010637055
0.52064127 0.073806904 0.010631727
0.51986086 0.074778616 0.010036178
0.51988751 0.075654574 0.010030841
0.51910722 0.076631062 0.0094352644
0.51913393 0.077508613 0.0094299167
0.51835376 0.078489885 0.0088342745
0.51838046 0.079369038 0.0088289175
0.51840723 0.080248185 0.0088235606
0.5176273 0.081235819 0.0082279136
0.51765406 0.082116559 0.0082225474
0.51768082 0.082997292 0.0082171801
0.51690114 0.083991304 0.0076214951
0.51612151 0.084988497 0.0070257909
0.51614839 0.085872419 0.0070204041
0.51536882 0.086874403 0.0064246356
0.51458949 0.087879561 0.005828883
0.51381016 0.0888879 0.0052331132
0.51303101 0.089899428 0.0046373215
0.51305807 0.09078972 0.0046318965
0.51227903 0.091806024 0.0040360754
0.5115 0.092825525 0.0034402001
0.51072121 0.093848199 0.0028443404
0.50994241 0.094874062 0.0022484614
0.50674599 0.096300259 -0.00011877276
0.52792478 0.029048318 0.016136354
0.5344184 0.029778102 0.02085886
0.53444415 0.030623803 0.020853706
0.53446984 0.031469502 0.020848552
0.53368723 0.03233606 0.020252412
0.53452122 0.033160899 0.020838246
0.53373879 0.034030646 0.020242086
0.53457266 0.0348523 0.020827938
0.5354321 0.036514875 0.021408668
0.53545779 0.037358981 0.021403523
0.53548342 0.03820309 0.021398379
0.53550911 0.039047197 0.021393236
0.53553474 0.039891303 0.021388091
0.53556037 0.040735409 0.021382948
0.53558606 0.041579518 0.021377804
0.53561169 0.042423621 0.021372661
0.53482974 0.043309294 0.020776404
0.53485543 0.044154994 0.02077125
0.53488111 0.045000695 0.020766096
0.53409934 0.045892734 0.0201698
0.53412509 0.046740025 0.020164637
0.53334337 0.047636848 0.019568276
0.53336918 0.048485734 0.019563103
0.53258765 0.049387328 0.018966749
0.53261352 0.050237808 0.018961567
0.5318321 0.051144183 0.018365184
0.53185803 0.05199625 0.018359991
0.53107679 0.052907407 0.017763579
0.53029567 0.053821743 0.017167147
0.53032166 0.054676998 0.017161936
0.52954066 0.055596117 0.01656544
0.52956671 0.056452967 0.016560219
0.52878582 0.057376862 0.015963728
0.52881193 0.058235303 0.015958497
0.52803123 0.059163973 0.015361978
0.5280574 0.060024008 0.015356737
0.52727681 0.060957458 0.014760189
0.52649635 0.061894096 0.014163586
0.52652258 0.062757313 0.014158326
0.52574223 0.063698731 0.013561729
0.52576852 0.064563535 0.01355646
0.52498841 0.065509729 0.012959834
0.52420831 0.066459104 0.012363189
0.52423471 0.067327105 0.012357899
0.52345479 0.068281263 0.011761224
0.52348119 0.06915085 0.011755925
0.52270138 0.070109785 0.011159186
0.52192169 0.0710719 0.010562464
0.52114213 0.072037213 0.0099657215
0.52116871 0.072911575 0.0099603934
0.52038926 0.073881656 0.0093636215
0.5204159 0.074757613 0.0093582841
0.51963663 0.07573247 0.0087614832
0.51966327 0.076610029 0.0087561356
0.51888412 0.077589668 0.0081592696
0.51891083 0.078468807 0.0081539126
0.51893753 0.079347961 0.0081485556
0.51815861 0.08033397 0.0075516868
0.51818538 0.081214704 0.0075463201
0.51821214 0.082095444 0.0075409529
0.51743335 0.083087817 0.0069440459
0.51665473 0.084083378 0.0063471193
0.51668155 0.0849673 0.006341733
0.515903 0.085967652 0.0057447422
0.51512462 0.086971179 0.0051477659
0.5143463 0.087977894 0.0045507713
0.51356804 0.08898779 0.0039537572
0.5135951 0.089878082 0.0039483318
0.51281703 0.090892754 0.0033512888
0.51203901 0.091910623 0.0027541914
0.5073182 0.096278608 -0.00081762165
0.53255785 0.030656436 0.018422591
0.533391 0.031487685 0.019009618
0.53341681 0.03233657 0.019004446
0.53344262 0.033185456 0.018999271
0.53346843 0.034034338 0.018994099
0.53349417 0.034883223 0.018988926
0.53432715 0.035704914 0.019576047
0.53515995 0.036523424 0.020163152
0.53518564 0.037369121 0.020158
0.53521132 0.038214821 0.020152846
0.53523701 0.039060522 0.020147692
0.53526276 0.039906222 0.020142538
0.53528845 0.040751919 0.020137386
0.53531414 0.04159762 0.020132232
0.53533989 0.04244332 0.020127079
0.53455889 0.043330543 0.019529579
0.5345847 0.044177834 0.019524416
0.53461045 0.045025129 0.019519253
0.53382963 0.045918725 0.018921679
0.53385544 0.046767611 0.018916506
0.53307486 0.047665983 0.01831894
0.53310066 0.048516463 0.018313756
0.5323202 0.049419615 0.01771616
0.53234613 0.050271686 0.017710967
0.53156579 0.051179614 0.017113341
0.53159177 0.052033275 0.017108139
0.53081161 0.052945983 0.016510485
0.5308376 0.053801239 0.016505273
0.53005749 0.054718729 0.015907554
0.53008354 0.055575576 0.015902333
0.52930367 0.056497842 0.015304619
0.52932978 0.057356279 0.015299388
0.52855003 0.058283322 0.014701648
0.5277704 0.059213545 0.014103886
0.52779657 0.060075175 0.014098635
0.52701706 0.061010182 0.013500809
0.52704328 0.061873402 0.013495549
0.52626395 0.062813185 0.01289773
0.52629024 0.063677996 0.01289246
0.52551103 0.064622559 0.012294611
0.52473193 0.065570302 0.011696743
0.52475828 0.066438295 0.011691454
0.52397937 0.067390822 0.011093556
0.52400577 0.068260409 0.011088257
0.52322692 0.069217719 0.010490295
0.52244818 0.070178203 0.0098923501
0.52166957 0.071141876 0.0092943842
0.52169615 0.072016247 0.0092890561
0.52091771 0.072984695 0.0086910622
0.5209443 0.073860653 0.0086857248
0.52016598 0.074833877 0.0080877012
0.52019268 0.075711429 0.0080823535
0.51941442 0.076689444 0.0074842651
0.51944113 0.077568591 0.0074789077
0.51946789 0.078447729 0.0074735507
0.51868987 0.079432115 0.00687546
0.51871663 0.080312848 0.0068700928
0.5187434 0.081193589 0.0068647261
0.51796561 0.082184337 0.0062665953
0.51718789 0.083178267 0.0056684464
0.51721478 0.084062189 0.0056630601
0.51643717 0.085060909 0.005064846
0.51565975 0.086062796 0.0044666473
0.51488239 0.087067887 0.0038684304
0.51410508 0.088076152 0.0032701928
0.51413214 0.088966444 0.0032647676
0.51335508 0.089979485 0.0026665009
0.51338214 0.090871371 0.0026610661
0.5078904 0.096256964 -0.001516472
0.52989721 0.031563286 0.015385427
0.53072959 0.032399349 0.015973693
0.53075558 0.033254605 0.015968481
0.53158778 0.034085892 0.016556742
0.53241986 0.034913994 0.017145021
0.53325182 0.035738911 0.017733321
0.53408366 0.03656064 0.018321639
0.53491551 0.037379187 0.018910011
0.53494126 0.038226478 0.018904848
0.53496701 0.039073769 0.018899685
0.53499275 0.03992106 0.018894522
0.5350185 0.040768355 0.018889358
0.53504425 0.041615646 0.018884195
0.53507006 0.042462938 0.018879032
0.53509581 0.043310229 0.018873869
0.53431588 0.044200603 0.018275082
0.53434169 0.045049489 0.01826991
0.533562 0.045944639 0.017671129
0.53358787 0.046795119 0.017665947
0.53361374 0.047645595 0.017660763
0.53283423 0.048547115 0.017061945
0.5328601 0.049399186 0.017056752
0.53208077 0.050305486 0.016457904
0.5321067 0.051159147 0.016452702
0.53132749 0.052070223 0.015853824
0.53135347 0.052925479 0.015848612
0.53057438 0.053841338 0.01524967
0.52979541 0.054760378 0.014650744
0.52982152 0.055618819 0.014645513
0.52904272 0.056542635 0.014046558
0.52906883 0.057402667 0.014041318
0.52829015 0.058331266 0.013442333
0.52831632 0.059192888 0.013437083
0.52753776 0.060126267 0.012838034
0.52756399 0.060989488 0.012832774
0.52678561 0.061927639 0.012233731
0.5268119 0.06279245 0.012228462
0.52603364 0.063735381 0.011629391
0.5252555 0.064681493 0.0110303
0.52528191 0.065549485 0.01102501
0.52450389 0.066500381 0.01042589
0.52372599 0.067454465 0.009826716
0.52375245 0.068325646 0.0098214066
0.52297467 0.069284506 0.0092222383
0.52219701 0.070246547 0.0086230505
0.52222359 0.07112091 0.0086177224
0.52144611 0.072087735 0.0080185048
0.52147269 0.072963692 0.0080131674
0.52069533 0.073935293 0.0074139209
0.52072203 0.074812844 0.0074085733
0.51994473 0.075789221 0.0068092616
0.51997149 0.076668367 0.0068039042
0.51999819 0.077547513 0.0067985472
0.51922119 0.078530252 0.0061992328
0.51924795 0.079411 0.006193866
0.51927471 0.080291733 0.0061884988
0.51849788 0.08128085 0.0055891462
0.51772112 0.082273155 0.0049897735
0.517748 0.083157077 0.0049843872
0.51697135 0.084154159 0.0043849507
0.51619488 0.085154422 0.0037855299
0.51541847 0.086157873 0.0031860897
0.51464218 0.087164514 0.0025866299
0.51466924 0.088054806 0.0025812048
0.51389307 0.089066215 0.0019817159
0.51392019 0.089958102 0.0019762809
0.51314414 0.090974301 0.0013767265
0.5123682 0.091993675 0.00077718921
0.51159239 0.093016237 0.00017763246
0.510041 0.095070921 -0.0010215393
0.52971315 0.034137219 0.014111953
0.53134948 0.034944613 0.015296186
0.53298563 0.035745636 0.016480422
0.53381652 0.036568996 0.017069962
0.53384238 0.037419476 0.01706478
0.53467315 0.03823806 0.01765435
0.53469896 0.039086945 0.017649177
0.53472477 0.039935827 0.017644005
0.53475058 0.040784713 0.017638832
0.53477639 0.041633599 0.01763366
0.5348022 0.042482484 0.017628485
0.53482795 0.043331366 0.017623313
0.53404921 0.044223294 0.017023319
0.53407502 0.045073774 0.017018136
0.53410089 0.04592425 0.017012954
0.53332233 0.046822548 0.016412921
0.5333482 0.047674615 0.01640773
0.53337413 0.048526686 0.016402537
0.53259569 0.049431354 0.015802465
0.53181744 0.050339207 0.015202376
0.53184342 0.051194463 0.015197164
0.53106523 0.052107096 0.014597009
0.53109127 0.052963946 0.014591787
0.53031325 0.053881355 0.013991638
0.53033936 0.054739796 0.013986407
0.52956152 0.05566198 0.013386229
0.52958763 0.056522015 0.013380989
0.52880991 0.057448983 0.012780782
0.52803224 0.058379136 0.01218052
0.52805847 0.059242353 0.01217526
0.52808475 0.060105573 0.01217
0.52730733 0.061042093 0.011569734
0.52733362 0.061906904 0.011564463
0.52655631 0.062848203 0.01096417
0.52658266 0.063714609 0.01095889
0.52580553 0.064660683 0.010358566
0.52502847 0.065609947 0.0097582238
0.52505493 0.066479534 0.0097529246
0.52427799 0.067433581 0.0091525167
0.52350116 0.068390802 0.0085521266
0.52272445 0.069351211 0.007951715
0.52275103 0.070225582 0.0079463869
0.5219745 0.071190767 0.0073459474
0.52200115 0.072066732 0.0073406096
0.52122474 0.0730367 0.0067401398
0.52125138 0.073914252 0.0067347921
0.52047509 0.074888997 0.0061342581
0.52050179 0.075768143 0.0061289012
0.51972568 0.076747663 0.0055283746
0.51975244 0.077628404 0.0055230074
0.51977921 0.078509137 0.0055176406
0.51900327 0.079495035 0.0049170735
0.51903009 0.080377363 0.004911697
0.51825434 0.081368037 0.0043111024
0.51828122 0.082251959 0.0043057161
0.51750553 0.083247416 0.0037050559
0.51673001 0.084246047 0.0031044127
0.51595455 0.085247867 0.002503749
0.51517922 0.086252868 0.001903067
0.51520628 0.087143168 0.0018976418
0.51443106 0.088152945 0.0012969293
0.51445818 0.089044832 0.0012914944
0.51368308 0.0900594 0.00069071789
0.5129081 0.091077149 8.9958354e-05
0.51213324 0.092098072 -0.00051082205
0.51216054 0.092994735 -0.00051628606
0.5113858 0.094020449 -0.0011170942
0.5114131 0.094918706 -0.0011225679
0.51570123 0.031885378 0.0027368304
0.51894522 0.032689657 0.0051151291
0.53028315 0.034975078 0.013442386
0.53111333 0.03580644 0.014033109
0.53355139 0.036577277 0.015815822
0.53438127 0.037399083 0.016406605
0.53440714 0.038249563 0.016401423
0.53443295 0.03910004 0.016396239
0.53445882 0.039950516 0.016391058
0.53448468 0.040800996 0.016385876
0.53451055 0.041651472 0.016380692
0.53453636 0.042501949 0.01637551
0.53456223 0.043352429 0.016370328
0.5345881 0.044202905 0.016365144
0.53381038 0.045097977 0.015763899
0.53383631 0.045950048 0.015758706
0.53386223 0.046802118 0.015753515
0.53308475 0.04770356 0.01515223
0.53311068 0.048557226 0.015147028
0.53233331 0.049463447 0.014545714
0.53235936 0.050318703 0.014540503
0.53158212 0.051229704 0.013939125
0.53160816 0.052086554 0.013933903
0.5308311 0.053002335 0.013332533
0.53085721 0.053860776 0.013327301
0.53008026 0.054781329 0.012725901
0.53010643 0.055641361 0.012720659
0.52932966 0.056566697 0.01211923
0.52855295 0.057495221 0.011517745
0.52857924 0.058358438 0.011512483
0.52780271 0.059291735 0.010911006
0.52782899 0.06015655 0.010905735
0.52705264 0.061094623 0.010304229
0.52707893 0.061961025 0.01029895
0.52630275 0.062903881 0.0096974131
0.5263291 0.063771874 0.0096921241
0.52555305 0.064719506 0.0090905577
0.524777 0.065670326 0.0084889363
0.52480352 0.066541508 0.0084836278
0.52402765 0.067497104 0.007882013
0.52325189 0.068455882 0.0072803809
0.52327847 0.069330253 0.0072750528
0.5225029 0.070293806 0.0066733896
0.52252954 0.071169771 0.0066680517
0.52175409 0.072138108 0.00606636
0.52178073 0.07301566 0.0060610124
0.52100539 0.073988773 0.0054592546
0.52103215 0.074867919 0.0054538976
0.520257 0.075845815 0.0048521473
0.52028376 0.076726548 0.0048467806
0.51950872 0.07770922 0.0042450023
0.51953554 0.078591548 0.0042396258
0.51876068 0.079578996 0.0036378172
0.51878756 0.080462918 0.0036324309
0.51801276 0.081455149 0.003030557
0.5180397 0.082340665 0.0030251609
0.51726514 0.083337665 0.0024232941
0.51649064 0.084337853 0.0018214082
0.51571625 0.08534123 0.001219504
0.51574332 0.086231522 0.0012140789
0.51496911 0.087239675 0.00061214418
0.51419491 0.088251024 1.0153794e-05
0.51422209 0.089144506 4.7091703e-06
0.51344806 0.090160616 -0.00059727399
0.51347524 0.091055684 -0.00060272828
0.51270139 0.092076577 -0.0012047405
0.5300501 0.035839979 0.012175626
0.53248531 0.036614113 0.013962016
0.53411722 0.037408918 0.015151219
0.53414309 0.038260989 0.015146027
0.53416902 0.03911306 0.015140835
0.5349977 0.039930128 0.015732881
0.53422081 0.040817197 0.015130451
0.53424668 0.041669268 0.015125258
0.53427261 0.042521339 0.015120066
0.53429848 0.04337341 0.015114874
0.53432441 0.04422548 0.015109682
0.53435028 0.045077551 0.015104489
0.53357375 0.045975771 0.014501993
0.53359967 0.046829432 0.01449679
0.53282326 0.047732431 0.013894265
0.53284925 0.048587687 0.013889053
0.5320729 0.049495466 0.013286461
0.53209895 0.050352316 0.01328124
0.53132284 0.051264871 0.012678654
0.53134894 0.052123312 0.012673423
0.53057295 0.053040646 0.012070809
0.53059912 0.053900678 0.012065569
0.52982324 0.054822788 0.011462927
0.52984941 0.055684414 0.011457676
0.52907372 0.056611307 0.010854968
0.52909994 0.057474524 0.010849708
0.52832437 0.058406189 0.010247007
0.52835065 0.059271 0.010241738
0.52757525 0.060207449 0.0096390061
0.5276016 0.061073851 0.0096337264
0.52682632 0.062015072 0.009030968
0.52685273 0.062883072 0.009025678
0.52607763 0.063829072 0.0084228888
0.52530253 0.064778261 0.0078200465
0.52532899 0.065649442 0.007814738
0.52455413 0.066603407 0.0072118999
0.52377939 0.067560554 0.006609044
0.52380592 0.068434916 0.0066037159
0.52303129 0.069396846 0.0060008308
0.52305794 0.070272803 0.0059954929
0.52228343 0.071239509 0.005392577
0.52231014 0.072117068 0.0053872298
0.52153575 0.073088557 0.0047842502
0.52156246 0.073967695 0.0047788927
0.52078825 0.07494396 0.0041759205
0.52081501 0.075824693 0.0041705533
0.52004099 0.076805733 0.0035675517
0.52006781 0.077688068 0.0035621752
0.5192939 0.078673877 0.0029591431
0.51932079 0.079557806 0.0029537566
0.51854694 0.080548406 0.0023506605
0.51777327 0.081542186 0.0017475814
0.51780027 0.082429297 0.0017421757
0.51702672 0.083427846 0.0011390673
0.51625329 0.084429592 0.00053593825
0.51628035 0.085319884 0.000530513
0.5155071 0.086326405 -7.2643772e-05
0.51473385 0.087336123 -0.00067585637
0.51396078 0.088349015 -0.001279052
0.51398802 0.089244083 -0.0012845063
0.51364338 0.032812472 -0.0010351881
0.52818888 0.035900362 0.0097147571
0.53142321 0.036650795 0.012103246
0.53385514 0.037418675 0.013893371
0.53388113 0.03827234 0.013888169
0.53390706 0.039126001 0.013882968
0.53473479 0.039944701 0.014476236
0.53395897 0.040833328 0.013872564
0.5339849 0.041686989 0.013867361
0.53401083 0.042540651 0.01386216
0.53403682 0.043394316 0.013856958
0.53406274 0.044247977 0.013851755
0.53328717 0.04514616 0.013248027
0.53331316 0.046001416 0.013242816
0.5333392 0.046856672 0.013237604
0.53256375 0.047761228 0.012633799
0.53258979 0.048618075 0.012628577
0.53261584 0.049474925 0.012623356
0.53184068 0.050385848 0.012019548
0.53186679 0.051244289 0.012014316
0.53109175 0.052159991 0.011410481
0.53111786 0.053020027 0.01140524
0.530343 0.053940505 0.010801374
0.53036922 0.054802131 0.010796124
0.52959442 0.055727392 0.010192194
0.52962065 0.056590609 0.010186933
0.52884609 0.057520647 0.0095830094
0.52887237 0.058385458 0.0095777391
0.52809793 0.059320271 0.0089737857
0.52812421 0.060186677 0.008968506
0.52734995 0.061126266 0.0083645238
0.52657574 0.062069044 0.007760522
0.52660215 0.062938631 0.0077552227
0.52582806 0.063886188 0.0071511567
0.52585453 0.064757377 0.0071458481
0.52508062 0.065709703 0.0065417881
0.52430683 0.066665225 0.0059377085
0.52433336 0.067539595 0.0059323804
0.52355969 0.068499885 0.0053282715
0.52358633 0.06937585 0.0053229337
0.52281284 0.070340917 0.0047187973
0.52283949 0.071218468 0.0047134496
0.52206606 0.072188333 0.0041092467
0.52209276 0.073067479 0.0041038892
0.52131957 0.074042104 0.0034996946
0.52134633 0.074922845 0.0034943277
0.5205732 0.075902253 0.0028901026
0.51980025 0.076884843 0.0022858582
0.51982713 0.077768765 0.0022804716
0.51905423 0.078756139 0.0016761632
0.51908112 0.079641663 0.0016707671
0.5183084 0.080633812 0.0010664642
0.51753581 0.081629142 0.00046214211
0.51756281 0.082517847 0.00045672659
0.51679039 0.083517954 -0.0001476247
0.51681745 0.084408246 -0.0001530499
0.51604509 0.085413136 -0.00075743033
0.51527286 0.086421221 -0.0013618651
0.53199321 0.037488658 0.011433678
0.53282022 0.038315356 0.012028129
0.53364712 0.039138868 0.012622636
0.53367311 0.039994124 0.012617424
0.5336991 0.04084938 0.012612212
0.53372508 0.041704636 0.012607001
0.53375113 0.042559892 0.012601789
0.53377712 0.043415144 0.012596577
0.53380311 0.0442704 0.012591366
0.53302854 0.04517014 0.011986358
0.53305459 0.04602699 0.011981137
0.53308064 0.046883836 0.011975915
0.53310668 0.047740683 0.011970694
0.53233242 0.048648387 0.011365674
0.53235853 0.049506828 0.011360442
0.53158438 0.050419305 0.010755392
0.53161055 0.051279336 0.010750151
0.53163666 0.052139372 0.01074491
0.53086275 0.053058222 0.010139822
0.5300889 0.053980257 0.0095346775
0.53011513 0.054843478 0.0095294174
0.53014135 0.055706695 0.0095241573
0.52936774 0.0566351 0.0089190109
0.52939403 0.057499912 0.0089137414
0.52862054 0.058433093 0.0083085652
0.52864689 0.059299499 0.0083032856
0.52787352 0.06023746 0.0076980796
0.52710027 0.061178606 0.0070928559
0.52712673 0.062048193 0.0070875566
0.5263536 0.062994123 0.0064822673
0.52638006 0.063865304 0.0064769583
0.52560711 0.064816006 0.0058716759
0.52483428 0.065769896 0.0052663744
0.52486086 0.066644259 0.0052610463
0.52408814 0.067602925 0.0046557141
0.52411473 0.068478882 0.0046503763
0.52334219 0.069442332 0.0040450161
0.52256966 0.070408963 0.0034396003
0.52259636 0.071288101 0.0034342431
0.52262312 0.072167255 0.0034288859
0.52185082 0.073140256 0.0028234676
0.52187759 0.074020989 0.0028181006
0.52110547 0.074998766 0.0022126534
0.52033347 0.075979732 0.0016071867
0.52036029 0.076863654 0.0016018003
0.51958835 0.077849396 0.00099626812
0.51881659 0.078838319 0.00039075149
0.51884353 0.079725429 0.00038534566
0.51807189 0.080719136 -0.00022019866
0.51730037 0.081716023 -0.0008257624
0.51732743 0.082606316 -0.00083118764
0.51735449 0.083496608 -0.00083661283
0.51658314 0.084499866 -0.0014422154
0.53176337 0.038358219 0.010163194
0.53258932 0.039184958 0.010758878
0.53261542 0.040043399 0.010753646
0.53344125 0.040865358 0.01134936
0.53346729 0.041722205 0.011344138
0.53349334 0.042579055 0.011338917
0.53351939 0.043435901 0.011333695
0.5327459 0.0443356 0.010727491
0.532772 0.045194041 0.01072226
0.53279805 0.046052482 0.010717029
0.53282416 0.046910923 0.010711798
0.53285027 0.047769364 0.010706567
0.53207707 0.048678618 0.010100304
0.53210318 0.049538653 0.010095063
0.53212935 0.050398685 0.010089822
0.53135633 0.051314309 0.0094835199
0.5313825 0.052175935 0.0094782691
0.53060961 0.053096347 0.0088719036
0.53063583 0.053959563 0.0088666435
0.52986312 0.054884743 0.0082602827
0.5298894 0.055749554 0.0082550133
0.52911687 0.056679517 0.0076486235
0.52914315 0.057545919 0.0076433439
0.5291695 0.058412321 0.0076380642
0.52839714 0.05934865 0.0070316372
0.52762485 0.060288168 0.0064251898
0.52765131 0.061157759 0.0064198906
0.52687913 0.062102053 0.0058133788
0.52610707 0.063049532 0.0052068825
0.5261336 0.063922308 0.0052015642
0.52536172 0.064874567 0.0045950389
0.5253883 0.06574893 0.0045897109
0.52461654 0.066705965 0.0039831563
0.52464312 0.067581922 0.0039778184
0.52387154 0.068543732 0.0033712364
0.52310002 0.069508739 0.0027645971
0.52312672 0.070387885 0.0027592396
0.52235538 0.07135766 0.0021526092
0.52238214 0.072238401 0.0021472422
0.52161092 0.073212951 0.0015405809
0.52163774 0.074095279 0.0015352042
0.52086663 0.075074613 0.00092851394
0.52009565 0.076057136 0.00032176924
0.52012253 0.076942645 0.00031637319
0.51935172 0.077929944 -0.00029036566
0.51858097 0.078920424 -0.00089712249
0.51860797 0.079809129 -0.00090253801
0.53153563 0.039230891 0.0088902228
0.53236061 0.040057667 0.0094871391
0.53238672 0.040917698 0.0094818985
0.53321153 0.041739698 0.010078846
0.53323764 0.042598139 0.010073614
0.53326374 0.04345658 0.010068383
0.53328985 0.044315021 0.010063152
0.53251743 0.045217864 0.0094556948
0.5325436 0.0460779 0.0094504533
0.53256971 0.046937931 0.0094452128
0.53259587 0.047797967 0.0094399722
0.53262198 0.048657998 0.0094347317
0.53184992 0.049570404 0.0088272169
0.53187609 0.050432026 0.0088219661
0.53110409 0.051349211 0.0082143862
0.53113031 0.052212428 0.0082091261
0.5311566 0.053075649 0.008203866
0.53038484 0.0539992 0.0075962832
0.53041112 0.054864012 0.0075910133
0.52963948 0.055792335 0.0069834017
0.52966583 0.056658745 0.0069781221
0.52889436 0.057591848 0.0063704811
0.52892077 0.058459844 0.0063651921
0.52814943 0.059397727 0.0057575223
0.52737814 0.060338803 0.0051497966
0.52740461 0.061209988 0.0051444876
0.52663356 0.062155832 0.0045367694
0.52666008 0.063028604 0.004531451
0.52588916 0.063979231 0.0039237035
0.52511829 0.064933047 0.0033159351
0.52514493 0.065809004 0.0033105973
0.52437425 0.066767588 0.0027028013
0.52440089 0.067645147 0.0026974536
0.52363032 0.068608515 0.0020895922
0.52365702 0.069487661 0.002084235
0.52288663 0.070455804 0.0014763806
0.5229134 0.071336538 0.0014710136
0.52214319 0.072309464 0.00086313026
0.52216995 0.073191799 0.00085775356
0.52139986 0.074169494 0.0002498411
0.52062982 0.075150393 -0.00035812717
0.51985991 0.076134458 -0.00096607843
0.51988685 0.077021569 -0.00097148423
0.52806604 0.038506739 0.0052117337
0.52968812 0.039309893 0.0064132148
0.53051221 0.040141482 0.0070113339
0.53213394 0.040933482 0.0082129193
0.53216016 0.041795112 0.0082076686
0.53218633 0.042656735 0.0082024178
0.53221256 0.043518361 0.0081971679
0.53223872 0.044379987 0.0081919171
0.53226489 0.045241613 0.0081866663
0.53229111 0.046103239 0.0081814155
0.53231728 0.046964865 0.0081761656
0.53154612 0.047875639 0.0075673922
