# .PCD v0.7 - Point Cloud Data file format
VERSION 0.7
FIELDS x y z
SIZE 4 4 4
TYPE F F F
COUNT 1 1 1
WIDTH 1369
HEIGHT 1
VIEWPOINT 0 0 0 1 0 0 0
POINTS 1369
DATA ascii
0.4534615 0.04791509 0.034996402
0.45348981 0.048846796 0.034990724
0.45351812 0.049778495 0.034985047
0.45354646 0.050710201 0.034979369
0.45270276 0.051693872 0.034461413
0.45273113 0.052627169 0.034455724
0.4527595 0.053560466 0.034450036
0.45278788 0.054493759 0.034444351
0.45281625 0.055427056 0.034438662
0.45197284 0.056420285 0.033920646
0.45200127 0.057355173 0.03391495
0.45115802 0.058353182 0.033396903
0.45118648 0.05928966 0.033391196
0.45121494 0.060226142 0.033385493
0.45037186 0.061230525 0.032867376
0.45127189 0.062099103 0.033374079
0.45042887 0.063106671 0.032855943
0.45045739 0.064044744 0.032850225
0.45048591 0.064982817 0.03284451
0.44964314 0.065996751 0.032326367
0.44914138 0.0011713316 0.032507259
0.4491699 0.0021094081 0.032501545
0.44919842 0.0030474812 0.032495826
0.44922695 0.003985554 0.032490112
0.45012891 0.0049513266 0.032997455
0.45015737 0.0058878097 0.032991748
0.45018584 0.006824289 0.032986041
0.4502143 0.0077607702 0.032980334
0.45024276 0.008697249 0.032974631
0.45027125 0.009633732 0.032968923
0.45117283 0.010588354 0.033476301
0.45120123 0.011523242 0.033470605
0.45122966 0.012458134 0.033464909
0.45213103 0.013406387 0.033972327
0.4521594 0.01433968 0.033966638
0.45218778 0.015272976 0.033960953
0.45221615 0.016206272 0.033955265
0.45224452 0.017139567 0.033949576
0.45227289 0.018072862 0.033943892
0.45230126 0.019006159 0.033938203
0.45232961 0.019939452 0.033932514
0.45235798 0.020872749 0.03392683
0.45238635 0.021806043 0.033921141
0.45241472 0.02273934 0.033915453
0.45244309 0.023672635 0.033909768
0.45247146 0.02460593 0.033904079
0.45249984 0.025539225 0.033898391
0.45252818 0.02647252 0.033892706
0.45255655 0.027405817 0.033887018
0.45258492 0.028339112 0.033881329
0.45261329 0.029272407 0.033875644
0.45264167 0.030205702 0.033869956
0.45267004 0.031138998 0.033864267
0.45269841 0.032072295 0.033858582
0.45272678 0.033005588 0.033852894
0.45275512 0.033938885 0.033847205
0.4527835 0.034872182 0.033841521
0.45281187 0.035805475 0.033835832
0.45284024 0.036738772 0.033830144
0.45286861 0.037672065 0.033824459
0.45289698 0.038605362 0.03381877
0.45292535 0.039538655 0.033813082
0.4529537 0.040471952 0.033807397
0.45298207 0.041405249 0.033801708
0.45301044 0.042338543 0.03379602
0.45303881 0.04327184 0.033790335
0.45306718 0.044205133 0.033784647
0.45309556 0.04513843 0.033778962
0.45312393 0.046071727 0.033773273
0.4531523 0.04700502 0.033767585
0.45318064 0.047938317 0.0337619
0.45320901 0.048871614 0.033756211
0.45323738 0.049804907 0.033750523
0.45326576 0.050738204 0.033744838
0.45329413 0.051671498 0.03373915
0.4533225 0.052604795 0.033733461
0.45335087 0.053538088 0.033727776
0.45337924 0.054471385 0.033722088
0.45253679 0.055462983 0.033202849
0.45256522 0.05639787 0.03319715
0.45259362 0.057332758 0.033191454
0.45262206 0.058267646 0.033185758
0.45177987 0.059267208 0.032666471
0.45180833 0.06020369 0.032660764
0.45183679 0.061140172 0.032655057
0.45099476 0.062146105 0.032135699
0.45102325 0.063084178 0.032129981
0.45105177 0.06402225 0.032124266
0.45108029 0.064960331 0.032118548
0.45110881 0.065898404 0.032112833
0.4511373 0.066836476 0.032107115
0.45060843 0.0011829517 0.032295547
0.45063689 0.0021194348 0.03228984
0.45066535 0.0030559141 0.032284133
0.45069382 0.003992395 0.03227843
0.45072228 0.0049288743 0.032272723
0.45075077 0.0058653574 0.032267015
0.45077923 0.0068018367 0.032261308
0.45080769 0.0077383178 0.032255601
0.45170835 0.008696164 0.032764196
0.45173678 0.0096310526 0.032758497
0.45176518 0.01056594 0.032752801
0.45179361 0.011500828 0.032747105
0.45182201 0.012435719 0.032741409
0.45185044 0.013370606 0.032735709
0.45187885 0.014305494 0.032730013
0.45277914 0.0152506 0.033238683
0.45280752 0.016183896 0.033232998
0.45283589 0.017117191 0.03322731
0.45286423 0.018050486 0.033221621
0.4528926 0.018983783 0.033215936
0.45292097 0.019917076 0.033210248
0.45294935 0.020850373 0.033204559
0.45297772 0.021783667 0.033198874
0.45300609 0.022716964 0.033193186
0.45303446 0.023650259 0.033187497
0.45306283 0.024583554 0.033181813
0.45221984 0.025524151 0.03266165
0.45224828 0.026459038 0.032655954
0.45227668 0.027393926 0.032650255
0.45230511 0.028328814 0.032644559
0.45233351 0.029263703 0.032638863
0.45236194 0.030198591 0.032633167
0.45239034 0.031133479 0.032627467
0.45241877 0.032068368 0.032621771
0.45244718 0.033003256 0.032616075
0.45247561 0.033938143 0.032610375
0.45250401 0.034873031 0.032604679
0.45253244 0.035807919 0.032598983
0.45256084 0.036742806 0.032593288
0.45258927 0.037677694 0.032587588
0.45261768 0.038612582 0.032581892
0.45264611 0.039547469 0.032576196
0.45267451 0.040482361 0.0325705
0.45270294 0.041417249 0.0325648
0.45273134 0.042352136 0.032559104
0.45363018 0.043249462 0.033068068
0.45365855 0.044182759 0.03306238
0.45368692 0.045116056 0.033056691
0.45371526 0.046049349 0.033051006
0.45374364 0.046982646 0.033045318
0.45377201 0.047915939 0.033039629
0.45380038 0.048849236 0.033033945
0.45382875 0.049782529 0.033028256
0.45385712 0.050715826 0.033022568
0.45301551 0.051701017 0.032502133
0.45304391 0.052635904 0.032496437
0.45307234 0.053570792 0.032490741
0.45310074 0.05450568 0.032485045
0.45312917 0.055440567 0.032479346
0.45315757 0.056375455 0.03247365
0.45318601 0.057310347 0.032467954
0.45234478 0.058308277 0.031947441
0.45237324 0.059244756 0.031941734
0.4524017 0.060181238 0.031936027
0.45243016 0.06111772 0.031930324
0.45245862 0.062054198 0.031924617
0.45161766 0.063061692 0.031404015
0.45164615 0.063999765 0.031398296
0.45167467 0.064937837 0.031392582
0.45170319 0.06587591 0.031386863
0.4508625 0.066891357 0.030866252
0.4512018 0.0011604996 0.031570818
0.45123026 0.0020969827 0.031565111
0.45125875 0.003033462 0.031559408
0.45128721 0.0039699432 0.031553701
0.45218706 0.0049341978 0.032063488
0.45134413 0.005842905 0.031542286
0.45224389 0.0068039745 0.032052092
0.4522723 0.0077388622 0.032046396
0.45230073 0.0086737499 0.0320407
0.45232913 0.0096086394 0.032035004
0.45235756 0.010543526 0.032029305
0.45238596 0.011478414 0.032023609
0.45241439 0.012413305 0.032017913
0.4524428 0.013348193 0.032012217
0.45247123 0.01428308 0.032006517
0.45249963 0.015217967 0.032000821
0.45252806 0.016152857 0.031995125
0.45255646 0.017087745 0.031989429
0.45258489 0.018022632 0.031983729
0.45261329 0.018957522 0.031978033
0.45264173 0.019892408 0.031972338
0.45267013 0.020827297 0.031966638
0.45269856 0.021762185 0.031960942
0.45272696 0.022697072 0.031955246
0.45275539 0.02363196 0.03194955
0.45278379 0.024566848 0.03194385
0.45281222 0.025501736 0.031938154
0.45284063 0.026436625 0.031932458
0.45286906 0.027371513 0.031926762
0.45289746 0.0283064 0.031921063
0.45292589 0.029241288 0.031915367
0.45295429 0.030176176 0.031909671
0.45298272 0.031111065 0.031903975
0.45301113 0.032045953 0.031898275
0.45303956 0.032980841 0.031892579
0.45306796 0.033915728 0.031886883
0.45309639 0.034850616 0.031881183
0.45312479 0.035785504 0.031875487
0.45315322 0.036720395 0.031869791
0.45318162 0.037655283 0.031864095
0.45321006 0.03859017 0.031858396
0.45323846 0.039525058 0.0318527
0.45326689 0.040459946 0.031847004
0.45329529 0.041394833 0.031841308
0.45332372 0.042329721 0.031835608
0.45335212 0.043264609 0.031829912
0.45338053 0.044199497 0.031824216
0.45340896 0.045134384 0.03181852
0.45343736 0.046069276 0.031812821
0.45346579 0.047004163 0.031807125
0.45349419 0.047939051 0.031801429
0.45352262 0.048873939 0.031795733
0.45355102 0.049808826 0.031790033
0.45357946 0.050743714 0.031784337
0.45360786 0.051678602 0.031778641
0.45363629 0.052613489 0.031772941
0.45366469 0.053548381 0.031767245
0.45369312 0.054483268 0.031761549
0.45372152 0.055418156 0.031755853
0.45374995 0.056353044 0.031750154
0.45290968 0.057349343 0.031228419
0.45293814 0.058285825 0.031222714
0.45296663 0.059222303 0.031217007
0.45299509 0.060158785 0.0312113
0.45302355 0.061095268 0.031205593
0.45218351 0.062101126 0.030683769
0.45221204 0.063039199 0.030678052
0.45224056 0.063977271 0.030672336
0.45140076 0.0649895 0.030150509
0.45142934 0.065929167 0.030144783
0.45058969 0.066946171 0.029622922
0.45176673 0.00020156804 0.030851793
0.45179519 0.0011380473 0.030846085
0.45182365 0.0020745303 0.030840378
0.45185211 0.0030110097 0.030834673
0.45188057 0.0039474908 0.030828966
0.45190904 0.0048839701 0.030823259
0.4519375 0.0058204527 0.030817552
0.45196599 0.006756932 0.030811846
0.45199445 0.0076934132 0.030806139
0.45202291 0.008629893 0.030800432
0.45205137 0.009566376 0.030794725
0.45294994 0.010521112 0.031305801
0.45297834 0.011456 0.031300101
0.45300677 0.012390891 0.031294405
0.45303518 0.013325778 0.031288709
0.45306361 0.014260666 0.03128301
0.45309201 0.015195553 0.031277314
0.45312044 0.016130442 0.031271618
0.45314884 0.017065329 0.031265922
0.45317727 0.018000217 0.031260222
0.45320567 0.018935107 0.031254526
0.45323411 0.019869993 0.03124883
0.45326251 0.020804882 0.031243132
0.45329091 0.02173977 0.031237436
0.45331934 0.022674659 0.031231739
0.45334774 0.023609545 0.031226043
0.45337617 0.024544435 0.031220345
0.45253527 0.025486546 0.030697713
0.45256373 0.026423028 0.030692006
0.45259219 0.027359508 0.030686298
0.45262066 0.028295988 0.030680593
0.45264912 0.029232468 0.030674886
0.45267758 0.030168951 0.030669179
0.45270607 0.031105431 0.030663472
0.45273453 0.032041911 0.030657766
0.45276299 0.032978393 0.030652059
0.45279145 0.033914872 0.030646352
0.45281991 0.034851354 0.030640645
0.45284837 0.035787836 0.03063494
0.45287684 0.036724314 0.030629233
0.4529053 0.037660796 0.030623525
0.45293376 0.038597278 0.03061782
0.45296225 0.039533757 0.030612113
0.45299071 0.040470239 0.030606406
0.45301917 0.041406717 0.030600699
0.45304763 0.042343199 0.030594993
0.45307609 0.043279681 0.030589286
0.45310456 0.04421616 0.030583579
0.45313302 0.045152642 0.030577872
0.45316148 0.04608912 0.030572167
0.45318997 0.047025602 0.03056646
0.45321843 0.047962084 0.030560752
0.454115 0.048851524 0.031072224
0.4541434 0.049786411 0.031066528
0.45330381 0.050771527 0.030543633
0.45333228 0.051708005 0.030537926
0.45336074 0.052644487 0.030532219
0.4533892 0.05358097 0.030526513
0.45341766 0.054517448 0.030520806
0.45344615 0.05545393 0.030515099
0.45347461 0.056390408 0.030509394
0.45350307 0.057326891 0.030503687
0.45353153 0.058263373 0.030497979
0.45355999 0.059199851 0.030492272
0.45358846 0.060136333 0.030486567
0.4527494 0.061140563 0.029963518
0.45277792 0.062078636 0.029957801
0.45193905 0.063087635 0.029434761
0.4519676 0.064027302 0.029429035
0.45199615 0.064966969 0.029423308
0.45115748 0.065982342 0.028900223
0.4503189 0.067000903 0.028377125
0.4506208 0.00010748414 0.029091213
0.45151895 0.0010813698 0.029603403
0.45154744 0.0020194463 0.029597687
0.45157596 0.0029575194 0.02959197
0.45247397 0.0039250385 0.030104237
0.45250243 0.0048615178 0.030098531
0.45253089 0.0057980008 0.030092824
0.45255935 0.0067344802 0.030087117
0.45258781 0.0076709613 0.03008141
0.45261627 0.0086074406 0.030075705
0.45264474 0.0095439237 0.030069998
0.4526732 0.010480403 0.03006429
0.45270169 0.011416884 0.030058583
0.45273015 0.012353365 0.030052878
0.45275861 0.013289846 0.030047171
0.45278707 0.014226325 0.030041464
0.45281553 0.015162806 0.030035757
0.45284399 0.016099287 0.030030051
0.45287246 0.017035769 0.030024344
0.45290092 0.017972248 0.030018637
0.45292938 0.01890873 0.03001293
0.45295787 0.01984521 0.030007225
0.45298633 0.020781692 0.030001517
0.45301479 0.021718172 0.02999581
0.45304325 0.022654653 0.029990105
0.45307171 0.023591133 0.029984398
0.45310017 0.024527613 0.029978691
0.45312864 0.025464093 0.029972984
0.4531571 0.026400575 0.029967278
0.45318556 0.027337056 0.029961571
0.45321405 0.028273536 0.029955864
0.45324251 0.029210018 0.029950157
0.45327097 0.030146498 0.029944452
0.45329943 0.031082978 0.029938744
0.45332789 0.032019459 0.029933037
0.45335636 0.032955941 0.02992733
0.45338482 0.033892419 0.029921625
0.45341328 0.034828901 0.029915918
0.45344177 0.035765383 0.029910211
0.45347023 0.036701862 0.029904503
0.45349869 0.037638344 0.029898798
0.45352715 0.038574826 0.029893091
0.45355561 0.039511304 0.029887384
0.45358407 0.040447786 0.029881679
0.45361254 0.041384265 0.029875971
0.453641 0.042320747 0.029870264
0.45366946 0.043257229 0.029864557
0.45369795 0.044193707 0.029858852
0.45372641 0.04513019 0.029853145
0.45375487 0.046066668 0.029847438
0.45378333 0.04700315 0.02984173
0.45381179 0.047939632 0.029836025
0.45384026 0.048876114 0.029830318
0.45386872 0.049812593 0.029824611
0.45389718 0.050749075 0.029818904
0.45392564 0.051685553 0.029813198
0.45395413 0.052622035 0.029807491
0.45398259 0.053558517 0.029801784
0.45401105 0.054494996 0.029796077
0.45403951 0.055431478 0.029790372
0.45406798 0.056367956 0.029784665
0.45322973 0.057365779 0.029260421
0.45325825 0.058303852 0.029254705
0.45328677 0.059241924 0.029248988
0.45331526 0.060179997 0.029243272
0.45334378 0.061118074 0.029237555
0.45250586 0.062125444 0.028713292
0.45253444 0.063065112 0.028707566
0.45256299 0.064004771 0.02870184
0.45172527 0.06501852 0.028177537
0.45088765 0.06603545 0.027653208
0.44918391 0.067132823 0.026610238
0.4503476 4.9100734e-05 0.02784487
0.45124477 0.0010246183 0.028358284
0.45127332 0.0019642885 0.028352559
0.45217037 0.0029350289 0.028866002
0.45306733 0.0039025859 0.029379498
0.45222738 0.0048111728 0.028854569
0.4522559 0.0057492494 0.028848853
0.45315275 0.0067120274 0.029362377
0.45318121 0.0076485085 0.029356671
0.45320967 0.0085849883 0.029350964
0.45323813 0.0095214713 0.029345257
0.45326659 0.01045795 0.02933955
0.45329505 0.011394431 0.029333845
0.45332351 0.012330912 0.029328138
0.45335197 0.013267393 0.02932243
0.45338047 0.014203873 0.029316723
0.45340893 0.015140354 0.029311018
0.45343739 0.016076835 0.029305311
0.45346585 0.017013317 0.029299604
0.45349431 0.017949795 0.029293897
0.45352277 0.018886277 0.029288191
0.45355123 0.019822758 0.029282484
0.45357969 0.020759238 0.029276777
0.45360816 0.021695718 0.029271072
0.45363665 0.0226322 0.029265365
0.45366511 0.023568681 0.029259657
0.45282617 0.024510717 0.028734526
0.45285466 0.02544879 0.028728809
0.45288318 0.026386864 0.028723093
0.4529117 0.027324937 0.028717376
0.45294023 0.02826301 0.028711662
0.45296872 0.029201085 0.028705945
0.45299724 0.030139158 0.028700229
0.45302576 0.03107723 0.028694512
0.45305428 0.032015305 0.028688796
0.45308277 0.032953378 0.028683079
0.45311129 0.033891451 0.028677363
0.45313981 0.034829523 0.028671646
0.45316833 0.0357676 0.02866593
0.45319682 0.036705673 0.028660214
0.45322534 0.037643746 0.028654497
0.45325387 0.038581818 0.028648781
0.45328236 0.039519891 0.028643064
0.45331088 0.040457964 0.028637348
0.4533394 0.04139604 0.028631631
0.45336792 0.042334113 0.028625915
0.45339641 0.043272186 0.028620198
0.45342493 0.044210259 0.028614482
0.45345345 0.045148332 0.028608765
0.45348197 0.046086404 0.028603049
0.45351046 0.047024481 0.028597334
0.45353898 0.047962554 0.028591618
0.4535675 0.048900627 0.028585901
0.45359603 0.049838699 0.028580185
0.45362452 0.050776772 0.028574469
0.45365304 0.051714845 0.028568752
0.45368156 0.052652918 0.028563036
0.45371008 0.053590994 0.028557319
0.45373857 0.054529067 0.028551603
0.45376709 0.05546714 0.028545886
0.45379561 0.056405213 0.02854017
0.45382413 0.057343289 0.028534453
0.45385262 0.058281362 0.028528737
0.45388114 0.059219435 0.02852302
0.45390967 0.060157508 0.028517304
0.4530727 0.06116325 0.027991816
0.45310128 0.062102918 0.027986091
0.45312983 0.063042581 0.027980365
0.45229307 0.06405469 0.027454838
0.45145643 0.065069988 0.026929293
0.45061982 0.066088475 0.026403695
0.44891816 0.067187369 0.025358276
0.44721672 0.068292633 0.024312817
0.4463805 0.06932386 0.023787143
0.44467941 0.07044027 0.022741621
0.44297844 0.071563058 0.021696031
0.44041279 0.072777398 0.020130549
0.4483124 -0.0010271771 0.025561055
0.4500764 -9.3589115e-06 0.026596069
0.45097262 0.00096779049 0.027110707
0.45186874 0.00194176 0.027625363
0.45189729 0.0028814229 0.027619638
0.45192584 0.0038210894 0.027613912
0.45282176 0.0047886823 0.028128609
0.45285028 0.0057267593 0.028122893
0.4528788 0.0066648321 0.028117176
0.45290732 0.0076029049 0.02811146
0.45293581 0.0085409777 0.028105743
0.45296434 0.0094790524 0.028100027
0.45299286 0.010417125 0.02809431
0.45302138 0.011355199 0.028088594
0.45304987 0.012293274 0.028082877
0.45307839 0.013231346 0.028077161
0.45310691 0.014169419 0.028071444
0.4531354 0.015107492 0.028065728
0.45316392 0.016045567 0.028060012
0.45319244 0.016983639 0.028054295
0.45322096 0.017921712 0.028048579
0.45324945 0.018859785 0.028042862
0.45327798 0.01979786 0.028037146
0.4533065 0.020735933 0.028031429
0.45333502 0.021674005 0.028025713
0.45336351 0.02261208 0.028019998
0.45339203 0.023550153 0.028014282
0.45342055 0.024488227 0.028008565
0.45344907 0.0254263 0.028002849
0.45347756 0.026364373 0.027997132
0.45350608 0.027302448 0.027991416
0.4535346 0.028240521 0.027985699
0.45356312 0.029178593 0.027979983
0.45359161 0.030116668 0.027974267
0.45362014 0.031054741 0.02796855
0.45364866 0.031992815 0.027962834
0.45281127 0.032950737 0.027436404
0.45283982 0.033890404 0.027430678
0.45286837 0.034830071 0.027424952
0.45289695 0.035769738 0.027419226
0.4529255 0.036709402 0.0274135
0.45295405 0.037649069 0.027407773
0.45298263 0.038588736 0.027402047
0.45301118 0.0395284 0.027396321
0.45303977 0.040468067 0.027390596
0.45306832 0.041407734 0.02738487
0.45309687 0.042347401 0.027379144
0.45399082 0.043249696 0.027894238
0.45401931 0.044187769 0.027888522
0.45404783 0.045125842 0.027882805
0.45407635 0.046063915 0.027877089
0.45410487 0.047001988 0.027871372
0.45413336 0.04794006 0.027865656
0.45416188 0.048878137 0.027859939
0.4541904 0.04981621 0.027854223
0.45421892 0.050754283 0.027848506
0.45424742 0.051692355 0.02784279
0.45427594 0.052630428 0.027837073
0.45430446 0.053568505 0.027831357
0.45433298 0.054506578 0.027825641
0.45436147 0.05544465 0.027819924
0.45438999 0.056382723 0.027814208
0.45355386 0.057382055 0.027287526
0.45358241 0.058321722 0.0272818
0.45361099 0.059261389 0.027276075
0.45363954 0.060201053 0.027270349
0.45366812 0.06114072 0.027264621
0.45369667 0.062080387 0.027258895
0.45286086 0.063090868 0.026732147
0.45202518 0.064104535 0.026205376
0.45205384 0.065047383 0.026199631
0.45035401 0.066141427 0.025151748
0.44951862 0.067164652 0.02462492
0.44781917 0.068269834 0.023577001
0.4461199 0.069381401 0.02252901
0.4452849 0.070417359 0.022002099
0.44272199 0.071623631 0.02043294
0.44102332 0.072754294 0.019384865
0.44018874 0.073804595 0.018857872
0.43935421 0.074858084 0.018330829
0.44804519 -0.0010873833 0.024307329
0.4489406 -0.00010382471 0.024823161
0.45070249 0.00091088982 0.025860656
0.45159763 0.0018864875 0.026376538
0.45249268 0.0028588942 0.026892437
0.45252126 0.0037985607 0.026886711
0.45254982 0.0047382275 0.026880985
0.45257837 0.0056778938 0.026875259
0.45260695 0.0066175605 0.026869534
0.4526355 0.0075572249 0.026863808
0.45353022 0.0085184872 0.027379775
0.45355871 0.0094565619 0.027374059
0.45358723 0.010394635 0.027368343
0.45361575 0.011332708 0.027362626
0.45364428 0.012270783 0.02735691
0.45367277 0.013208856 0.027351193
0.45370129 0.014146929 0.027345477
0.45372981 0.015085001 0.02733976
0.45375833 0.016023077 0.027334044
0.45378682 0.01696115 0.027328327
0.45381534 0.017899223 0.027322611
0.45384386 0.018837295 0.027316896
0.45387238 0.019775368 0.02731118
0.45390087 0.020713443 0.027305463
0.45392939 0.021651516 0.027299747
0.45395792 0.02258959 0.02729403
0.45398644 0.023527663 0.027288314
0.45314962 0.024471216 0.026760738
0.45317817 0.025410881 0.026755013
0.45320672 0.026350547 0.026749285
0.4532353 0.027290214 0.026743559
0.45326385 0.028229879 0.026737833
0.4532924 0.029169545 0.026732108
0.45332098 0.030109212 0.026726382
0.45334953 0.031048877 0.026720656
0.45337811 0.031988543 0.026714928
0.45340666 0.03292821 0.026709203
0.45343521 0.033867877 0.026703477
0.45346379 0.03480754 0.026697751
0.45349234 0.035747208 0.026692025
0.45352089 0.036686875 0.0266863
0.45354947 0.037626538 0.026680574
0.45357803 0.038566206 0.026674846
0.45360658 0.039505873 0.02666912
0.45363516 0.040445536 0.026663395
0.45366371 0.041385204 0.026657669
0.45369229 0.042324871 0.026651943
0.45372084 0.043264538 0.026646217
0.45374939 0.044204202 0.02664049
0.45377797 0.045143869 0.026634764
0.45380652 0.046083536 0.026629038
0.45383507 0.047023199 0.026623312
0.45386365 0.047962867 0.026617587
0.4538922 0.048902534 0.026611861
0.45392075 0.049842197 0.026606133
0.45394933 0.050781865 0.026600407
0.45397788 0.051721532 0.026594682
0.45400646 0.052661195 0.026588956
0.45403501 0.053600863 0.02658323
0.45406356 0.05454053 0.026577504
0.45409214 0.055480193 0.026571777
0.4541207 0.056419861 0.026566051
0.45414925 0.057359528 0.026560325
0.45417783 0.058299195 0.026554599
0.45420638 0.059238859 0.026548874
0.45423493 0.060178526 0.026543148
0.45340005 0.061185785 0.026015183
0.45342866 0.062127043 0.026009448
0.45259392 0.063139081 0.025481455
0.45262259 0.06408193 0.025475709
0.45178795 0.065098748 0.02494766
0.45095345 0.066118747 0.024419619
0.44925591 0.067219079 0.023369262
0.44755849 0.06832578 0.022318834
0.44586134 0.06943886 0.021268399
0.44502738 0.070476376 0.020740252
0.4433305 0.071600601 0.019689718
0.44249678 0.072646081 0.019161521
0.44080028 0.073781453 0.01811095
0.43996677 0.074834906 0.017582674
0.43999615 0.075801648 0.017576782
0.44246957 -0.005208143 0.019937465
0.44423032 -0.0041646808 0.020977253
0.4459908 -0.0031275996 0.022017051
0.4468855 -0.0021360361 0.0225341
0.44778001 -0.0011476621 0.023051137
0.44867444 -0.00016247186 0.023568187
0.45043433 0.00085390685 0.024608113
0.45132855 0.001831135 0.025125248
0.45222265 0.0028051771 0.025642373
0.45225126 0.0037464355 0.025636638
0.45314521 0.0047156983 0.026153784
0.45317379 0.0056553651 0.026148058
0.45320234 0.0065950318 0.026142333
0.45323089 0.0075346963 0.026136607
0.45325947 0.0084743612 0.026130881
0.45328802 0.0094140293 0.026125154
0.45331657 0.010353697 0.026119428
0.45334515 0.011293361 0.026113702
0.4533737 0.012233029 0.026107976
0.45340228 0.013172694 0.02610225
0.45343083 0.014112359 0.026096525
0.45345938 0.015052025 0.026090797
0.45348796 0.015991691 0.026085071
0.45351651 0.016931359 0.026079345
0.45354506 0.017871024 0.02607362
0.45357364 0.018810689 0.026067894
0.45360219 0.019750357 0.026062168
0.45363075 0.020690022 0.026056441
0.45365933 0.021629687 0.026050715
0.45368788 0.022569355 0.026044989
0.45371646 0.02350902 0.026039263
0.45374501 0.024448687 0.026033537
0.45377356 0.025388353 0.026027812
0.45380214 0.026328018 0.026022086
0.45383069 0.027267685 0.026016358
0.45385924 0.028207351 0.026010633
0.45388782 0.029147016 0.026004907
0.45391637 0.030086683 0.025999181
0.45394492 0.031026348 0.025993455
0.4539735 0.031966016 0.025987729
0.45313817 0.032925457 0.025458828
0.45316678 0.033866715 0.025453093
0.45319539 0.034807973 0.025447357
0.453224 0.035749231 0.02544162
0.45325261 0.036690492 0.025435885
0.45328122 0.03763175 0.02543015
0.45330983 0.038573008 0.025424413
0.45333844 0.039514266 0.025418678
0.45336705 0.040455524 0.025412941
0.45339566 0.041396786 0.025407206
0.45342427 0.042338043 0.025401471
0.45345289 0.043279301 0.025395734
0.4534815 0.044220559 0.025389999
0.45351011 0.045161817 0.025384264
0.45440191 0.046061005 0.025901837
0.45443049 0.047000673 0.025896112
0.45445904 0.047940336 0.025890386
0.45448759 0.048880003 0.02588466
0.45451617 0.049819671 0.025878934
0.45454472 0.050759338 0.025873207
0.45457327 0.051699001 0.025867481
0.45460185 0.052638669 0.025861755
0.4546304 0.053578336 0.025856029
0.45465899 0.054517999 0.025850303
0.45468754 0.055457667 0.025844578
0.45471609 0.056397334 0.02583885
0.45474467 0.057336997 0.025833124
0.45391065 0.058339439 0.025303962
0.45393926 0.059280697 0.025298227
0.45396787 0.060221955 0.025292492
0.45313403 0.061230771 0.024763284
0.4531627 0.062173624 0.024757538
0.45232895 0.063187212 0.024228271
0.45235768 0.064131655 0.024222516
0.45152414 0.06515003 0.02369325
0.45069069 0.066171579 0.023163965
0.4489952 0.067273431 0.022111138
0.44729987 0.068381652 0.021058233
0.44646683 0.069415949 0.020528872
0.44477183 0.070535317 0.019475905
0.443939 0.071577579 0.018946495
0.44310629 0.072623014 0.018417064
0.44227371 0.073671646 0.017887615
0.44144118 0.07472346 0.017358147
0.44060871 0.075778469 0.016828632
0.44221225 -0.0052750981 0.018671457
0.44397104 -0.0042299661 0.019713702
0.44572955 -0.0031912145 0.020755958
0.44662324 -0.0021980254 0.021274192
0.44751686 -0.0012080171 0.021792484
0.4484103 -0.0002211986 0.022310764
0.45016822 0.00079685001 0.023353141
0.45106146 0.0017757077 0.023871468
0.45195463 0.0027513839 0.024389843
0.4519833 0.0036942323 0.024384096
0.45287627 0.004665127 0.024902474
0.45290488 0.0056063873 0.024896737
0.45293349 0.0065476457 0.024891002
0.4529621 0.0074889041 0.024885265
0.45299071 0.0084301606 0.02487953
0.45388341 0.0093915015 0.025397966
0.45391196 0.010331168 0.025392238
0.45394054 0.011270832 0.025386512
0.45396909 0.012210501 0.025380787
0.45399764 0.013150166 0.025375061
0.45402622 0.01408983 0.025369335
0.45405477 0.015029497 0.025363609
0.45408335 0.015969163 0.025357883
0.4541119 0.01690883 0.025352156
0.45414045 0.017848495 0.02534643
0.45416903 0.018788161 0.025340704
0.45419759 0.019727828 0.025334978
0.45422614 0.020667495 0.025329253
0.45425472 0.021607159 0.025323527
0.45428327 0.022546826 0.025317799
0.45431185 0.023486491 0.025312074
0.4543404 0.024426159 0.025306348
0.45436895 0.025365824 0.025300622
0.45439753 0.026305491 0.025294896
0.45356292 0.027255336 0.024764815
0.45359153 0.028196596 0.024759078
0.45362014 0.029137854 0.024753343
0.45364875 0.030079113 0.024747608
0.45367736 0.031020371 0.024741871
0.45370597 0.031961631 0.024736136
0.45373458 0.032902889 0.024730399
0.45290035 0.033865478 0.024200242
0.45292902 0.034808327 0.024194496
0.45295766 0.035751179 0.024188749
0.45298633 0.036694031 0.024183005
0.453015 0.037636884 0.024177259
0.45304364 0.038579732 0.024171514
0.45307231 0.039522585 0.024165768
0.45310095 0.040465437 0.024160024
0.45312962 0.041408289 0.024154278
0.45315829 0.042351138 0.024148531
0.45318693 0.04329399 0.024142787
0.4532156 0.044236843 0.024137041
0.45410651 0.045139253 0.024655836
0.45413512 0.046080511 0.024650099
0.45416373 0.047021769 0.024644364
0.45419234 0.047963027 0.024638629
0.45422095 0.048904285 0.024632892
0.45424956 0.049845546 0.024627157
0.45427817 0.050786804 0.02462142
0.45430678 0.051728062 0.024615685
0.45519724 0.052616138 0.025134565
0.4552258 0.053555805 0.02512884
0.45439261 0.05455184 0.024598477
0.45442122 0.055493098 0.024592742
0.45444983 0.056434356 0.024587005
0.45447844 0.057375617 0.02458127
0.45450705 0.058316872 0.024575533
0.45367414 0.059322461 0.024045113
0.45370278 0.060265314 0.024039367
0.45373145 0.061208166 0.024033623
0.45289868 0.06222013 0.023503136
0.45292738 0.063164569 0.023497382
0.45209482 0.064181313 0.022966893
0.45126233 0.06520123 0.022436384
0.45042995 0.066224344 0.021905864
0.44959766 0.067250632 0.021375315
0.44790435 0.068358779 0.020319952
0.4470723 0.069393039 0.019789355
0.44537932 0.070512332 0.018733922
0.44454753 0.071554556 0.018203279
0.44371584 0.072599955 0.017672615
0.44288424 0.07364855 0.017141933
0.4429135 0.074612103 0.017136062
0.44208205 0.075665474 0.016605355
0.44279158 -0.0062584924 0.017934088
0.44368458 -0.0052541168 0.018453488
0.44457754 -0.0042529148 0.018972944
0.44547033 -0.00325491 0.019492384
0.44636303 -0.0022600887 0.02001185
0.44725564 -0.0012684511 0.020531327
0.44814822 -0.00027999841 0.021050861
0.44990414 0.00073971658 0.022095695
0.4507964 0.0017202061 0.022615246
0.45168859 0.0026975081 0.023134813
0.45171729 0.0036419521 0.023129057
0.45260936 0.0046144794 0.02364869
0.45263803 0.0055573313 0.023642944
0.45266667 0.0065001836 0.023637198
0.45269534 0.0074430336 0.023631454
0.45358711 0.0084075937 0.024151096
0.45361573 0.0093488544 0.024145361
0.45364434 0.010290112 0.024139624
0.45367295 0.011231371 0.024133889
0.45370156 0.012172631 0.024128154
0.45373017 0.013113889 0.024122417
0.45375878 0.014055148 0.024116682
0.45378739 0.014996406 0.024110945
0.453816 0.015937665 0.02410521
0.45384461 0.016878925 0.024099475
0.45387322 0.017820183 0.024093738
0.45390183 0.018761441 0.024088003
0.45393044 0.019702699 0.024082268
0.45395905 0.020643959 0.024076531
0.45398766 0.021585217 0.024070796
0.45401627 0.022526477 0.024065059
0.45404488 0.023467734 0.024059324
0.45407349 0.024408994 0.024053589
0.4541021 0.025350252 0.024047852
0.45413071 0.026291512 0.024042116
0.45415932 0.02723277 0.024036381
0.45418793 0.028174028 0.024030644
0.45421654 0.029115288 0.024024909
0.45338315 0.030071465 0.023493562
0.45341179 0.031014318 0.023487816
0.45344046 0.031957168 0.023482071
0.4534691 0.03290002 0.023476325
0.45349777 0.033842873 0.023470581
0.45352644 0.034785721 0.023464834
0.45269331 0.035753053 0.022933381
0.45272201 0.036697496 0.022927625
0.45275074 0.037641939 0.022921871
0.45277944 0.038586386 0.022916116
0.45280814 0.039530829 0.02291036
0.45283684 0.040475272 0.022904605
0.45286554 0.041419715 0.022898849
0.45289427 0.042364161 0.022893095
0.45292297 0.043308605 0.02288734
0.45381302 0.044214237 0.023407379
0.45384166 0.045157086 0.023401635
0.45387033 0.046099938 0.023395889
0.453899 0.047042791 0.023390142
0.45392764 0.047985639 0.023384398
0.45395631 0.048928492 0.023378652
0.45484596 0.049822979 0.023898723
0.45487458 0.050764237 0.023892986
0.45490319 0.051705495 0.023887251
0.4549318 0.052646752 0.023881515
0.45496041 0.053588014 0.023875779
0.45498902 0.054529272 0.023870043
0.45501763 0.05547053 0.023864308
0.45418558 0.056471303 0.023332689
0.45421422 0.057414155 0.023326943
0.45424289 0.058357008 0.023321196
0.45427155 0.059299856 0.023315452
0.45343968 0.060308598 0.022783747
0.45346838 0.061253041 0.022777991
0.45263672 0.062266555 0.022246294
0.45266548 0.063212588 0.022240529
0.45183396 0.064230882 0.021708798
0.45100257 0.065252364 0.021177046
0.45017123 0.06627702 0.020645281
0.44933996 0.067304872 0.020113459
0.44850883 0.068335906 0.019581657
0.44681776 0.069450349 0.018523818
0.44598684 0.070489347 0.017991928
0.44515604 0.071531527 0.017460056
0.44518524 0.072491899 0.017454203
0.44349477 0.073625445 0.016396243
0.44352406 0.074588999 0.016390372
0.44355333 0.075552553 0.016384501
0.44340011 -0.0062815174 0.01719087
0.4442921 -0.0052771033 0.017711505
0.44518402 -0.0042758635 0.018232189
0.44607583 -0.0032778203 0.018752867
0.44696751 -0.002282961 0.01927356
0.44785911 -0.001291285 0.019794276
0.44875067 -0.00030279424 0.02031504
0.44964206 0.00068250688 0.020835789
0.45053339 0.0016646283 0.021356566
0.4514246 0.0026435622 0.021877354
0.45231572 0.003619309 0.022398168
0.45234442 0.0045637526 0.022392413
0.45237312 0.0055081984 0.022386657
0.45326409 0.0064775785 0.022907536
0.45329276 0.0074204286 0.022901792
0.4533214 0.0083632786 0.022896046
0.45335007 0.0093061328 0.022890301
0.45337874 0.010248982 0.022884555
0.45340738 0.011191833 0.022878809
0.45343605 0.012134687 0.022873065
0.45346469 0.013077537 0.022867318
0.45435518 0.014032581 0.023388259
0.45438379 0.01497384 0.023382524
0.4544124 0.0159151 0.023376787
0.45444101 0.016856357 0.023371052
0.45360801 0.017791793 0.022838591
0.45363665 0.018734645 0.022832846
0.45366532 0.019677497 0.0228271
0.45369396 0.020620348 0.022821356
0.45372263 0.021563198 0.022815609
0.4537513 0.022506051 0.022809863
0.45377994 0.023448901 0.022804119
0.45380861 0.024391754 0.022798372
0.45383725 0.025334604 0.022792628
0.45386592 0.026277455 0.022786882
0.45389459 0.027220307 0.022781137
0.45392323 0.028163159 0.022775391
0.4539519 0.02910601 0.022769645
0.45398057 0.03004886 0.0227639
0.45400921 0.030991713 0.022758154
0.45317692 0.031952631 0.022225512
0.45320562 0.032897078 0.022219757
0.45323431 0.033841521 0.022214003
0.45326301 0.034785964 0.022208247
0.45329174 0.03573041 0.022202492
0.45245978 0.036700882 0.021669818
0.45248854 0.037646919 0.021664053
0.4525173 0.038592957 0.021658288
0.45254603 0.039538994 0.021652523
0.45257479 0.040485028 0.021646759
0.45260355 0.041431066 0.021640994
0.45263231 0.042377103 0.021635229
0.4535214 0.043285962 0.022156451
0.4535501 0.044230405 0.022150695
0.4535788 0.045174848 0.02214494
0.4536075 0.046119295 0.022139184
0.45363623 0.047063738 0.02213343
0.45366493 0.048008181 0.022127675
0.45455372 0.048905887 0.02264899
0.45458236 0.049848739 0.022643246
0.45461103 0.050791591 0.022637499
0.4546397 0.051734444 0.022631753
0.45466834 0.052677292 0.022626009
0.45469701 0.053620145 0.022620263
0.45472565 0.054562997 0.022614518
0.45475432 0.055505846 0.022608772
0.45478299 0.056448698 0.022603028
0.45395198 0.057452623 0.022070123
0.45398068 0.058397066 0.022064367
0.45400941 0.059341509 0.022058612
0.45317864 0.0603518 0.021525696
0.4532074 0.061297838 0.021519931
0.45323616 0.062243875 0.021514166
0.4524056 0.063260533 0.020981217
0.45157516 0.064280383 0.020448241
0.45160401 0.065229602 0.020442458
0.45077369 0.066254228 0.01990946
0.44994342 0.067282043 0.01937641
0.44911331 0.068313032 0.018843368
0.44828328 0.069347218 0.01831031
0.44745335 0.070384577 0.017777229
0.44662347 0.07142514 0.017244102
0.44579375 0.072468869 0.016710987
0.44582292 0.073429249 0.016705135
0.44499335 0.074477755 0.016171986
0.44416386 0.075529456 0.015638823
0.44419315 0.07649301 0.015632952
0.44336382 0.077549487 0.015099753
0.44487044 -0.0062588658 0.016975358
0.44489959 -0.0053000902 0.016969515
0.44579053 -0.0042988122 0.017491434
0.44668132 -0.0033007308 0.018013339
0.44757199 -0.0023058332 0.018535271
0.44760099 -0.0013518349 0.018529458
0.44849154 -0.00036171457 0.019051412
0.44938204 0.00062522077 0.019573417
0.45027238 0.0016089738 0.02009541
0.45116264 0.0025895399 0.020617429
0.45205277 0.0035669182 0.021139462
0.45208153 0.0045129522 0.021133697
0.45297155 0.0054855552 0.021655757
0.45300025 0.0064299991 0.021650001
0.45302895 0.0073744426 0.021644246
0.45305768 0.0083188862 0.021638492
0.45308638 0.009263332 0.021632737
0.45311508 0.010207776 0.021626981
0.45400479 0.011169228 0.022149142
0.45403346 0.012112082 0.022143397
0.45406213 0.013054932 0.022137651
0.45409077 0.013997784 0.022131905
0.45411944 0.014940634 0.022126161
0.45414808 0.015883487 0.022120414
0.45417675 0.016826339 0.02211467
0.45420542 0.017769188 0.022108924
0.45423406 0.01871204 0.022103179
0.45426273 0.019654892 0.022097433
0.45429137 0.020597743 0.022091687
0.45432004 0.021540593 0.022085942
0.45434871 0.022483446 0.022080196
0.45437735 0.023426296 0.022074452
0.45354569 0.024374437 0.021540653
0.45357439 0.02531888 0.021534897
0.45360309 0.026263325 0.021529144
0.45363179 0.027207768 0.021523388
0.45366052 0.028152213 0.021517633
0.45368922 0.029096656 0.021511877
0.45371792 0.0300411 0.021506123
0.45374662 0.030985545 0.021500368
0.45377535 0.031929988 0.021494612
0.45294419 0.032894056 0.02096075
0.45297295 0.03384009 0.020954985
0.45300171 0.034786128 0.02094922
0.45303047 0.035732165 0.020943455
0.45305923 0.036678202 0.020937691
0.45308796 0.03762424 0.020931926
0.45225716 0.038599454 0.020397995
0.45228598 0.039547082 0.02039222
0.45317423 0.040462349 0.020914631
0.45320299 0.041408386 0.020908866
0.45323175 0.042354424 0.020903101
0.45326051 0.043300457 0.020897336
0.45328924 0.044246495 0.020891571
0.453318 0.045192532 0.020885807
0.45334676 0.04613857 0.020880042
0.45337552 0.047084607 0.020874277
0.45426336 0.047985539 0.021396773
0.45429206 0.048929982 0.021391019
0.45432076 0.049874425 0.021385264
0.45434946 0.050818872 0.021379508
0.45437819 0.051763315 0.021373753
0.45440689 0.052707758 0.021367999
0.45443559 0.053652205 0.021362243
0.45446429 0.054596648 0.021356488
0.45449302 0.055541091 0.021350732
0.45452172 0.056485534 0.021344976
0.45455042 0.05742998 0.021339223
0.45372057 0.058437046 0.020805098
0.45374933 0.059383083 0.020799333
0.45377809 0.060329117 0.020793568
0.45294845 0.061342556 0.020259405
0.45297724 0.062290188 0.02025363
0.45214775 0.063308403 0.019719431
0.4521766 0.064257622 0.019713648
0.45134726 0.065280616 0.019179424
0.45137617 0.06623143 0.019173631
0.45054689 0.067259207 0.018639348
0.44971779 0.068290159 0.018105078
0.44888878 0.069324307 0.017570782
0.44805986 0.070361629 0.017036473
0.44723099 0.071402147 0.016502112
0.44726014 0.072360925 0.016496271
0.44643146 0.073406219 0.015961908
0.44646066 0.074366592 0.015956055
0.44563213 0.075416654 0.015421668
0.44566137 0.076378621 0.015415806
0.44483298 0.077433467 0.01488139
0.4465774 0.078208074 0.015932646
0.43803123 0.080129139 0.010640985
0.44547796 -0.0062818527 0.016233375
0.44636792 -0.0052789501 0.016756516
0.44725776 -0.004279233 0.017279645
0.44728678 -0.0033236411 0.017273823
0.44731584 -0.0023680492 0.017268
0.44820547 -0.0013747071 0.017791169
0.44909501 -0.00038454862 0.018314356
0.44998449 0.0006024249 0.018837595
0.45087382 0.0015862163 0.019360822
0.45090267 0.0025354372 0.019355036
0.45179188 0.0035144477 0.019878298
0.45268098 0.0044902707 0.020401573
0.45270973 0.0054363101 0.020395808
0.45273846 0.0063823457 0.020390043
0.45276722 0.0073283813 0.020384278
0.45279598 0.0082744192 0.020378513
0.45368481 0.0092406897 0.020901848
0.45371351 0.010185133 0.020896092
0.45374221 0.011129575 0.020890336
0.45377091 0.012074021 0.020884581
0.45379964 0.013018465 0.020878827
0.45382833 0.013962909 0.020873072
0.45385703 0.014907353 0.020867316
0.45388573 0.015851798 0.02086156
0.45391443 0.016796242 0.020855805
0.45394316 0.017740685 0.020850051
0.45397186 0.018685129 0.020844296
0.45400056 0.019629573 0.02083854
0.45402926 0.020574016 0.020832784
0.45405799 0.021518461 0.020827029
0.45408669 0.022462906 0.020821275
0.45411539 0.023407349 0.02081552
0.45414409 0.024351794 0.020809764
0.45417282 0.025296237 0.020804008
0.45420152 0.02624068 0.020798255
0.45423022 0.027185125 0.020792499
0.45339984 0.028141189 0.020257451
0.4534286 0.029087227 0.020251686
0.45345736 0.030033264 0.020245921
0.45348611 0.0309793 0.020240156
0.45351487 0.031925336 0.020234391
0.45354363 0.032871373 0.020228626
0.45271358 0.033838585 0.019693511
0.4527424 0.034786217 0.019687736
0.45277119 0.035733845 0.019681962
0.45280001 0.036681473 0.019676188
0.45282879 0.037629105 0.019670414
0.45285761 0.038576733 0.019664638
0.4528864 0.039524361 0.019658864
0.45291522 0.040471993 0.019653089
0.45294401 0.041419622 0.019647315
0.45297283 0.04236725 0.019641541
0.45300162 0.043314882 0.019635765
0.45303041 0.04426251 0.019629991
0.45305923 0.045210138 0.019624216
0.45308802 0.046157766 0.019618442
0.45397496 0.047061924 0.020142153
0.45400369 0.048007961 0.020136388
0.45403245 0.048953999 0.020130623
0.45406121 0.049900033 0.020124858
0.45408997 0.05084607 0.020119093
0.45411873 0.051792108 0.020113328
0.45500529 0.052685115 0.020637108
0.45503402 0.053629562 0.020631354
0.45506272 0.054574005 0.020625599
0.45423374 0.055576254 0.020090269
0.4542625 0.056522291 0.020084504
0.45429125 0.057468329 0.020078739
0.45432001 0.058414366 0.020072974
0.45349127 0.059424579 0.019537598
0.45352009 0.060372207 0.019531824
0.45354888 0.061319839 0.019526048
0.45272034 0.062336423 0.018990627
0.45274919 0.063285641 0.018984841
0.45192081 0.064307004 0.018449396
0.45194972 0.065257825 0.018443603
0.45112142 0.066283964 0.017908096
0.45115036 0.067236371 0.017902292
0.45032227 0.068267293 0.017366789
0.44949427 0.069301397 0.016831266
0.44866636 0.070338681 0.016295724
0.44869545 0.071295872 0.016289892
0.44872454 0.072253056 0.016284058
0.44789678 0.073296718 0.015748445
0.44792593 0.074255496 0.015742602
0.44709834 0.075303935 0.015206986
0.44712755 0.076264307 0.015201134
0.44630012 0.077317514 0.014665495
0.44547281 0.078373924 0.014129836
0.44691625 -0.0072162701 0.016027421
0.44694534 -0.0062590842 0.016021589
0.44697443 -0.0053018988 0.016015755
0.44786325 -0.0043021441 0.016540118
0.44789228 -0.0033465519 0.016534295
0.44878095 -0.0023515779 0.017058687
0.44880995 -0.0013975796 0.017052874
0.44969848 -0.00040738285 0.017577294
0.45058694 0.00057962892 0.018101767
0.45061585 0.0015304474 0.018095972
0.45150414 0.0025126794 0.018620443
0.45239231 0.0034917281 0.019144932
0.45242113 0.0044393553 0.019139156
0.45244992 0.0053869868 0.019133382
0.45247874 0.0063346159 0.019127607
0.45336667 0.0073056999 0.019652145
0.45339543 0.0082517378 0.01964638
0.45342419 0.0091977753 0.019640615
0.45345294 0.010143811 0.01963485
0.4534817 0.011089848 0.019629085
0.45351043 0.012035886 0.019623321
0.45353919 0.012981921 0.019617556
0.45356795 0.013927959 0.019611791
0.45359671 0.014873995 0.019606026
0.45362547 0.015820032 0.019600261
0.45365423 0.016766069 0.019594496
0.45368299 0.017712105 0.019588731
0.45371172 0.018658143 0.019582966
0.45374048 0.019604178 0.019577201
0.45376924 0.020550216 0.019571437
0.453798 0.021496251 0.019565672
0.45382676 0.022442289 0.019559907
0.45385551 0.023388324 0.019554142
0.45388427 0.024334362 0.019548377
0.453913 0.025280397 0.019542612
0.45394176 0.026226435 0.019536847
0.45397052 0.027172472 0.019531082
0.45399928 0.028118508 0.019525317
0.45402804 0.029064545 0.019519553
0.4540568 0.030010581 0.019513788
0.45322761 0.030972978 0.018977469
0.45325643 0.031920608 0.018971693
0.45328522 0.032868236 0.018965919
0.45331404 0.033815868 0.018960144
0.45334283 0.034763496 0.01895437
0.45251396 0.035735447 0.018417992
0.45254281 0.03668467 0.018412208
0.45257166 0.037633892 0.018406423
0.45260051 0.038583115 0.018400639
0.45262936 0.039532337 0.018394854
0.45265821 0.04048156 0.01838907
0.45268705 0.041430783 0.018383287
0.4527159 0.042380001 0.018377502
0.45274478 0.043329224 0.018371718
0.45277363 0.044278447 0.018365933
0.45280248 0.045227669 0.018360149
0.45368847 0.046135049 0.018885074
0.45371729 0.047082677 0.0188793
0.45374608 0.048030306 0.018873526
0.4537749 0.048977938 0.018867752
0.45380369 0.049925566 0.018861976
0.45468941 0.05082339 0.01938696
0.45471817 0.051769428 0.019381195
0.4547469 0.052715462 0.01937543
0.45477566 0.053661499 0.019369666
0.45480442 0.054607537 0.019363901
0.45397651 0.055611342 0.018827328
0.4540053 0.05655897 0.018821554
0.45403412 0.057506602 0.01881578
0.45406291 0.05845423 0.018810004
0.45409173 0.059401859 0.01880423
0.45326412 0.06041522 0.0182676
0.45329297 0.061364442 0.018261816
0.45332181 0.062313665 0.018256031
0.45249438 0.063333392 0.017719362
0.45252329 0.064284205 0.017713569
0.45255217 0.065235026 0.017707774
0.45172489 0.066261128 0.017171035
0.45089775 0.067290418 0.016634308
0.45092675 0.06824442 0.016628494
0.45009977 0.069278486 0.016091738
0.45012879 0.070234075 0.016085915
0.44930196 0.071272917 0.01554913
0.44933105 0.072230108 0.015543297
0.44936013 0.073187292 0.015537464
0.44853342 0.074232511 0.015000608
0.44856256 0.075191289 0.014994765
0.44859171 0.076150067 0.014988923
0.44776526 0.07720165 0.01445206
0.44608334 0.07835082 0.013384147
0.44835255 -0.0081474259 0.015823888
0.4483816 -0.007191834 0.015818065
0.44841063 -0.0062362421 0.015812242
0.44843969 -0.0052806502 0.015806418
0.44932744 -0.0042824503 0.016332025
0.44935644 -0.0033284484 0.016326211
0.44938543 -0.0023744502 0.016320398
0.44941443 -0.0014204518 0.016314585
0.45030195 -0.00043021707 0.016840233
0.45118943 0.00055683288 0.017365938
0.45121831 0.0015076514 0.017360145
0.45210558 0.0024899216 0.017885847
0.45213443 0.0034391428 0.017880064
0.45216328 0.0043883659 0.017874278
0.45219216 0.0053375885 0.017868495
0.45307916 0.0063118963 0.018394247
0.45310798 0.0072595254 0.018388471
0.45313677 0.0082071545 0.018382696
0.45316559 0.0091547845 0.018376922
0.45319438 0.010102414 0.018371148
0.4532232 0.011050043 0.018365372
0.45325199 0.011997674 0.018359598
0.45328081 0.012945303 0.018353824
0.4533096 0.013892931 0.018348049
0.45333841 0.01484056 0.018342275
0.4533672 0.015788192 0.018336499
0.45339602 0.01673582 0.018330725
0.45342481 0.017683448 0.018324951
0.45345363 0.018631078 0.018319177
0.45348242 0.019578706 0.018313402
0.45351124 0.020526337 0.018307626
0.45354003 0.021473967 0.018301852
0.45356885 0.022421597 0.018296078
0.45359764 0.023369225 0.018290304
0.45362645 0.024316855 0.018284529
0.45365524 0.025264483 0.018278753
0.45368403 0.026212113 0.018272979
0.45371285 0.027159741 0.018267205
0.45374164 0.028107371 0.018261431
0.45377046 0.029055001 0.018255655
0.45379925 0.030002629 0.018249881
0.45382807 0.030950259 0.018244106
0.45385686 0.031897888 0.018238332
0.45302886 0.032865025 0.01770075
0.45305771 0.033814248 0.017694965
0.45308656 0.03476347 0.017689181
0.4531154 0.035712689 0.017683396
0.45314425 0.036661912 0.017677613
0.45231652 0.037638605 0.017139973
0.45234543 0.038589422 0.017134178
0.45237434 0.039540235 0.017128384
0.45240322 0.040491048 0.017122591
0.45243213 0.041441865 0.017116796
0.45246103 0.042392679 0.017111002
0.45248994 0.043343492 0.017105209
0.45251882 0.044294309 0.017099414
0.45340392 0.045204911 0.017625554
0.45343277 0.046154134 0.01761977
0.45346162 0.047103353 0.017613985
0.45349047 0.048052575 0.017608201
0.45351934 0.049001798 0.017602418
0.45440415 0.049902845 0.018128615
0.45443293 0.050850473 0.018122841
0.45446175 0.051798105 0.018117065
0.45449054 0.052745733 0.01811129
0.45451936 0.053693365 0.018105516
0.45454815 0.054640993 0.018099742
0.45457697 0.055588622 0.018093968
0.45375013 0.056595575 0.017556142
0.45377901 0.057544798 0.017550359
0.45380786 0.058494017 0.017544573
0.45383671 0.059443239 0.01753879
0.45386556 0.060392462 0.017533004
0.45303905 0.061408971 0.016995123
0.45306793 0.062359784 0.016989328
0.45309684 0.063310601 0.016983535
0.45227048 0.064333484 0.016445581
0.45229942 0.065285891 0.016439777
0.45232835 0.066238299 0.016433973
0.45150223 0.067267545 0.015896019
0.45153123 0.068221547 0.015890205
0.45070523 0.069255576 0.015352216
0.45073429 0.070211165 0.015346392
0.45076334 0.071166761 0.015340569
0.44993755 0.07220716 0.014802541
0.44996664 0.073164344 0.014796708
0.44914094 0.074209526 0.014258618
0.44917008 0.075168297 0.014252776
0.44919923 0.076127082 0.014246933
0.44751918 0.077271387 0.013176584
0.44669387 0.078327715 0.012638458
0.4441596 0.079579145 0.01103574
0.44895804 -0.0081703365 0.015084365
0.44898707 -0.0072147446 0.015078543
0.44901612 -0.0062591527 0.015072719
0.44904518 -0.0053035603 0.015066897
0.44907421 -0.0043479647 0.015061073
0.44996092 -0.0033513207 0.015587922
0.44998991 -0.0023973223 0.015582109
0.45087647 -0.0014054556 0.016108986
0.45090541 -0.00045305095 0.016103184
0.45093435 0.00049935747 0.01609738
0.45182076 0.0014848555 0.016624322
0.45184967 0.0024356702 0.016618527
0.4527359 0.003416385 0.017145474
0.45276475 0.0043656081 0.01713969
0.4527936 0.0053148312 0.017133905
0.45282245 0.0062640524 0.017128121
0.4528513 0.0072132731 0.017122338
0.45288014 0.0081624947 0.017116552
0.45290899 0.0091117192 0.017110769
0.45379484 0.010079694 0.017637791
0.45382363 0.011027323 0.017632017
0.45385244 0.011974954 0.017626243
0.45388123 0.012922584 0.017620469
0.45305327 0.013857828 0.017081847
0.45308211 0.014807049 0.017076062
0.45311096 0.015756272 0.017070279
0.45313981 0.016705494 0.017064493
0.45316866 0.017654717 0.01705871
0.45319751 0.01860394 0.017052926
0.45322636 0.01955316 0.017047141
0.45325524 0.020502383 0.017041357
0.45328408 0.021451604 0.017035572
0.45331293 0.022400826 0.017029788
0.45334178 0.023350047 0.017024003
0.45337063 0.02429927 0.017018219
0.45339948 0.025248492 0.017012436
0.45342833 0.026197713 0.017006651
0.45345718 0.027146935 0.017000867
0.45348603 0.028096158 0.016995082
0.4535149 0.029045379 0.016989298
0.45354375 0.029994601 0.016983513
0.4535726 0.030943824 0.016977729
0.45360145 0.031893045 0.016971946
0.4536303 0.032842267 0.01696616
0.45280337 0.033812553 0.016427327
0.45283228 0.034763366 0.016421532
0.45286119 0.035714179 0.016415738
0.4528901 0.036664996 0.016409945
0.45291898 0.03761581 0.01640415
