# .PCD v0.7 - Point Cloud Data file format
VERSION 0.7
FIELDS x y z
SIZE 4 4 4
TYPE F F F
COUNT 1 1 1
WIDTH 1380
HEIGHT 1
VIEWPOINT 0 0 0 1 0 0 0
POINTS 1380
DATA ascii
0.49395341 0.06272506 0.068099283
0.49397922 0.063573949 0.068094105
0.49400502 0.064422831 0.068088934
0.49403083 0.06527172 0.068083763
0.49405664 0.066120602 0.068078585
0.49408242 0.066969484 0.068073414
0.49410823 0.067818373 0.068068244
0.49413404 0.068667255 0.068063073
0.49415985 0.069516145 0.068057895
0.49506658 0.070272855 0.068552949
0.49509233 0.071120143 0.068547785
0.49511808 0.071967438 0.068542622
0.49514383 0.072814733 0.068537459
0.49516958 0.07366202 0.068532296
0.49607599 0.074409187 0.069027379
0.49861178 0.053065583 0.070005484
0.49778211 0.054810893 0.069493949
0.49780771 0.055653404 0.069488816
0.49695268 0.056562569 0.068982407
0.49609771 0.057474919 0.068475977
0.49524289 0.05839045 0.067969523
0.49526864 0.059237741 0.06796436
0.49529439 0.060085036 0.067959197
0.49532014 0.060932327 0.067954034
0.4944655 0.061855827 0.067447513
0.49449131 0.062704712 0.067442335
0.49451709 0.063553594 0.067437164
0.4945429 0.064402483 0.067431994
0.49456871 0.065251365 0.067426816
0.49459451 0.066100247 0.067421645
0.49462029 0.066949137 0.067416474
0.4946461 0.067798018 0.067411304
0.49467191 0.068646908 0.067406125
0.49469772 0.06949579 0.067400955
0.49560344 0.070252538 0.067897245
0.49562919 0.071099833 0.067892082
0.49565494 0.07194712 0.067886919
0.49656042 0.072697505 0.068383217
0.49831593 0.054790694 0.068841934
0.49834156 0.055633206 0.068836801
0.49748752 0.056542329 0.068329155
0.49663359 0.057454642 0.067821495
0.49665928 0.058300342 0.067816347
0.4958055 0.059217427 0.067308657
0.49583125 0.060064722 0.067303494
0.495857 0.060912013 0.06729833
0.49588278 0.061759304 0.067293167
0.49502918 0.062684357 0.066785395
0.49505496 0.063533239 0.066780224
0.49508077 0.064382128 0.066775046
0.49510658 0.06523101 0.066769876
0.49513239 0.0660799 0.066764705
0.4951582 0.066928782 0.066759534
0.49518397 0.067777671 0.066754356
0.49520978 0.068626553 0.066749185
0.49611455 0.069384933 0.067246698
0.4961403 0.070232227 0.067241535
0.49704486 0.070985831 0.06773904
0.4961918 0.07192681 0.067231208
0.49709627 0.072677232 0.067728736
0.49884978 0.054770496 0.068189919
0.49887538 0.055613007 0.068184786
0.49802238 0.056522094 0.067675911
0.49716944 0.057434365 0.067167014
0.49719515 0.058280066 0.067161866
0.49634236 0.059197113 0.066652939
0.49636814 0.060044408 0.066647775
0.49639389 0.060891699 0.066642612
0.49641964 0.06173899 0.066637449
0.49556705 0.06266401 0.066128448
0.49559286 0.063512892 0.066123277
0.49561864 0.064361781 0.066118099
0.49564445 0.065210663 0.066112928
0.49567026 0.066059545 0.066107757
0.49657416 0.066822745 0.066606469
0.49659991 0.06767004 0.066601306
0.49662566 0.068517327 0.066596143
0.49665141 0.069364615 0.06659098
0.49667716 0.07021191 0.066585816
0.49758074 0.070965558 0.067084558
0.49760643 0.071811259 0.06707941
0.49763215 0.072656959 0.067074254
0.50108808 0.052944936 0.068558075
0.49938363 0.054750293 0.067537911
0.49940923 0.055592809 0.067532778
0.49943483 0.056435324 0.067527637
0.49770531 0.057414088 0.06651254
0.497731 0.058259789 0.066507384
0.49775672 0.059105489 0.066502236
0.496905 0.060024094 0.065992065
0.49693075 0.060871385 0.065986902
0.4969565 0.061718676 0.065981738
0.49698225 0.062565967 0.065976575
0.497008 0.063413262 0.065971419
0.49703377 0.06426055 0.065966256
0.49705952 0.065107845 0.065961093
0.49708527 0.065955132 0.065955929
0.49711102 0.066802427 0.065950766
0.49801376 0.067562483 0.0664507
0.49803948 0.068408184 0.066445544
0.49806517 0.069253884 0.066440389
0.49809089 0.070099577 0.06643524
0.4989934 0.070851669 0.066935226
0.4981423 0.071790986 0.066424929
0.49904469 0.072539888 0.066924937
0.49907035 0.073383994 0.066919789
0.49909601 0.0742281 0.066914648
0.50074309 0.052984938 0.067402355
0.49991745 0.054730095 0.066885896
0.49994308 0.055572607 0.066880763
0.49996868 0.056415122 0.066875629
0.49824116 0.057393815 0.065858059
0.49826688 0.058239516 0.065852903
0.49829257 0.059085213 0.065847754
0.49831828 0.059930909 0.065842599
0.49834397 0.06077661 0.065837443
0.49836969 0.06162231 0.065832295
0.49839538 0.062468011 0.065827139
0.4984211 0.063313708 0.065821983
0.49844679 0.064159408 0.065816835
0.49847251 0.065005109 0.065811679
0.49849823 0.065850809 0.065806523
0.49852392 0.066696502 0.065801375
0.49854964 0.067542203 0.065796219
0.49857533 0.068387903 0.065791063
0.49947691 0.069143221 0.066292264
0.49950257 0.069987327 0.066287123
0.49952823 0.070831433 0.066281974
0.49955389 0.071675546 0.066276833
0.49957955 0.072519653 0.066271685
0.49960521 0.073363759 0.066266544
0.49963087 0.074207865 0.066261403
0.5012759 0.052964777 0.066751577
0.50045127 0.054709896 0.066233888
0.5004769 0.055552408 0.066228747
0.50050253 0.056394923 0.066223614
0.49965256 0.057305489 0.065711036
0.49967822 0.058149595 0.065705888
0.49970388 0.058993701 0.065700747
0.49972954 0.059837807 0.065695599
0.4997552 0.060681917 0.065690458
0.49978086 0.061526023 0.065685317
0.49980652 0.062370129 0.065680169
0.49983215 0.063214235 0.065675028
0.49985781 0.064058341 0.065669887
0.49988347 0.064902447 0.065664738
0.49990913 0.065746553 0.065659598
0.49993479 0.066590667 0.065654449
0.49996045 0.067434773 0.065649308
0.49998611 0.068278879 0.065644167
0.50001174 0.069122985 0.065639019
0.50091225 0.069875151 0.066141471
0.50093788 0.070717663 0.066136338
0.50096345 0.071560182 0.066131204
0.50098908 0.072402693 0.066126071
0.50101471 0.073245205 0.066120937
0.50104028 0.074087724 0.066115804
0.50093395 0.053004667 0.06559214
0.50098515 0.054689698 0.065581873
0.50101072 0.05553221 0.06557674
0.50103635 0.056374725 0.065571599
0.5001874 0.057285249 0.065057784
0.50021309 0.058129359 0.065052643
0.50023872 0.058973465 0.065047495
0.50026441 0.059817571 0.065042354
0.50116438 0.060587298 0.065545931
0.50119001 0.06142981 0.065540798
0.50121564 0.062272321 0.065535665
0.50124121 0.063114837 0.065530531
0.50126684 0.063957356 0.065525398
0.50129241 0.064799868 0.065520264
0.50131804 0.065642379 0.065515131
0.50134367 0.066484891 0.065509997
0.50136924 0.06732741 0.065504856
0.50139487 0.068169922 0.065499723
0.5014205 0.069012433 0.06549459
0.50144607 0.069854952 0.065489456
0.5023455 0.070603967 0.06599319
0.50149733 0.071539983 0.065479189
0.5015229 0.072382495 0.065474056
0.50154853 0.073225006 0.065468922
0.50157416 0.074067518 0.065463789
0.50151896 0.054669496 0.064929865
0.50154459 0.055512011 0.064924724
0.50157017 0.056354526 0.064919591
0.50072229 0.057265013 0.06440454
0.50074792 0.05810912 0.064399399
0.501647 0.058882069 0.064904191
0.50167263 0.05972458 0.064899057
0.50169826 0.060567096 0.064893924
0.50172383 0.061409611 0.06488879
0.50174946 0.062252123 0.064883657
0.50264829 0.063015513 0.06538853
0.50267386 0.063856438 0.065383404
0.50269943 0.064697355 0.065378286
0.50272501 0.065538272 0.06537316
0.50275052 0.066379197 0.065368034
0.50277609 0.067220122 0.065362908
0.50280166 0.068061039 0.065357782
0.50282723 0.068901964 0.065352663
0.5028528 0.069742881 0.065347537
0.50287837 0.070583805 0.065342411
0.50290388 0.07142473 0.065337285
0.50292945 0.072265647 0.065332167
0.50295502 0.073106572 0.065327041
0.50298059 0.073947489 0.065321915
0.50115448 0.05386835 0.063771874
0.50118017 0.054712456 0.063766725
0.5012058 0.055556562 0.063761584
0.50123143 0.056400668 0.063756436
0.50125712 0.057244774 0.063751295
0.50128275 0.058088884 0.063746154
0.50218087 0.058861867 0.064252168
0.50220644 0.059704382 0.064247034
0.50310445 0.060472585 0.064753115
0.50313002 0.061313506 0.064747997
0.50315559 0.062154427 0.064742871
0.50318116 0.062995352 0.064737745
0.50407881 0.063755594 0.065243848
0.50410432 0.064594924 0.065238729
0.50412983 0.065434255 0.065233618
0.5041554 0.066273578 0.065228507
0.50418091 0.067112908 0.065223388
0.50420642 0.067952238 0.065218277
0.50423193 0.068791568 0.065213159
0.50425744 0.069630899 0.065208048
0.50341117 0.070563644 0.064691626
0.50343674 0.071404569 0.0646865
0.50346231 0.072245486 0.064681374
0.50348788 0.073086411 0.064676255
0.5035134 0.073927328 0.064671129
0.50079191 0.053063937 0.062611438
0.50081766 0.053909637 0.062606283
0.50084335 0.054755338 0.062601134
0.50086904 0.055601038 0.062595978
0.50176632 0.056380428 0.063103192
0.50179195 0.057224538 0.063098051
0.50181764 0.058068644 0.063092902
0.50271469 0.058841668 0.063600153
0.50274032 0.059684183 0.063595019
0.50363731 0.060452424 0.064102337
0.50366282 0.061293345 0.064097211
0.5036884 0.062134266 0.064092085
0.50371397 0.062975191 0.064086966
0.50461066 0.06373547 0.064594291
0.50463617 0.0645748 0.06458918
0.50466168 0.065414131 0.064584062
0.50468719 0.066253461 0.06457895
0.5047127 0.067092784 0.064573832
0.50473821 0.067932114 0.064568721
0.50476372 0.068771444 0.064563602
0.50478923 0.069610775 0.064558491
0.50481474 0.070450097 0.06455338
0.50396955 0.071384408 0.064035721
0.50399512 0.072225325 0.064030595
0.50402069 0.073066249 0.064025469
0.50404626 0.073907167 0.064020343
0.50045705 0.053103559 0.0614434
0.5004828 0.05395085 0.061438236
0.50050855 0.054798141 0.061433073
0.50140488 0.055580761 0.061941501
0.50143057 0.056426458 0.061936349
0.50232679 0.057204299 0.062444806
0.50235248 0.058048408 0.062439661
0.50237811 0.058892515 0.062434517
0.50327414 0.059663981 0.062943012
0.50329977 0.0605065 0.062937878
0.50419569 0.061273184 0.06344644
0.50422126 0.062114108 0.063441314
0.50424677 0.062955029 0.063436188
0.50427234 0.063795954 0.063431062
0.50516796 0.064554676 0.063939638
0.50519347 0.065394007 0.06393452
0.50521898 0.066233337 0.063929409
0.50524449 0.067072667 0.06392429
0.50527 0.06791199 0.063919179
0.50529552 0.06875132 0.063914061
0.50445127 0.069682397 0.063395195
0.50447685 0.070523322 0.063390069
0.50450242 0.071364246 0.063384943
0.50452793 0.072205164 0.063379817
0.5045535 0.073046088 0.063374698
0.5037095 0.073986724 0.062855735
0.5001241 0.053143106 0.060272865
0.50101966 0.053930536 0.060782529
0.50104541 0.054777827 0.060777366
0.50107116 0.055625118 0.060772203
0.50196648 0.056406185 0.061281867
0.50199217 0.057251882 0.061276715
0.50288731 0.058028169 0.061786413
0.502913 0.058872275 0.061781269
0.50293863 0.059716381 0.061776128
0.50383359 0.060486298 0.062285867
0.50385922 0.061328813 0.062280729
0.50388479 0.062171325 0.062275596
0.50477964 0.062934868 0.062785409
0.50480521 0.063775793 0.062780283
0.50483072 0.06461671 0.062775157
0.50485629 0.065457627 0.062770031
0.50488186 0.066298552 0.062764905
0.50490743 0.067139477 0.062759787
0.504933 0.067980394 0.062754661
0.50495857 0.068821318 0.062749535
0.50498408 0.069662236 0.062744409
0.50500965 0.07050316 0.06273929
0.50416648 0.071438983 0.062219121
0.50419211 0.072281495 0.062213987
0.50508636 0.073025927 0.062723912
0.50424331 0.073966525 0.06220372
0.50066197 0.053122751 0.059615929
0.50068778 0.053971637 0.059610754
0.50158226 0.054757513 0.060121655
0.50160801 0.055604808 0.060116492
0.50163376 0.056452099 0.060111329
0.50252801 0.057231609 0.060622245
0.5025537 0.058077309 0.060617089
0.50344783 0.058852039 0.061128028
0.50347346 0.059696145 0.061122883
0.50349915 0.060540255 0.061117738
0.50439304 0.061308615 0.061628722
0.50441867 0.062151127 0.061623588
0.50444424 0.062993638 0.061618455
0.50446987 0.063836157 0.061613321
0.50449544 0.064678669 0.061608184
0.50538915 0.065437466 0.062119253
0.50541472 0.066278391 0.062114127
0.50544024 0.067119315 0.062109005
0.50546581 0.067960232 0.062103879
0.50549138 0.068801157 0.062098756
0.5046491 0.069733754 0.06157738
0.50467473 0.070576265 0.061572246
0.50470036 0.071418785 0.061567113
0.50472593 0.072261296 0.061561979
0.50475156 0.073103815 0.061556846
0.50390965 0.074045964 0.061035439
0.50035799 0.05401266 0.058436535
0.50125146 0.054800171 0.058948636
0.50127727 0.055649053 0.058943462
0.50130308 0.056497939 0.058938287
0.50219637 0.057279076 0.059450451
0.50308961 0.058057033 0.059962608
0.5031153 0.058902729 0.059957456
0.50314099 0.05974843 0.059952304
0.50403398 0.060520016 0.060464494
0.50405961 0.061364122 0.060459349
0.5040853 0.062208228 0.060454205
0.50497812 0.06297344 0.06096644
0.50500369 0.063815959 0.060961306
0.50502932 0.06465847 0.060956173
0.50505489 0.065500982 0.060951035
0.50508052 0.066343494 0.060945902
0.50510615 0.067186013 0.060940769
0.50513172 0.068028525 0.060935635
0.50515735 0.068871044 0.060930502
0.50518298 0.069713555 0.060925368
0.50520855 0.070556067 0.060920231
0.50436753 0.07149341 0.060397625
0.50439316 0.072337516 0.06039248
0.50441885 0.073181622 0.060387336
0.50444448 0.074025728 0.060382191
0.50003022 0.054053605 0.057259869
0.50092274 0.054842748 0.057773184
0.50094855 0.055693224 0.057768002
0.50184095 0.056477588 0.058281347
0.50186676 0.057326473 0.058276173
0.50275904 0.058106054 0.058789585
0.50365114 0.058882456 0.059302982
0.50367683 0.059728153 0.059297826
0.50370252 0.060573854 0.059292674
0.5045945 0.061343882 0.059806105
0.50462013 0.062187988 0.059800964
0.50464582 0.063032098 0.059795819
0.50467145 0.063876204 0.059790675
0.50469708 0.06472031 0.05978553
0.50472277 0.065564416 0.059780389
0.50561434 0.066323295 0.060293894
0.50563997 0.067165814 0.060288761
0.50479972 0.068096735 0.059764955
0.50482541 0.068940848 0.059759814
0.50485104 0.069784954 0.05975467
0.50487673 0.07062906 0.059749525
0.50490236 0.071473166 0.05974438
0.50492805 0.072317272 0.059739236
0.50495368 0.073161379 0.059734095
0.50411385 0.074105047 0.059210218
0.49970445 0.054094475 0.056080721
0.50059599 0.054885246 0.056595262
0.50148743 0.055672836 0.057109825
0.5015133 0.056523312 0.057104643
0.50240463 0.057306122 0.057619233
0.5032959 0.05808574 0.05813387
0.50332165 0.058933031 0.058128707
0.5033474 0.059780326 0.058123544
0.50423843 0.060553577 0.058638193
0.50426412 0.061399277 0.058633037
0.50428981 0.062244978 0.058627885
0.50431556 0.063090675 0.058622733
0.50520629 0.063855968 0.059137426
0.50523198 0.064700074 0.059132282
0.50525761 0.065544181 0.059127141
0.5052833 0.066388287 0.059121996
0.50530893 0.067232393 0.059116852
0.50533462 0.068076499 0.059111707
0.50536025 0.068920605 0.059106566
0.50452119 0.069856271 0.058581505
0.50454688 0.070701972 0.058576349
0.50457257 0.071547672 0.058571197
0.50459826 0.072393373 0.058566045
0.50462401 0.073239073 0.058560889
0.50378519 0.074184291 0.058035772
0.49851599 0.054196529 0.054378122
0.4994067 0.054990523 0.054893907
0.50116181 0.055716887 0.055930667
0.50205219 0.05650292 0.056446467
0.5029425 0.057285771 0.056962289
0.50296831 0.058134653 0.056957118
0.50385851 0.058912721 0.057473
0.50388426 0.059760012 0.057467837
0.50391001 0.060607303 0.057462674
0.50393575 0.061454594 0.05745751
0.50482565 0.062224701 0.057973411
0.5048514 0.063070402 0.057968255
0.50487709 0.063916102 0.057963103
0.50490278 0.064761803 0.057957951
0.50492847 0.065607503 0.057952795
0.50495422 0.066453196 0.057947643
0.50497991 0.067298897 0.057942487
0.5050056 0.068144597 0.057937335
0.50503135 0.068990298 0.057932183
0.50505704 0.069835991 0.057927027
0.50508273 0.070681691 0.057921875
0.5042448 0.071622103 0.057395551
0.50427055 0.072469391 0.057390388
0.5042963 0.073316686 0.057385225
0.50432205 0.074163981 0.057380062
0.49644181 0.053498022 0.052153666
0.49819529 0.054237209 0.053192813
0.49994859 0.054970019 0.054232031
0.50172758 0.056548528 0.055266064
0.50261694 0.057333007 0.055783112
0.50350618 0.058114301 0.056300174
0.50353199 0.058963183 0.056295
0.50355774 0.059812069 0.056289829
0.50444686 0.060586989 0.056806963
0.50447261 0.06143428 0.0568018
0.50449836 0.062281571 0.05679664
0.50452411 0.063128866 0.056791477
0.50454986 0.063976154 0.056786314
0.50457567 0.064823449 0.05678115
0.50460142 0.065670736 0.056775987
0.50462717 0.066518031 0.056770824
0.50465292 0.067365326 0.056765661
0.50467867 0.068212621 0.056760497
0.50470442 0.069059908 0.056755334
0.50473017 0.069907203 0.056750171
0.50475591 0.070754491 0.056745008
0.50478166 0.071601786 0.056739844
0.50480741 0.072449081 0.056734681
0.50483316 0.073296368 0.056729518
0.50399643 0.074243113 0.05620189
0.49612504 0.053536959 0.050963409
0.49787658 0.054277811 0.052005038
0.50226748 0.056528099 0.05460665
0.50315583 0.057312619 0.055124927
0.50318164 0.058163095 0.055119745
0.50406986 0.058942832 0.055638053
0.50409567 0.059791718 0.055632882
0.50412142 0.060640603 0.055627707
0.50414723 0.061489489 0.055622537
0.50417304 0.062338371 0.055617362
0.50419885 0.063187256 0.055612188
0.50422466 0.064036146 0.055607017
0.50511253 0.064803138 0.056125436
0.50513828 0.065650426 0.056120273
0.50516403 0.066497721 0.056115109
0.50518978 0.067345016 0.056109946
0.50521553 0.068192303 0.056104783
0.50524127 0.069039591 0.05609962
0.50440526 0.069978334 0.055570807
0.50443107 0.070827216 0.055565633
0.50445688 0.071676105 0.055560462
0.50448269 0.072524995 0.055555288
0.5045085 0.073373877 0.055550113
0.5045343 0.074222758 0.055544943
0.49581033 0.053575817 0.04977072
0.50194591 0.056573592 0.053422552
0.50369471 0.057292227 0.054466758
0.50372052 0.058142707 0.054461576
0.50460774 0.058922481 0.054981116
0.50377226 0.059843659 0.054451212
0.5046593 0.060620252 0.054970771
0.5046851 0.061469138 0.0549656
0.50471091 0.06231802 0.054960426
0.50473672 0.063166901 0.054955252
0.50476253 0.064015791 0.054950081
0.50478834 0.064864673 0.054944906
0.50481415 0.065713562 0.054939736
0.50483996 0.066562444 0.054934561
0.50486577 0.067411333 0.054929391
0.50489151 0.068260215 0.054924216
0.50491732 0.069109097 0.054919042
0.50494313 0.069957979 0.054913871
0.50496894 0.070806868 0.054908697
0.50499475 0.071655758 0.054903526
0.50502056 0.07250464 0.054898351
0.50504637 0.073353529 0.054893177
0.50421172 0.074301779 0.054363109
0.49549764 0.053614594 0.048575565
0.50248682 0.056553125 0.052761909
0.50337315 0.057339314 0.053282645
0.50425941 0.058122315 0.053803395
0.50428528 0.058972791 0.053798214
0.50431114 0.059823267 0.053793032
0.50433695 0.060673747 0.053787846
0.50436282 0.061524224 0.053782664
0.50438869 0.0623747 0.053777482
0.50527459 0.063146554 0.054298304
0.5053004 0.063995436 0.054293133
0.50532621 0.064844325 0.054287959
0.50535202 0.065693207 0.054282788
0.50537783 0.066542089 0.054277614
0.50540364 0.067390978 0.054272439
0.50542945 0.06823986 0.054267269
0.5054552 0.06908875 0.054262094
0.505481 0.069937631 0.054256923
0.5046472 0.070879474 0.053725656
0.50467306 0.071729951 0.053720474
0.50469887 0.072580434 0.053715292
0.50472474 0.073430911 0.05371011
0.50475061 0.074281387 0.053704925
0.49604663 0.053593826 0.047905065
0.50302768 0.056532659 0.052101273
0.50391304 0.057318885 0.052623242
0.50479829 0.058101926 0.053145226
0.50482416 0.058952402 0.053140044
0.50485003 0.059802879 0.053134859
0.50487584 0.060653359 0.053129677
0.50490171 0.061503835 0.053124495
0.50492758 0.062354311 0.053119313
0.50495338 0.063204788 0.053114131
0.50497925 0.064055264 0.053108949
0.50500512 0.06490574 0.053103764
0.50503099 0.065756224 0.053098582
0.5050568 0.0666067 0.0530934
0.50508267 0.067457177 0.053088218
0.50510854 0.068307653 0.053083036
0.50513434 0.069158129 0.05307785
0.50516021 0.070008606 0.053072669
0.50518608 0.070859082 0.053067487
0.50521189 0.071709566 0.053062305
0.50523776 0.072560042 0.053057123
0.50526363 0.073410518 0.053051937
0.50528949 0.074260995 0.053046755
0.50356859 0.056512192 0.05144063
0.50445294 0.057298459 0.051963829
0.50447887 0.058150526 0.051958635
0.50450474 0.059002597 0.051953442
0.50453067 0.059854664 0.051948253
0.50455654 0.060706738 0.05194306
0.50458246 0.061558809 0.051937867
0.50460833 0.062410876 0.051932674
0.50463426 0.063262947 0.051927481
0.50551814 0.064034879 0.052450772
0.50554401 0.064885356 0.05244559
0.50556988 0.065735832 0.052440409
0.50473785 0.066671222 0.051906712
0.50476372 0.067523301 0.051901519
0.50478965 0.068375371 0.05189633
0.50481552 0.069227435 0.051891137
0.50484145 0.070079505 0.051885944
0.50486732 0.070931576 0.051880751
0.50575078 0.071689174 0.052404128
0.50491911 0.072635718 0.051870368
0.50580251 0.073390126 0.052393764
0.50497091 0.074339859 0.051859982
0.5041095 0.056491725 0.050779995
0.50499284 0.05727803 0.051304426
0.50501871 0.0581301 0.051299233
0.50504464 0.058982167 0.05129404
0.50507051 0.059834238 0.051288847
0.50509644 0.060686309 0.051283658
0.5051223 0.06153838 0.051278464
0.50514823 0.06239045 0.051273271
0.50517416 0.063242517 0.051268078
0.50520003 0.064094588 0.051262885
0.50522596 0.064946659 0.051257696
0.50525182 0.06579873 0.051252503
0.50527775 0.0666508 0.05124731
0.50530362 0.067502871 0.051242117
0.50532955 0.068354942 0.051236928
0.50535542 0.069207005 0.051231734
0.50538135 0.070059076 0.051226541
0.50540721 0.070911147 0.051221348
0.50543314 0.071763225 0.051216155
0.50545901 0.072615296 0.051210966
0.50548494 0.073467359 0.051205773
0.50551081 0.07431943 0.05120058
0.50465041 0.056471258 0.050119352
0.50553274 0.0572576 0.050645016
0.50470233 0.058178589 0.050108951
0.50472826 0.05903225 0.050103746
0.50475419 0.059885912 0.050098546
0.50478011 0.060739577 0.050093342
0.5048061 0.061593238 0.050088141
0.50483203 0.0624469 0.050082941
0.50485796 0.063300565 0.050077736
0.50488394 0.06415423 0.050072536
0.50490987 0.065007888 0.050067332
0.5049358 0.065861553 0.050062131
0.50496179 0.066715218 0.050056931
0.50498772 0.067568876 0.050051726
0.50501364 0.068422541 0.050046526
0.50503963 0.069276199 0.050041325
0.50506556 0.070129864 0.050036121
0.50509149 0.070983529 0.050030921
0.50511748 0.071837194 0.050025716
0.50599891 0.072594866 0.050551556
0.50602484 0.073446929 0.050546363
0.50519133 0.056450792 0.049458712
0.50607264 0.057237171 0.049985602
0.50524318 0.058158122 0.049448308
0.50526917 0.059011783 0.049443107
0.5052951 0.059865445 0.049437903
0.50446588 0.060792767 0.048900563
0.50449187 0.061648019 0.048895352
0.50451785 0.062503278 0.04889014
0.50454384 0.06335853 0.048884928
0.50456983 0.06421379 0.048879717
0.50459588 0.065069042 0.048874505
0.50462186 0.065924294 0.048869293
0.50464785 0.066779554 0.048864082
0.50467384 0.067634806 0.04885887
0.50469983 0.068490066 0.048853658
0.50472581 0.069345318 0.048848446
0.5047518 0.070200577 0.048843235
0.50477785 0.07105583 0.048838023
0.50480384 0.071911089 0.048832811
0.50568432 0.072670385 0.049359873
0.50571024 0.07352405 0.049354672
0.50573224 0.056430325 0.048798069
0.50575817 0.05728399 0.048792869
0.50578409 0.058137655 0.048787665
0.50581008 0.058991317 0.048782464
0.50583601 0.059844978 0.04877726
0.50586194 0.060698643 0.048772059
0.50503379 0.061627515 0.048233483
0.50505978 0.062482771 0.048228271
0.50508577 0.063338026 0.04822306
0.50511175 0.064193279 0.048217848
0.50513774 0.065048538 0.048212636
0.50516373 0.06590379 0.048207425
0.50518978 0.06675905 0.048202213
0.50521576 0.067614302 0.048197001
0.50524175 0.068469562 0.04819179
0.50526774 0.069324814 0.048186578
0.50529373 0.070180066 0.048181366
0.50531971 0.071035326 0.048176154
0.5053457 0.071890585 0.048170943
0.50622523 0.072649918 0.04869923
0.50712651 0.056344245 0.048671983
0.50715244 0.057196315 0.04866679
0.50632501 0.058117189 0.048127022
0.50635093 0.05897085 0.048121821
0.50637692 0.059824511 0.048116621
0.50640285 0.060678177 0.048111416
0.50642878 0.061531838 0.048106216
0.5056017 0.062462267 0.047566395
0.50562769 0.063317522 0.047561184
0.50565368 0.064172775 0.047555972
0.50567967 0.065028034 0.04755076
0.50570565 0.065883286 0.047545549
0.50573164 0.066738538 0.047540337
0.50575769 0.067593798 0.047535125
0.50578368 0.068449058 0.047529913
0.50580966 0.06930431 0.047524702
0.5066883 0.070068464 0.048054196
0.50671422 0.070922129 0.048048992
0.50676614 0.072629452 0.048038591
0.50679207 0.073483117 0.048033386
0.50766641 0.056323815 0.048012581
0.50769228 0.057175886 0.048007388
0.50771821 0.058027957 0.048002195
0.50774407 0.058880027 0.047997002
0.50691783 0.059804045 0.047455981
0.50694376 0.06065771 0.047450781
0.50696969 0.061511371 0.04744558
0.50699568 0.062365033 0.047440376
0.50702161 0.063218698 0.047435176
0.50704753 0.064072363 0.047429971
0.50707346 0.064926021 0.047424771
0.50709945 0.065779686 0.04741957
0.50712538 0.066633351 0.047414366
0.50715131 0.067487009 0.047409166
0.50717729 0.068340674 0.047403961
0.50720322 0.069194332 0.047398761
0.50722915 0.070047997 0.04739356
0.50810671 0.070809007 0.04792431
0.50813258 0.071661077 0.047919117
0.50818437 0.073365219 0.047908735
0.50823218 0.057155456 0.047347974
0.5082581 0.058007527 0.047342781
0.50828397 0.058859598 0.047337588
0.5083099 0.059711665 0.047332395
0.50833583 0.060563739 0.047327206
0.5083617 0.06141581 0.047322012
0.50753653 0.062344566 0.046779733
0.50756252 0.063198231 0.046774533
0.50758845 0.064051896 0.046769332
0.50761437 0.064905554 0.046764128
0.50764036 0.065759219 0.046758927
0.50766629 0.066612884 0.046753723
0.50769222 0.067466542 0.046748523
0.50771821 0.068320207 0.046743322
0.50859481 0.069084436 0.047275282
0.50862068 0.069936506 0.047270089
0.50864661 0.070788577 0.047264896
0.50867248 0.071640648 0.047259703
0.50872427 0.073344789 0.047249321
0.5096224 0.057067934 0.047226828
0.50964826 0.057918411 0.047221646
0.50882387 0.058839168 0.046678185
0.50969994 0.059619367 0.047211282
0.50887567 0.06054331 0.046667799
0.5089016 0.061395381 0.04666261
0.50892746 0.062247451 0.046657417
0.50895339 0.063099518 0.046652224
0.50897926 0.063951589 0.046647031
0.50900519 0.06480366 0.046641838
0.50903106 0.065655731 0.046636648
0.50905699 0.066507801 0.046631455
0.50908285 0.067359872 0.046626262
0.50910878 0.068211943 0.046621069
0.50913465 0.069064006 0.046615876
0.51001018 0.069825098 0.047149092
0.51003605 0.070675567 0.047143906
0.51006186 0.071526051 0.047138724
0.51008773 0.072376527 0.047133543
0.5101136 0.073227003 0.047128361
0.51098484 0.056131601 0.047113318
0.51016128 0.057047546 0.046568654
0.51018715 0.057898022 0.046563473
0.51021302 0.058748499 0.046558287
0.51023883 0.059598975 0.046553105
0.51026469 0.060449455 0.046547923
0.51029056 0.061299931 0.046542741
0.51031643 0.062150408 0.046537559
0.51034224 0.063000888 0.046532378
0.51036811 0.063851364 0.046527192
0.51039398 0.06470184 0.04652201
0.51041979 0.065552317 0.046516828
0.51044565 0.066402793 0.046511646
0.51047152 0.067253269 0.046506464
0.51049733 0.068103753 0.046501279
0.5105232 0.068954229 0.046496097
0.51139766 0.069713756 0.047030553
0.51142347 0.070562638 0.047025379
0.51144928 0.071411528 0.047020208
0.51147509 0.072260417 0.047015034
0.51150084 0.073109299 0.047009863
0.51154852 0.056960136 0.046451204
0.51157427 0.057809018 0.046446033
0.51160008 0.058657903 0.046440858
0.51162589 0.059506789 0.046435684
0.51165169 0.060355674 0.046430513
0.5116775 0.06120456 0.046425339
0.51170331 0.062053442 0.046420168
0.51172912 0.062902324 0.046414994
0.51175493 0.063751213 0.046409823
0.51178074 0.064600095 0.046404649
0.51180649 0.065448985 0.046399474
0.5118323 0.066297866 0.046394303
0.51185811 0.067146756 0.046389129
0.51188391 0.067995638 0.046383958
0.51275742 0.068755202 0.046919677
0.51278317 0.069602489 0.046914514
0.51280892 0.070449784 0.046909351
0.51283467 0.071297079 0.046904188
0.51286042 0.072144374 0.046899024
0.51288617 0.072991662 0.046893861
0.51293373 0.056872796 0.046336252
0.51295948 0.057720091 0.046331089
0.51298523 0.058567382 0.046325926
0.51301098 0.059414674 0.046320762
0.51303673 0.060261965 0.046315599
0.51306248 0.061109256 0.046310436
0.51308823 0.061956551 0.046305276
0.51311398 0.062803842 0.046300113
0.51313972 0.063651137 0.04629495
0.51316547 0.064498425 0.046289787
0.51319122 0.065345719 0.046284623
0.51321703 0.066193007 0.04627946
0.51324278 0.067040302 0.046274297
0.51326853 0.067887597 0.046269134
0.51329428 0.068734884 0.04626397
0.51416659 0.069491304 0.046800904
0.51419228 0.070337005 0.046795752
0.51421803 0.071182713 0.0467906
0.51424372 0.072028406 0.046785444
0.51426941 0.072874106 0.046780292
0.5142951 0.073719807 0.046775136
0.51431686 0.056785543 0.04622373
0.51434255 0.057631239 0.046218578
0.5143683 0.05847694 0.046213426
0.51439399 0.059322637 0.04620827
0.51441967 0.060168337 0.046203118
0.51444542 0.061014038 0.046197966
0.51447111 0.061859738 0.04619281
0.5144968 0.062705435 0.046187658
0.51452249 0.063551135 0.046182506
0.51454824 0.064396836 0.04617735
0.51457393 0.065242536 0.046172198
0.51459962 0.066088229 0.046167042
0.51462531 0.06693393 0.04616189
0.51549667 0.067691989 0.046700053
0.51552236 0.068536095 0.046694908
0.51554799 0.069380201 0.046689764
0.51557368 0.070224307 0.046684623
0.51559931 0.071068414 0.046679478
0.515625 0.071912527 0.046674334
0.51565063 0.072756633 0.046669189
0.51567632 0.073600739 0.046664048
0.5148527 0.056765266 0.045569252
0.51487845 0.057610966 0.0455641
0.51490414 0.058456663 0.045558948
0.51492983 0.059302364 0.045553792
0.51495552 0.060148064 0.04554864
0.51498127 0.060993765 0.045543484
0.51500696 0.061839461 0.045538332
0.51503265 0.062685162 0.04553318
0.5150584 0.063530862 0.045528024
0.51508409 0.064376563 0.045522872
0.51595455 0.065139428 0.046062239
0.51598024 0.065983534 0.046057094
0.51600587 0.06682764 0.046051953
0.51603156 0.067671746 0.046046808
0.51605719 0.068515852 0.046041664
0.51608288 0.069359966 0.046036519
0.51610851 0.070204072 0.046031374
0.5161342 0.071048178 0.046026234
0.51615983 0.071892284 0.046021089
0.51618546 0.07273639 0.046015944
0.51621115 0.073580496 0.0460108
0.51538861 0.056744989 0.044914775
0.5154143 0.05759069 0.044909623
0.51543999 0.058436386 0.044904467
0.51546568 0.059282087 0.044899315
0.51549143 0.060127787 0.044894163
0.51551712 0.060973488 0.044889007
0.51554281 0.061819185 0.044883855
0.51556849 0.062664881 0.044878703
0.51559424 0.063510589 0.044873547
0.51561993 0.064356282 0.044868395
0.51564562 0.065201983 0.044863239
0.51567137 0.066047683 0.044858087
0.51569706 0.066893384 0.044852935
0.51572275 0.067739084 0.044847779
0.51659203 0.068495616 0.045388419
0.51661772 0.069339722 0.045383275
0.51664335 0.070183828 0.04537813
0.51666903 0.071027942 0.045372989
0.51669466 0.071872048 0.045367844
0.51672035 0.072716154 0.0453627
0.51674598 0.07356026 0.045357555
0.51508117 0.05679154 0.043713409
0.51510692 0.057638835 0.043708246
0.51513267 0.058486126 0.043703083
0.51515841 0.059333418 0.04369792
0.51518422 0.060180709 0.043692756
0.51520997 0.061028004 0.043687593
0.51607865 0.061798908 0.044229377
0.5161044 0.062644608 0.044224221
0.51613009 0.063490309 0.044219069
0.51615578 0.064336009 0.044213917
0.51618147 0.06518171 0.044208761
0.51620722 0.066027403 0.044203609
0.51623291 0.066873103 0.044198453
0.5162586 0.067718804 0.044193301
0.51628435 0.068564504 0.044188149
0.51631004 0.069410205 0.044182993
0.51633573 0.070255905 0.044177841
0.51636142 0.071101606 0.044172689
0.51638716 0.071947306 0.044167534
0.51725519 0.072695918 0.044709455
0.51643854 0.073638707 0.044157226
0.51477575 0.056838021 0.042509545
0.51564378 0.057618521 0.043052536
0.51482737 0.058535788 0.0424992
0.51569533 0.059313104 0.043042209
0.51572108 0.060160395 0.043037046
0.51574683 0.06100769 0.043031882
0.51577258 0.061854981 0.043026719
0.51579833 0.062702268 0.043021556
0.51582408 0.063549563 0.043016393
0.51584983 0.064396858 0.043011229
0.51587558 0.065244146 0.043006066
0.51590133 0.066091441 0.043000903
0.51592708 0.066938736 0.04299574
0.51595283 0.067786023 0.042990576
0.51682019 0.068544231 0.043533672
0.51684588 0.069389924 0.043528516
0.51687157 0.070235625 0.043523364
0.51605588 0.071175195 0.042969923
0.51608163 0.07202249 0.04296476
0.5169487 0.072772726 0.043507904
0.51613313 0.073717073 0.042954434
0.51447237 0.056884423 0.041303251
0.51533943 0.057666555 0.04184743
0.51536524 0.058515437 0.041842259
0.51539105 0.059364323 0.041837085
0.5154168 0.060213208 0.041831911
0.51544261 0.061062094 0.04182674
0.51546842 0.061910976 0.041821565
0.51549423 0.062759861 0.041816395
0.51552004 0.063608751 0.04181122
0.51638669 0.06437654 0.042355523
0.51641244 0.065223835 0.042350359
0.51643819 0.066071123 0.042345196
0.51646394 0.066918418 0.042340033
0.51648968 0.067765713 0.04233487
0.51651549 0.068613 0.042329706
0.51654124 0.069460295 0.042324543
0.51656699 0.070307583 0.04231938
0.51659274 0.071154878 0.042314216
0.51661849 0.072002172 0.042309053
0.51664424 0.07284946 0.04230389
0.51666999 0.073696755 0.042298727
0.51414514 0.056078672 0.04009968
0.51501125 0.056864031 0.040645074
0.51503712 0.057714507 0.040639892
0.51506299 0.058564983 0.04063471
0.5150888 0.059415463 0.040629528
0.51511467 0.06026594 0.040624347
0.51514053 0.061116416 0.040619161
0.51600629 0.061890624 0.041164625
0.5160321 0.062739506 0.041159451
0.51605791 0.063588396 0.04115428
0.51608372 0.064437278 0.041149106
0.51610953 0.065286167 0.041143931
0.51613533 0.066135049 0.041138761
0.51616114 0.066983938 0.041133586
0.51618695 0.06783282 0.041128416
0.5162127 0.068681702 0.041123241
0.51623851 0.069530584 0.04111807
0.51626432 0.070379473 0.041112896
0.51629013 0.071228363 0.041107722
0.51631594 0.072077245 0.041102551
0.51634175 0.072926134 0.041097376
0.51636755 0.073775016 0.041092206
0.51468503 0.056058247 0.039440274
0.5147109 0.056910317 0.039435081
0.51473683 0.057762384 0.039429892
0.5147627 0.058614455 0.039424699
0.51478863 0.059466526 0.039419506
0.5148145 0.060318597 0.039414313
0.51567942 0.061096027 0.039960988
0.51570523 0.061946504 0.039955806
0.5157311 0.06279698 0.03995062
0.51575696 0.063647456 0.039945439
0.51578283 0.06449794 0.039940257
0.51580864 0.065348417 0.039935075
0.51583451 0.066198893 0.039929893
0.51586038 0.067049369 0.039924707
0.51588619 0.067899846 0.039919525
0.51591206 0.068750322 0.039914344
0.51593792 0.069600806 0.039909162
0.51596373 0.070451275 0.03990398
0.5159896 0.071301758 0.039898794
0.51601547 0.072152235 0.039893612
0.51604134 0.073002711 0.03988843
0.51606715 0.073853187 0.039883249
0.51354837 0.056167904 0.037674785
0.51441258 0.056956526 0.038222622
0.51443857 0.057810187 0.038217422
0.5144645 0.058663849 0.038212221
0.51532853 0.059446096 0.038760096
0.51535439 0.060298167 0.038754903
0.51538032 0.061150238 0.038749713
0.51540619 0.062002309 0.03874452
0.51543212 0.062854379 0.038739327
0.51545799 0.06370645 0.038734134
0.51548392 0.064558521 0.038728945
0.51550978 0.065410592 0.038723752
0.51553571 0.066262655 0.038718559
0.51556158 0.067114726 0.038713366
0.51558751 0.067966796 0.038708173
0.51561338 0.068818867 0.038702983
0.51563931 0.069670938 0.03869779
0.51566517 0.070523009 0.038692597
0.5156911 0.071375079 0.038687404
0.51571697 0.07222715 0.038682211
0.5157429 0.073079221 0.038677022
0.51576883 0.073931292 0.038671829
0.51325297 0.05621241 0.036458604
0.51411629 0.057002656 0.037007701
0.51414227 0.057857912 0.037002489
0.51416826 0.058713168 0.036997277
0.51419431 0.05956842 0.036992066
0.5142203 0.060423676 0.036986854
0.51508325 0.06120437 0.037535973
0.51510918 0.062058035 0.037530772
0.51513511 0.062911697 0.037525572
0.5151611 0.063765362 0.037520368
0.51518703 0.06461902 0.037515167
0.51521295 0.065472685 0.037509963
0.51523894 0.06632635 0.037504762
0.51526487 0.067180015 0.037499562
0.5152908 0.068033673 0.037494358
0.51531678 0.068887338 0.037489157
0.51534271 0.069740996 0.037483953
0.51536864 0.070594661 0.037478752
0.51539463 0.071448326 0.037473552
0.51542056 0.072301984 0.037468348
0.51544648 0.073155649 0.037463147
0.51463622 0.074107766 0.036903467
0.51379591 0.056191865 0.035795499
0.51382196 0.057048716 0.035790276
0.51384801 0.057905562 0.035785053
0.51471019 0.05869266 0.036335401
0.5139001 0.059619259 0.035774611
0.51476222 0.060403172 0.036324978
0.51478821 0.061258428 0.036319766
0.5148142 0.062113684 0.036314555
0.51484019 0.06296894 0.036309343
0.51486617 0.063824192 0.036304131
0.51489216 0.064679451 0.036298919
0.51491815 0.065534703 0.036293708
0.5149442 0.066389956 0.036288496
0.51497018 0.067245215 0.036283284
0.51499617 0.068100475 0.036278073
0.51502216 0.068955727 0.036272861
0.51504815 0.069810979 0.036267649
0.51507413 0.070666239 0.036262438
0.51510012 0.071521491 0.036257226
0.51512611 0.07237675 0.036252014
0.51515216 0.073232003 0.036246803
0.51434284 0.074185677 0.035685848
0.51350361 0.056236256 0.034575652
0.5143649 0.057028174 0.03512717
0.51439095 0.057885021 0.035121948
0.51441699 0.058741868 0.035116728
0.51444304 0.059598718 0.035111506
0.51446909 0.060455568 0.035106283
0.51449513 0.061312415 0.035101064
0.51535612 0.062093176 0.035652682
0.51538211 0.062948436 0.035647471
0.5154081 0.063803688 0.035642259
0.51543409 0.064658947 0.035637047
0.51546007 0.065514199 0.035631835
0.51548606 0.066369452 0.035626624
0.51551205 0.067224711 0.035621412
0.5155381 0.068079963 0.0356162
0.51556408 0.068935223 0.035610989
0.51475555 0.069880895 0.03504885
0.51478159 0.070737742 0.035043627
0.51480764 0.071594596 0.035038408
0.51483369 0.072451442 0.035033185
0.51485974 0.073308289 0.035027962
0.51488578 0.074165136 0.035022743
0.51407766 0.075121954 0.034460571
0.51404756 0.056215674 0.033911318
0.51407361 0.057074115 0.033906087
0.51409972 0.057932556 0.033900853
0.51412582 0.058790997 0.033895623
0.51498592 0.059578173 0.034448404
0.51501197 0.060435023 0.034443181
0.51503801 0.06129187 0.034437962
0.51506406 0.06214872 0.034432739
0.51592404 0.062927924 0.034985598
0.51595002 0.063783184 0.034980386
0.51597601 0.064638436 0.034975175
0.516002 0.065493695 0.034969963
0.51602799 0.066348948 0.034964751
0.51605397 0.067204207 0.03495954
0.51524639 0.068146653 0.03439619
0.51527244 0.069003507 0.034390967
0.51529849 0.069860347 0.034385744
0.51532453 0.070717201 0.034380525
0.51535058 0.071574047 0.034375302
0.51454329 0.072526045 0.033811927
0.51540267 0.07328774 0.034364861
0.51459551 0.074242927 0.033801463
0.51456535 0.05533665 0.033252209
0.51459146 0.056195091 0.033246979
0.51461756 0.057053536 0.033241749
0.51464367 0.057911973 0.033236515
0.51466978 0.058770414 0.033231284
0.51552886 0.059557632 0.033785298
0.5155549 0.060414482 0.033780076
0.51558095 0.061271328 0.033774853
0.515607 0.062128175 0.033769634
0.51563305 0.062985025 0.033764411
0.51649189 0.06376268 0.034318514
0.51651794 0.064617932 0.034313302
0.51654392 0.065473191 0.034308091
0.51656991 0.066328444 0.034302879
0.51576328 0.067269266 0.033738304
0.51578933 0.068126112 0.033733085
0.51581538 0.068982959 0.033727862
0.51584136 0.069839805 0.033722639
0.51586741 0.070696652 0.03371742
0.51506114 0.071647026 0.033152819
0.51508725 0.072505467 0.033147588
0.51511329 0.073363908 0.033142354
0.5151394 0.074222349 0.033137124
0.5151093 0.055316072 0.032587875
0.51513541 0.056174509 0.032582641
0.51516151 0.057032954 0.03257741
0.51518756 0.057891395 0.03257218
0.51521367 0.058749832 0.03256695
0.5160718 0.059537087 0.033122193
0.51609784 0.060393937 0.03311697
0.51612389 0.061250784 0.033111747
0.51614994 0.062107634 0.033106528
0.51617599 0.062964477 0.033101305
0.51703382 0.063742176 0.033656642
0.5170598 0.064597428 0.03365143
0.51708579 0.065452687 0.033646218
0.51711184 0.06630794 0.033641007
0.51630616 0.067248724 0.033075199
0.51633221 0.068105571 0.033069976
0.51635826 0.068962418 0.033064757
0.5163843 0.069819264 0.033059534
0.51557899 0.070767999 0.032493714
0.51560509 0.071626447 0.03248848
0.51563114 0.072484888 0.03248325
0.51565725 0.073343329 0.03247802
0.51568335 0.074201763 0.032472789
0.51565325 0.05529549 0.031923532
0.5156793 0.056153931 0.031918302
0.51570541 0.057012372 0.031913072
0.51656264 0.057802849 0.03246953
0.51575762 0.058729254 0.031902611
0.51661468 0.059516545 0.032459084
0.51664072 0.060373396 0.032453865
0.51666677 0.061230242 0.032448642
0.51669282 0.062087089 0.032443423
0.51671886 0.062943935 0.0324382
0.51757574 0.063721672 0.03299477
0.51760173 0.064576924 0.032989558
0.51762772 0.065432176 0.032984346
0.5176537 0.066287436 0.032979134
0.5168491 0.067228176 0.032412093
0.51687515 0.06808503 0.03240687
0.5169012 0.068941876 0.032401651
0.51692724 0.069798723 0.032396428
0.51695329 0.070655569 0.032391205
0.51697934 0.071512423 0.032385986
0.51617509 0.072464302 0.031818911
0.5162012 0.073322743 0.031813681
0.51622725 0.074181184 0.031808451
0.51619714 0.055274907 0.031259198
0.51622325 0.056133348 0.031253967
0.51707947 0.056925461 0.031811647
0.51710552 0.057782307 0.031806424
0.51713157 0.058639154 0.031801205
0.51715761 0.059496 0.031795982
0.51718366 0.060352851 0.031790759
0.51803964 0.0611354 0.032348532
0.51806563 0.061990652 0.032343321
0.51809168 0.062845908 0.032338109
0.51811767 0.063701168 0.032332897
0.51814365 0.06455642 0.032327686
0.51816964 0.065411672 0.032322474
0.51819563 0.066266932 0.032317262
0.51822162 0.067122191 0.03231205
0.51741809 0.068064481 0.031743769
0.51744413 0.068921335 0.031738546
0.51747018 0.069778174 0.031733327
0.51749617 0.070635028 0.031728104
0.51752222 0.071491875 0.031722885
0.51754826 0.072348729 0.031717662
0.51674509 0.073302165 0.031149345
0.51759636 0.056048065 0.031153763
0.51762241 0.056904916 0.031148542
0.51764846 0.057761762 0.031143319
0.51767451 0.058618613 0.031138098
0.51852959 0.059404381 0.031697083
0.51855558 0.06025964 0.031691872
0.51858157 0.061114892 0.03168666
0.51860756 0.061970148 0.031681448
0.51863354 0.062825404 0.031676237
0.51865953 0.063680656 0.031671025
0.51868558 0.064535916 0.031665813
0.51871157 0.065391168 0.031660601
0.51873755 0.066246428 0.03165539
0.51876354 0.06710168 0.031650178
0.51878953 0.067956939 0.031644966
0.51881552 0.068812191 0.031639755
0.51801306 0.069757633 0.031070219
0.51803911 0.070614479 0.031064998
0.51806515 0.071471334 0.031059777
0.5180912 0.07232818 0.031054556
0.51811725 0.073185027 0.031049334
0.5181393 0.056027524 0.030490654
0.5189935 0.056818113 0.031050842
0.51901948 0.057673369 0.031045631
0.51904547 0.058528621 0.031040419
0.51907152 0.059383877 0.031035207
0.51909751 0.060239132 0.031029996
0.51912349 0.061094388 0.031024784
0.51914948 0.061949644 0.031019572
0.51917547 0.0628049 0.03101436
0.51920146 0.063660152 0.031009149
0.51922745 0.064515412 0.031003937
0.51925349 0.065370664 0.030998725
0.51927948 0.066225916 0.030993514
0.51930547 0.067081176 0.030988302
0.51933146 0.067936435 0.03098309
0.51935744 0.068791687 0.030977879
0.51938343 0.06964694 0.030972667
0.51940942 0.070502199 0.030967455
0.51860809 0.071450792 0.030396668
0.51863414 0.072307639 0.030391447
0.51866019 0.073164485 0.030386226
0.51950943 0.055942353 0.030394182
0.51953542 0.056797609 0.03038897
0.51956141 0.057652861 0.030383758
0.5195874 0.058508117 0.030378547
0.51961339 0.059363373 0.030373335
0.52046633 0.060146041 0.03093477
0.52049226 0.060999703 0.030929567
0.52051824 0.061853368 0.030924367
0.52054417 0.062707029 0.030919164
0.5205701 0.063560694 0.030913962
0.52059609 0.064414352 0.03090876
0.52062201 0.065268017 0.030903557
0.52064794 0.066121683 0.030898357
0.51984739 0.067060672 0.03032643
0.51987338 0.067915931 0.030321218
0.51989937 0.068771183 0.030316006
0.51992536 0.069626436 0.030310795
0.51995134 0.070481695 0.030305583
0.51997733 0.071336947 0.030300371
0.52000332 0.072192207 0.03029516
0.52002937 0.073047459 0.030289948
0.52087748 0.05585726 0.03030014
0.52090341 0.056710925 0.030294938
0.5209294 0.057564586 0.030289738
0.52095532 0.058418248 0.030284535
0.52098125 0.059271913 0.030279333
0.52100724 0.060125574 0.03027413
0.52103317 0.060979236 0.030268928
0.5210591 0.061832901 0.030263728
0.52108508 0.062686563 0.030258525
0.52111101 0.063540228 0.030253323
0.52113694 0.064393885 0.03024812
0.52116293 0.065247551 0.030242918
0.52118886 0.066101216 0.030237718
0.52121478 0.066954881 0.030232515
0.52041531 0.06789542 0.029659346
0.52044129 0.068750679 0.029654134
0.52046728 0.069605932 0.029648922
0.52049327 0.070461184 0.029643711
0.52051926 0.071316443 0.029638499
0.52054524 0.072171703 0.029633287
0.52057123 0.073026955 0.029628076
0.52141839 0.055836793 0.029639499
0.52226943 0.056624316 0.030203372
0.52147031 0.05754412 0.029629095
0.52232122 0.058328457 0.030192988
0.52152216 0.059251446 0.029618692
0.52154815 0.060105108 0.029613489
0.52239895 0.060884666 0.030177411
0.52160001 0.061812434 0.029603085
0.521626 0.062666096 0.029597882
0.52165192 0.063519761 0.029592682
0.52167785 0.064373419 0.029587479
0.52170384 0.065227084 0.029582277
0.52172977 0.066080749 0.029577075
0.5217557 0.066934414 0.029571872
0.52178168 0.067788072 0.029566672
0.52180761 0.068641737 0.029561469
0.52183354 0.069495395 0.029556267
0.52103519 0.07044068 0.028981838
0.52106118 0.071295939 0.028976627
0.52191138 0.072056383 0.029540662
0.52111316 0.073006451 0.028966203
0.4487575 0.14159828 -0.0226328
0.44878784 0.14259689 -0.022638885
0.44881821 0.14359547 -0.022644971
0.52278346 0.055751815 0.029549155
0.52280933 0.05660389 0.029543962
0.52283525 0.057455957 0.029538771
0.52286112 0.058308028 0.029533578
0.52288705 0.059160095 0.029528387
0.52291292 0.060012169 0.029523194
0.52293885 0.06086424 0.029518001
0.52296472 0.061716307 0.02951281
0.52299064 0.062568374 0.029507617
0.52301651 0.063420452 0.029502425
0.52304244 0.064272515 0.029497232
0.52306831 0.065124586 0.029492039
0.52227068 0.066060282 0.028916435
0.52229661 0.066913947 0.028911233
0.52232254 0.067767605 0.028906032
0.52234852 0.06862127 0.02890083
0.52237445 0.069474928 0.028895628
0.52157706 0.070420176 0.028319966
0.52160311 0.071275435 0.028314753
0.52245229 0.072035916 0.028880022
0.52165508 0.072985947 0.028304329
0.52334923 0.05658346 0.028884558
0.52337509 0.057435531 0.028879365
0.52340102 0.058287598 0.028874172
0.52260399 0.059210513 0.028297413
0.52345282 0.05999174 0.028863788
0.52347869 0.06084381 0.028858596
0.52350461 0.061695881 0.028853403
0.52353054 0.062547952 0.02884821
0.52355641 0.063400023 0.028843019
0.52275968 0.064332485 0.028266201
0.5227856 0.06518615 0.028260998
0.52281159 0.066039816 0.028255796
0.52283752 0.066893481 0.028250594
0.52286345 0.067747138 0.028245393
0.52288944 0.068600804 0.028240191
0.52291536 0.069454461 0.028234988
0.52211899 0.070399672 0.027658092
0.52214497 0.071254931 0.02765288
0.52217096 0.072110184 0.027647668
0.52219701 0.072965443 0.027642457
0.52306706 0.056629058 0.027652377
0.52309299 0.057482719 0.027647175
0.52311891 0.058336381 0.027641973
0.5231449 0.059190046 0.02763677
0.52317083 0.060043707 0.027631568
0.52319676 0.060897369 0.027626367
0.52322274 0.061751034 0.027621165
0.52324867 0.062604696 0.027615963
0.5232746 0.063458361 0.02761076
0.52330059 0.064312018 0.027605558
0.52332652 0.065165684 0.027600357
0.52335244 0.066019349 0.027595155
0.52337843 0.066873014 0.027589953
0.52258295 0.067813404 0.027011855
0.52260894 0.068668656 0.027006643
0.52263492 0.069523916 0.027001431
0.52266091 0.070379168 0.02699622
0.5226869 0.071234427 0.026991008
0.52271289 0.07208968 0.026985796
0.52273887 0.072944939 0.026980584
0.52278692 0.056674577 0.026417734
0.5228129 0.057529833 0.026412522
0.52283889 0.058385089 0.026407311
0.52286488 0.059240345 0.026402099
0.52289087 0.060095601 0.026396887
0.52291685 0.060950853 0.026391676
0.52294284 0.061806109 0.026386464
0.52296889 0.062661365 0.026381252
0.52299488 0.063516624 0.026376041
0.52302086 0.064371876 0.026370829
0.52304685 0.065227129 0.026365617
0.52307284 0.066082388 0.026360406
0.52309883 0.06693764 0.026355194
0.52312481 0.0677929 0.026349982
0.5231508 0.068648152 0.026344771
0.52235645 0.069593288 0.025765376
0.5223825 0.070450135 0.025760155
0.52158833 0.071400054 0.025180763
0.52161437 0.072258495 0.025175532
0.52164048 0.073116936 0.0251703
0.52250868 0.05672003 0.025180589
0.52253473 0.057576876 0.025175367
0.52256078 0.058433723 0.025170146
0.52258682 0.059290569 0.025164925
0.52343279 0.060075093 0.025735013
0.52345878 0.060930349 0.025729802
0.52348477 0.061785605 0.02572459
0.52351075 0.062640861 0.025719378
0.52353674 0.063496113 0.025714166
0.52356279 0.064351372 0.025708955
0.52276915 0.065288506 0.025128374
0.5227952 0.066145353 0.025123153
0.52282125 0.067002207 0.025117932
0.52284729 0.067859054 0.025112711
0.52287334 0.0687159 0.02510749
0.52289939 0.069572747 0.025102267
0.52210611 0.070521027 0.024521654
0.52131301 0.071472496 0.023941021
0.52133912 0.072332531 0.02393578
