# .PCD v0.7 - Point Cloud Data file format
VERSION 0.7
FIELDS x y z
SIZE 4 4 4
TYPE F F F
COUNT 1 1 1
WIDTH 1362
HEIGHT 1
VIEWPOINT 0 0 0 1 0 0 0
POINTS 1362
DATA ascii
0.43351164 0.040245201 0.032276664
0.43354079 0.041203979 0.032270819
0.43356994 0.042162757 0.032264978
0.43359908 0.043121535 0.032259136
0.43362823 0.044080313 0.032253291
0.43365738 0.045039091 0.03224745
0.4328061 0.046038996 0.031739257
0.43283528 0.046999369 0.031733405
0.43286449 0.047959737 0.031727552
0.43289366 0.048920106 0.0317217
0.43292287 0.049880479 0.031715848
0.43295205 0.050840847 0.031709995
0.43298125 0.05180122 0.031704143
0.43301043 0.052761592 0.03169829
0.43303964 0.053721961 0.031692438
0.43218884 0.054737795 0.031184148
0.43221807 0.055699758 0.031178284
0.43224731 0.056661721 0.031172423
0.43139672 0.057683922 0.030664094
0.43142602 0.05864748 0.030658223
0.43057558 0.05967446 0.030149857
0.4306049 0.060639609 0.030143976
0.43063423 0.061604757 0.030138094
0.43066359 0.062569909 0.030132214
0.42981333 0.063604854 0.02962378
0.42128378 -0.005403515 0.025269296
0.42307737 -0.0043405741 0.026269486
0.42487085 -0.0032840061 0.027269749
0.42666408 -0.0022338112 0.028270017
0.42845711 -0.0011899873 0.029270325
0.42936829 -0.00018788644 0.029767584
0.43027928 0.00081102474 0.030264832
0.43119019 0.0018067523 0.030762099
0.43210104 0.0027992963 0.031259384
0.43213022 0.0037596654 0.031253532
0.43215939 0.0047200345 0.031247679
0.4321886 0.0056804079 0.031241827
0.43221778 0.006640777 0.031235976
0.43224698 0.0076011461 0.031230124
0.43227616 0.0085615171 0.031224271
0.43230537 0.0095218904 0.031218419
0.43233454 0.010482259 0.031212566
0.43236375 0.011442629 0.031206714
0.43239293 0.012403002 0.031200862
0.43242213 0.013363371 0.031195009
0.43245131 0.014323742 0.031189157
0.43248051 0.015284112 0.031183304
0.43250969 0.016244484 0.031177454
0.43165803 0.017198164 0.030668307
0.43168727 0.018160127 0.030662445
0.4317165 0.019122092 0.030656584
0.43174574 0.020084053 0.030650722
0.431775 0.021046018 0.03064486
0.43180424 0.022007981 0.030638998
0.43183348 0.022969944 0.030633135
0.43186271 0.023931907 0.030627273
0.43189195 0.024893871 0.030621411
0.4328016 0.025848189 0.031118931
0.43283081 0.02680856 0.031113079
0.43285999 0.02776893 0.031107226
0.43288916 0.028729301 0.031101374
0.43291837 0.029689671 0.031095522
0.43294755 0.030650042 0.031089669
0.43297675 0.031610414 0.031083817
0.43388602 0.032551989 0.031581413
0.43391517 0.033510767 0.031575572
0.43394431 0.034469545 0.031569727
0.43397346 0.035428323 0.031563886
0.43400258 0.036387101 0.031558044
0.43403172 0.037345879 0.031552199
0.43406087 0.038304657 0.031546358
0.43409002 0.039263435 0.031540517
0.43411916 0.040222213 0.031534672
0.43414831 0.041180991 0.031528831
0.43329784 0.042174488 0.031019442
0.43332705 0.043134861 0.031013591
0.43335623 0.044095229 0.031007739
0.43338543 0.045055602 0.031001886
0.43341461 0.04601597 0.030996034
0.43344381 0.046976343 0.030990181
0.43347299 0.047936711 0.030984329
0.4335022 0.048897084 0.030978477
0.43353137 0.049857456 0.030972624
0.43268141 0.050866876 0.030463139
0.43271065 0.051828839 0.030457277
0.43273988 0.052790802 0.030451415
0.43276912 0.053752769 0.030445553
0.43279836 0.054714732 0.030439692
0.43282759 0.055676695 0.03043383
0.43197796 0.056697264 0.029924277
0.43200725 0.057660822 0.029918404
0.43115777 0.058686171 0.029408822
0.43118709 0.059651319 0.029402941
0.43121645 0.060616467 0.029397059
0.43036711 0.06164819 0.028887406
0.42951789 0.062683098 0.028377766
0.42954734 0.063651435 0.028371865
0.41473597 -0.0097427601 0.02050099
0.41564724 -0.008702402 0.020999217
0.41743952 -0.0076186839 0.022001775
0.42102337 -0.0054703611 0.024006955
0.42369598 -0.0043639811 0.025513943
0.42548743 -0.0033073365 0.02651667
0.42639783 -0.0022956454 0.027015073
0.42818889 -0.0012501513 0.028017839
0.42909905 -0.00024642487 0.028516283
0.43088982 0.0007879234 0.029519148
0.43179974 0.0017836891 0.030017648
0.43182898 0.0027456521 0.030011786
0.43273872 0.0037366406 0.030510316
0.43276793 0.0046970099 0.030504463
0.4327971 0.0056573828 0.030498611
0.43282631 0.0066177519 0.030492758
0.43285549 0.0075781215 0.030486906
0.43288469 0.008538492 0.030481054
0.43291387 0.0094988653 0.030475201
0.43294308 0.010459235 0.030469351
0.43297225 0.011419604 0.030463498
0.43300146 0.012379977 0.030457646
0.4321506 0.013327249 0.029947305
0.43217984 0.014289211 0.029941443
0.43220907 0.015251174 0.029935582
0.43223831 0.016213138 0.02992972
0.43226755 0.017175101 0.029923858
0.43229678 0.018137064 0.029917995
0.43232605 0.019099029 0.029912133
0.43147558 0.02005904 0.029401716
0.43150485 0.021022597 0.029395845
0.43153414 0.021986153 0.029389972
0.43156344 0.022949709 0.029384101
0.43159273 0.023913264 0.02937823
0.43250147 0.024870807 0.029876962
0.4325307 0.02583277 0.029871101
0.43255994 0.026794733 0.029865239
0.43258917 0.027756697 0.029859375
0.43261844 0.02871866 0.029853513
0.43352687 0.029666645 0.030352306
0.43355608 0.030627016 0.030346453
0.43358526 0.031587388 0.030340601
0.43361446 0.032547757 0.030334748
0.43364364 0.033508129 0.030328896
0.43367285 0.034468498 0.030323043
0.43370202 0.03542887 0.030317191
0.43373123 0.036389239 0.030311339
0.4337604 0.037349612 0.030305488
0.43378961 0.03830998 0.030299636
0.43381879 0.039270353 0.030293783
0.43384799 0.040230721 0.030287931
0.43387717 0.041191094 0.030282078
0.43390638 0.042151466 0.030276226
0.43393555 0.043111835 0.030270373
0.43396473 0.044072207 0.030264521
0.43311548 0.045072034 0.029753862
0.43314472 0.046033997 0.029747998
0.43317398 0.04699596 0.029742137
0.43320322 0.047957923 0.029736275
0.43323246 0.048919886 0.029730413
0.43326169 0.049881849 0.029724551
0.43329093 0.050843813 0.02971869
0.43332016 0.051805776 0.029712828
0.4333494 0.052767739 0.029706966
0.43250063 0.053783499 0.029196208
0.43252993 0.054747052 0.029190337
0.43255922 0.05571061 0.029184464
0.43258849 0.056674164 0.029178593
0.43173999 0.057697881 0.028667787
0.43176931 0.058663033 0.028661905
0.43179864 0.059628181 0.028656024
0.43095025 0.060658272 0.028145147
0.43097964 0.061625015 0.028139256
0.43013147 0.062659882 0.027628388
0.42928338 0.063697934 0.027117494
0.41445434 -0.010810133 0.019233676
0.41536468 -0.0097665489 0.019733112
0.41627494 -0.0087261526 0.020232573
0.41806519 -0.0076423581 0.021237599
0.41985521 -0.0065649333 0.022242635
0.4234347 -0.0044291937 0.024252852
0.42522413 -0.0033708815 0.025257999
0.42701343 -0.002318938 0.026263218
0.42880246 -0.0012733674 0.027268449
0.42971161 -0.00026960261 0.027768135
0.43150035 0.00076482189 0.028773461
0.43152964 0.0017283785 0.028767588
0.43243849 0.0027225888 0.029267332
0.43246773 0.0036845517 0.029261468
0.43249696 0.0046465145 0.029255606
0.4325262 0.0056084795 0.029249744
0.43343481 0.0065947268 0.029749537
0.43346402 0.0075550964 0.029743684
0.4334932 0.0085154669 0.029737832
0.43264318 0.0094563328 0.029226298
0.43267241 0.010418296 0.029220436
0.43270165 0.011380259 0.029214574
0.43273088 0.012342223 0.029208712
0.43276012 0.013304186 0.029202849
0.43278936 0.014266147 0.029196987
0.43281859 0.01522811 0.029191125
0.43196896 0.016181717 0.028679512
0.43199825 0.017145272 0.028673641
0.43202755 0.018108826 0.02866777
0.43205681 0.019072384 0.028661899
0.43208611 0.020035939 0.028656026
0.43211541 0.020999495 0.028650155
0.43214467 0.021963051 0.028644284
0.43217397 0.022926608 0.028638411
0.43220326 0.023890162 0.02863254
0.43223256 0.024853719 0.028626669
0.43226182 0.025817275 0.028620796
0.43229112 0.026780831 0.028614925
0.43319872 0.027733633 0.029114921
0.43322796 0.028695596 0.029109059
0.43325719 0.029657559 0.029103197
0.43328643 0.030619523 0.029097335
0.43331566 0.031581488 0.029091472
0.4333449 0.032543451 0.02908561
0.43337414 0.033505414 0.029079748
0.4334034 0.034467377 0.029073887
0.43343264 0.03542934 0.029068025
0.43433973 0.036366217 0.029568117
0.43436894 0.037326586 0.029562265
0.43439811 0.038286958 0.029556412
0.43442732 0.039247327 0.02955056
0.43357882 0.040239155 0.029038714
0.43360806 0.041201118 0.029032853
0.43363729 0.042163081 0.029026991
0.43366653 0.043125045 0.029021129
0.43369579 0.044087008 0.029015267
0.43372503 0.045048971 0.029009406
0.43375427 0.046010934 0.029003544
0.43290615 0.047015503 0.02849162
0.43293545 0.047979061 0.028485749
0.43296474 0.048942614 0.028479878
0.43299404 0.049906172 0.028474005
0.4330233 0.050869726 0.028468134
0.4330526 0.051833283 0.028462263
0.4330819 0.052796841 0.02845639
0.43311119 0.053760394 0.028450519
0.43314046 0.054723952 0.028444648
0.43229285 0.055744447 0.027932627
0.43232217 0.056709595 0.027926747
0.43235153 0.057674743 0.027920865
0.43150404 0.058701616 0.027408781
0.43153343 0.059668355 0.027402889
0.43156281 0.060635094 0.027396997
0.43071559 0.061668329 0.0268849
0.42986846 0.062704757 0.026372783
0.42902145 0.063744359 0.025860647
0.4281745 0.064787157 0.025348498
0.41508403 -0.01083396 0.018464571
0.41599336 -0.0097903376 0.018965246
0.41690263 -0.0087499032 0.019465942
0.41781178 -0.007712652 0.019966651
0.41959986 -0.0066335583 0.02097417
0.42226666 -0.0055174041 0.022488467
0.42405432 -0.0044526388 0.023496075
0.42584172 -0.0033942501 0.024503689
0.42675018 -0.0023808866 0.025004581
0.42853728 -0.0013336499 0.026012264
0.43032414 -0.00029278034 0.027019985
0.43123224 0.00070784148 0.027520955
0.43214017 0.0017052771 0.028021906
0.43216947 0.0026688336 0.028016033
0.43307725 0.0036614886 0.028517019
0.43310648 0.0046234513 0.028511157
0.43313575 0.0055854162 0.028505296
0.43316498 0.0065473793 0.028499434
0.43319422 0.0075093419 0.028493572
0.43322346 0.0084713046 0.028487708
0.43325269 0.0094332695 0.028481847
0.43328193 0.010395233 0.028475985
0.43331116 0.011357196 0.028470123
0.43246233 0.012304392 0.027957316
0.43249163 0.013267948 0.027951445
0.43252093 0.014231503 0.027945573
0.43255019 0.015195058 0.027939701
0.43257949 0.016158616 0.02793383
0.43260878 0.017122172 0.027927959
0.43263808 0.018085726 0.027922086
0.43178961 0.019045664 0.027409209
0.43181896 0.020010812 0.027403327
0.43184829 0.020975962 0.027397446
0.43187764 0.021941109 0.027391564
0.43190697 0.022906259 0.027385682
0.43193629 0.023871407 0.027379801
0.43196565 0.024836555 0.027373919
0.43199497 0.025801703 0.027368039
0.43290165 0.026757728 0.027869241
0.43293095 0.027721286 0.02786337
0.43296024 0.028684841 0.027857499
0.43298951 0.029648397 0.027851626
0.4330188 0.030611953 0.027845755
0.4330481 0.031575508 0.027839884
0.43395442 0.032520387 0.028341161
0.43398368 0.03348235 0.028335299
0.43401292 0.034444313 0.028329438
0.43404216 0.035406277 0.028323576
0.43407139 0.03636824 0.028317712
0.43410063 0.037330203 0.028311851
0.43412986 0.038292166 0.028305989
0.4341591 0.039254129 0.028300127
0.43418834 0.040216092 0.028294265
0.43421757 0.041178055 0.028288404
0.43424684 0.042140018 0.028282542
0.43427607 0.043101981 0.02827668
0.43342882 0.044101734 0.027763553
0.43345812 0.045065291 0.02775768
0.43348742 0.046028845 0.027751809
0.43351668 0.046992403 0.027745938
0.43354598 0.04795596 0.027740065
0.43357527 0.048919514 0.027734194
0.43360457 0.049883071 0.027728323
0.43363383 0.050846625 0.02772245
0.43278703 0.051860712 0.027209243
0.43281639 0.052825861 0.027203361
0.43284571 0.053791009 0.02719748
0.43287507 0.054756161 0.027191598
0.43290439 0.055721309 0.027185718
0.43205783 0.056744952 0.026672412
0.43208721 0.057711691 0.026666522
0.4321166 0.058678437 0.02666063
0.43127027 0.05970845 0.026147325
0.43129972 0.060676783 0.026141424
0.43132916 0.061645117 0.026135523
0.42960748 0.06274955 0.025114723
0.42876151 0.063790709 0.02460135
0.42791557 0.064835064 0.024087919
0.42706978 0.065882593 0.023574507
0.42622411 0.066933312 0.023061069
0.42450318 0.068063229 0.022040088
0.41571376 -0.010857787 0.017695466
0.41662207 -0.0098141264 0.018197369
0.41753033 -0.0087736538 0.018699298
0.41843846 -0.0077363644 0.01920124
0.42022452 -0.0066571943 0.020211225
0.42201036 -0.0055843978 0.02122122
0.42379606 -0.0045179622 0.022231285
0.42558149 -0.0034579071 0.023241356
0.42736679 -0.0024042171 0.024251498
0.42915183 -0.0013569039 0.025261646
0.43005902 -0.00035146554 0.025763782
0.43184379 0.00068470172 0.026774032
0.43187311 0.001649852 0.02676815
0.43278 0.0026457321 0.027270345
0.43280929 0.003609285 0.027264472
0.43283859 0.0045728418 0.027258601
0.43286785 0.0055364002 0.02725273
0.43289715 0.0064999545 0.027246857
0.43292645 0.0074635092 0.027240986
0.43295571 0.0084270658 0.027235115
0.43298501 0.0093906224 0.027229242
0.4330143 0.010354179 0.027223371
0.4330436 0.011317734 0.0272175
0.43307287 0.01228129 0.027211627
0.43310216 0.013244847 0.027205756
0.43313146 0.014208402 0.027199885
0.43316075 0.015171956 0.027194012
0.43231314 0.01612708 0.026679929
0.4323425 0.017092228 0.026674049
0.43237182 0.018057376 0.026668167
0.43240118 0.019022524 0.026662286
0.43243051 0.019987673 0.026656404
0.43245983 0.020952823 0.026650524
0.43248919 0.021917969 0.026644642
0.43251851 0.022883119 0.026638761
0.43254784 0.023848267 0.026632879
0.43257719 0.024813415 0.026626999
0.43260652 0.025778564 0.026621116
0.43263584 0.026743712 0.026615236
0.4326652 0.02770886 0.026609354
0.43269452 0.02867401 0.026603471
0.43272385 0.029639158 0.026597591
0.43362933 0.03058885 0.027100066
0.43365863 0.031552408 0.027094195
0.43368793 0.032515962 0.027088324
0.43371719 0.033479519 0.027082451
0.43374649 0.034443073 0.02707658
0.43377578 0.03540663 0.027070709
0.43380508 0.036370188 0.027064838
0.43383434 0.037333742 0.027058965
0.43386364 0.038297299 0.027053094
0.43389294 0.039260853 0.027047222
0.43392223 0.040224411 0.02704135
0.4339515 0.041187964 0.027035479
0.43398079 0.042151522 0.027029607
0.43401009 0.043115079 0.027023735
0.43403935 0.044078633 0.027017863
0.43406865 0.045042191 0.027011992
0.43322256 0.046046682 0.026497608
0.43325192 0.04701183 0.026491726
0.43328124 0.047976978 0.026485845
0.4333106 0.048942126 0.026479963
0.43333992 0.049907278 0.026474083
0.43336925 0.050872423 0.026468201
0.4333986 0.051837575 0.02646232
0.43342793 0.052802719 0.026456438
0.43345726 0.053767871 0.026450558
0.43261161 0.054788295 0.025936045
0.432641 0.055755034 0.025930153
0.43267038 0.056721773 0.025924262
0.43182498 0.057748564 0.025409738
0.43185443 0.058716901 0.025403837
0.43188384 0.059685234 0.025397936
0.43191329 0.060653567 0.025392035
0.43106812 0.061688319 0.024877466
0.43022308 0.062726259 0.024362873
0.42850354 0.063836992 0.023339542
0.42765874 0.064882889 0.022824906
0.42681402 0.065931976 0.022310244
0.42596939 0.066984251 0.021795569
0.42425051 0.068115689 0.020772113
0.42340612 0.069175921 0.020257389
0.41628304 -0.012869244 0.01693848
0.41631323 -0.011875427 0.016932424
0.41722062 -0.010830139 0.017435551
0.41725078 -0.0098379152 0.017429505
0.41815799 -0.0087974044 0.017932665
0.4199422 -0.0077133803 0.018945085
0.42084917 -0.0066808304 0.019448288
0.42263299 -0.005607957 0.020460749
0.42441666 -0.0045414451 0.021473279
0.42620009 -0.0034813141 0.022485811
0.42798337 -0.0024275475 0.02349842
0.42888969 -0.0014172973 0.02400176
0.43067259 -0.00037468129 0.025014406
0.43157864 0.00062760431 0.025517793
0.43248466 0.0016267124 0.026021233
0.43251398 0.0025918589 0.026015352
0.43254334 0.0035570092 0.02600947
0.43344909 0.0045497403 0.026512923
0.43347839 0.0055132988 0.026507052
0.43350768 0.0064768535 0.026501181
0.43353698 0.0074404082 0.026495308
0.43356624 0.0084039653 0.026489437
0.43359554 0.0093675219 0.026483566
0.43362483 0.010331078 0.026477695
0.43365413 0.011294632 0.026471822
0.43280736 0.012243346 0.025956539
0.43283668 0.013208495 0.025950657
0.43286604 0.014173643 0.025944777
0.43289536 0.015138789 0.025938895
0.43292469 0.01610394 0.025933014
0.43295404 0.017069088 0.025927132
0.43298337 0.018034237 0.025921252
0.43213695 0.018995689 0.025405863
0.43216634 0.01996243 0.025399972
0.43219572 0.020929173 0.025394082
0.43222511 0.021895913 0.025388191
0.43225449 0.022862654 0.025382299
0.43228388 0.023829397 0.025376409
0.43231326 0.024796138 0.025370518
0.43234265 0.025762878 0.025364626
0.432372 0.026729619 0.025358735
0.43240139 0.02769636 0.025352845
0.43330607 0.028650871 0.025856556
0.43333539 0.029616019 0.025850674
0.43336475 0.030581167 0.025844794
0.43339407 0.031546317 0.025838912
0.4334234 0.032511465 0.025833031
0.43345276 0.033476613 0.025827149
0.43348208 0.034441762 0.025821269
0.43351141 0.03540691 0.025815386
0.43354076 0.036372058 0.025809506
0.43357009 0.037337206 0.025803624
0.43359944 0.038302355 0.025797741
0.43362877 0.039267503 0.025791861
0.43365809 0.040232651 0.025785979
0.43368745 0.041197799 0.025780099
0.43371677 0.042162947 0.025774216
0.4337461 0.043128099 0.025768336
0.43377545 0.044093248 0.025762454
0.43380478 0.045058396 0.025756573
0.43383411 0.046023544 0.025750691
0.43298909 0.047031187 0.025235023
0.43301848 0.047997925 0.025229132
0.43304786 0.048964668 0.02522324
0.43307725 0.049931411 0.025217351
0.43310663 0.05089815 0.025211459
0.43313602 0.051864892 0.025205567
0.4331654 0.052831631 0.025199676
0.43319479 0.053798374 0.025193786
0.43322417 0.054765116 0.025187895
0.43237966 0.055788681 0.024672162
0.43240911 0.056757014 0.024666261
0.43243855 0.057725348 0.02466036
0.43159425 0.058755286 0.024144582
0.43162373 0.059725214 0.02413867
0.4316532 0.060695138 0.02413276
0.43080911 0.061731447 0.023616949
0.42996511 0.06277094 0.023101119
0.42912114 0.063813619 0.022585237
0.42827734 0.064859487 0.022069361
0.42743361 0.065908529 0.021553474
0.42659 0.066960767 0.021037566
0.42574644 0.068016186 0.0205216
0.42402977 0.069152325 0.019495683
0.42318648 0.07021571 0.018979702
0.42234331 0.071282275 0.018463707
0.4178493 -0.010853928 0.016667679
0.41875559 -0.0098117851 0.017172059
0.41966176 -0.0087728295 0.017676458
0.42056787 -0.007737055 0.018180907
0.42147386 -0.0067044664 0.018685345
0.42325565 -0.0056315167 0.019700272
0.42503729 -0.0045649284 0.020715263
0.4259429 -0.0035450857 0.021219779
0.42772415 -0.0024896513 0.022234812
0.42950526 -0.0014405897 0.023249911
0.43041047 -0.00043348482 0.023754504
0.43131557 0.00057043269 0.024259117
0.43222058 0.0015711703 0.024763748
0.43224996 0.0025379104 0.024757857
0.43315488 0.0035338695 0.02526255
0.43318421 0.0044990159 0.025256667
0.43321356 0.0054641659 0.025250787
0.43324289 0.0064293146 0.025244905
0.43327221 0.0073944628 0.025239022
0.43330157 0.008359611 0.025233142
0.43333089 0.0093247611 0.02522726
0.43336022 0.010289908 0.025221379
0.43338957 0.011255057 0.025215497
0.4334189 0.012220207 0.025209617
0.43344823 0.013185355 0.025203735
0.43347758 0.014150503 0.025197854
0.43350691 0.015115649 0.025191972
0.43266135 0.01607229 0.02467538
0.43269074 0.017039029 0.024669491
0.43272012 0.01800577 0.024663599
0.43274951 0.018972512 0.024657708
0.43277889 0.019939253 0.024651818
0.43280828 0.020905996 0.024645926
0.43283767 0.021872735 0.024640035
0.43286705 0.022839477 0.024634143
0.43289644 0.023806218 0.024628254
0.43292582 0.024772959 0.024622362
0.43295518 0.0257397 0.024616471
0.43298456 0.026706442 0.024610579
0.43301395 0.027673183 0.024604689
0.43304333 0.028639924 0.024598798
0.43307272 0.029606665 0.024592906
0.4331021 0.030573405 0.024587015
0.43313149 0.031540148 0.024581125
0.43403497 0.032488324 0.025086109
0.4340643 0.033453472 0.025080226
0.43409362 0.03441862 0.025074346
0.43412298 0.035383768 0.025068464
0.43415231 0.036348917 0.025062583
0.43418163 0.037314065 0.025056701
0.43421099 0.038279217 0.025050821
0.43424031 0.039244365 0.025044939
0.43426964 0.040209513 0.025039058
0.43429899 0.041174661 0.025033176
0.43432832 0.04213981 0.025027296
0.43435764 0.043104958 0.025021413
0.43351349 0.044107784 0.02450454
0.43354288 0.045074526 0.024498649
0.43357226 0.046041265 0.024492759
0.43360165 0.047008008 0.024486868
0.43363103 0.04797475 0.024480976
0.43366042 0.048941489 0.024475085
0.4336898 0.049908232 0.024469195
0.43284607 0.050923795 0.023952276
0.43287551 0.051892132 0.023946375
0.43290496 0.052860461 0.023940474
0.43293437 0.053828798 0.023934573
0.43296382 0.054797132 0.023928674
0.43299323 0.055765465 0.023922773
0.43214986 0.056792177 0.023405787
0.43217933 0.057762105 0.023399876
0.43220884 0.058732033 0.023393964
0.43136564 0.059765115 0.022876941
0.43139517 0.060736634 0.022871019
0.43142468 0.061708152 0.0228651
0.43058169 0.062747605 0.022348035
0.42886627 0.063859783 0.021319762
0.42802352 0.064907201 0.020802649
0.42805323 0.065885089 0.02079669
0.42721063 0.066937283 0.020279549
0.42549577 0.068068571 0.019251164
0.42552567 0.069051236 0.019245176
0.42381114 0.070192069 0.018216757
0.42296898 0.071258605 0.017699528
0.41844785 -0.01186994 0.015905848
0.41935316 -0.010826166 0.016411452
0.41938329 -0.0098355357 0.016405415
0.42028844 -0.008796542 0.016911047
0.42119354 -0.0077607292 0.017416731
0.42297348 -0.0066829221 0.018434089
0.42387828 -0.0056550764 0.018939788
0.42565793 -0.0045884117 0.019957246
0.42656252 -0.0035685308 0.020462995
0.42834175 -0.0025130201 0.021480495
0.42924613 -0.0015010977 0.021986319
0.43102503 -0.00045673898 0.023003887
0.43192914 0.00054721674 0.023509733
0.43195856 0.0015155543 0.023503833
0.43286252 0.0025147328 0.024009706
0.43289191 0.0034814728 0.024003815
0.43292129 0.004448215 0.023997923
0.43295068 0.0054149567 0.023992034
0.43385443 0.006406175 0.024497988
0.43388376 0.0073713232 0.024492107
0.43391311 0.0083364714 0.024486225
0.43394244 0.0093016224 0.024480345
0.43397176 0.010266769 0.024474462
0.43400112 0.011231917 0.024468582
0.43403044 0.012197067 0.0244627
0.43318576 0.013148887 0.023944905
0.43321514 0.014115628 0.023939013
0.43324453 0.015082368 0.023933122
0.43327391 0.016049111 0.023927232
0.4333033 0.017015852 0.023921341
0.43333265 0.017982593 0.023915449
0.43336204 0.018949334 0.023909558
0.43339142 0.019916074 0.023903668
0.43342081 0.020882817 0.023897776
0.43345019 0.021849558 0.023891885
0.4326061 0.022818899 0.023374015
0.43263552 0.023787232 0.023368115
0.43266496 0.024755565 0.023362214
0.43269438 0.025723899 0.023356313
0.43272382 0.026692234 0.023350412
0.4336265 0.027650004 0.023856539
0.43365589 0.028616745 0.023850648
0.43368527 0.029583488 0.023844756
0.43371466 0.030550228 0.023838867
0.43374404 0.031516969 0.023832975
0.43377343 0.032483712 0.023827083
0.43380281 0.033450451 0.023821192
0.4338322 0.034417193 0.023815302
0.43386158 0.035383936 0.023809411
0.43389097 0.036350675 0.023803519
0.43392035 0.037317418 0.023797628
0.43394974 0.03828416 0.023791738
0.43397912 0.039250899 0.023785846
0.43400851 0.040217642 0.023779955
0.43403789 0.041184381 0.023774063
0.43406728 0.042151123 0.023768174
0.43409666 0.043117866 0.023762282
0.43412605 0.044084605 0.02375639
0.43415543 0.045051347 0.023750501
0.43331248 0.046058912 0.023232397
0.43334192 0.047027245 0.023226496
0.43337134 0.047995578 0.023220595
0.43340078 0.048963912 0.023214694
0.43343019 0.049932245 0.023208793
0.43345964 0.050900578 0.023202892
0.43348908 0.051868916 0.023196992
0.4335185 0.052837245 0.023191091
0.43354794 0.053805582 0.02318519
0.43270546 0.054829072 0.022666991
0.43273494 0.055799 0.022661081
0.43276444 0.056768924 0.02265517
0.43279392 0.057738852 0.022649258
0.43195167 0.058770306 0.022131011
0.43198121 0.059741821 0.02212509
0.43201074 0.060713343 0.02211917
0.43116871 0.061751164 0.021600876
0.43032673 0.062792182 0.021082543
0.42948487 0.063836373 0.020564217
0.42864314 0.064883754 0.020045865
0.42780149 0.065934315 0.0195275
0.42695987 0.066988073 0.019009089
0.42611843 0.068045013 0.01849068
0.4261483 0.069027677 0.018484693
0.42530701 0.070089385 0.017966259
0.42446578 0.071154289 0.017447807
0.42449576 0.072140142 0.0174418
0.41995072 -0.011840547 0.015650855
0.42085499 -0.010798327 0.016157702
0.42088506 -0.0098092901 0.016151674
0.4217892 -0.0087718461 0.016658576
0.42269322 -0.0077375909 0.017165471
0.42359713 -0.00670652 0.017672384
0.42450094 -0.005678636 0.018179316
0.42627853 -0.004611895 0.019199243
0.42718211 -0.0035919757 0.019706223
0.42895934 -0.0025363888 0.020726185
0.42986271 -0.0015244279 0.021233248
0.43076596 -0.00051565695 0.021740291
0.43166909 0.00048993435 0.022247361
0.43257213 0.0014923383 0.022754449
0.43260157 0.0024606721 0.022748549
0.43263099 0.0034290059 0.022742648
0.43353385 0.0044250372 0.023249775
0.43356323 0.0053917794 0.023243884
0.43359262 0.0063585211 0.023237992
0.433622 0.0073252614 0.023232101
0.43365139 0.0082920017 0.023226211
0.43368074 0.0092587452 0.023220319
0.43371013 0.010225485 0.023214428
0.43373951 0.011192226 0.023208536
0.4337689 0.012158969 0.023202647
0.43379828 0.013125709 0.023196755
0.43382767 0.01409245 0.023190863
0.43385705 0.01505919 0.023184972
0.43388644 0.016025934 0.023179082
0.43391582 0.016992673 0.023173191
0.43307248 0.017954012 0.022654135
0.43310192 0.018922348 0.022648236
0.43313134 0.019890681 0.022642335
0.43316078 0.020859014 0.022636434
0.43319023 0.021827348 0.022630533
0.43321964 0.022795683 0.022624632
0.43324909 0.023764016 0.022618731
0.4332785 0.024732349 0.022612831
0.43330795 0.025700685 0.02260693
0.43333739 0.026669018 0.022601029
0.43336681 0.027637351 0.022595128
0.43339625 0.028605685 0.022589227
0.43342566 0.02957402 0.022583326
0.43345511 0.030542353 0.022577425
0.43348455 0.031510688 0.022571525
0.43351397 0.032479022 0.022565624
0.43354341 0.033447355 0.022559723
0.43357283 0.034415688 0.022553822
0.43360227 0.035384022 0.022547921
0.43363172 0.036352355 0.022542022
0.43366113 0.037320688 0.022536121
0.43369058 0.038289025 0.02253022
0.43371999 0.039257359 0.02252432
0.43374944 0.040225692 0.022518419
0.43377888 0.041194025 0.022512518
0.4338083 0.042162359 0.022506617
0.43383774 0.043130692 0.022500716
0.43386716 0.044099025 0.022494815
0.4338966 0.045067362 0.022488914
0.43392605 0.046035696 0.022483014
0.43395546 0.047004029 0.022477113
0.43398491 0.047972362 0.022471212
0.43314314 0.048986256 0.021951837
0.43317264 0.049956184 0.021945927
0.43320212 0.050926112 0.021940015
0.43323159 0.051896039 0.021934105
0.43326107 0.052865963 0.021928195
0.43329057 0.053835891 0.021922285
0.43332005 0.054805819 0.021916375
0.43334952 0.055775743 0.021910464
0.4325082 0.056803972 0.021391001
0.43253773 0.057775494 0.021385081
0.43256727 0.058747012 0.02137916
0.4325968 0.059718531 0.02137324
0.43175572 0.060754724 0.020853736
0.43178529 0.061727833 0.020847805
0.43094432 0.062768809 0.020328233
0.43010348 0.063812964 0.019808674
0.42926276 0.064860307 0.019289095
0.42842212 0.065910831 0.018769495
0.42845187 0.066890322 0.018763527
0.42674106 0.068021446 0.017730208
0.42677096 0.069004118 0.017724222
0.42593065 0.070065789 0.017204555
0.42596057 0.071050055 0.017198557
0.42512041 0.072116502 0.01667886
0.4214516 -0.011811079 0.015398318
0.42148167 -0.010822039 0.015392291
0.42238486 -0.0097829662 0.015900422
0.4232879 -0.0087470803 0.016408533
0.42419085 -0.0077143768 0.016916672
0.42509371 -0.0066848611 0.017424827
0.42599645 -0.005658533 0.017933004
0.42689916 -0.0046353783 0.018441226
0.42867452 -0.0035749415 0.019463625
0.42957693 -0.0025597576 0.019971868
0.43047932 -0.0015477587 0.020480158
0.43138152 -0.00053894933 0.020988442
0.43228367 0.00046668018 0.021496743
0.43231314 0.0014366077 0.021490833
0.43321511 0.0024374563 0.021999165
0.43324456 0.0034057901 0.021993265
0.43327397 0.0043741218 0.021987364
0.43330342 0.0053424574 0.021981463
0.43420514 0.0063353432 0.022489842
0.43423453 0.0073020835 0.022483952
0.43426391 0.0082688238 0.022478061
0.4342933 0.0092355674 0.022472169
0.43432269 0.010202308 0.022466278
0.43435207 0.011169048 0.022460388
0.43438146 0.012135792 0.022454496
0.43441084 0.013102532 0.022448605
0.43356833 0.014057462 0.021928355
0.43359774 0.015025794 0.021922454
0.43362719 0.01599413 0.021916553
0.4336566 0.016962463 0.021910653
0.43368605 0.017930796 0.021904752
0.43371549 0.018899132 0.021898853
0.43374491 0.019867465 0.021892952
0.43377435 0.020835798 0.021887051
0.43380377 0.021804133 0.02188115
0.43383321 0.022772467 0.021875249
0.43386266 0.0237408 0.021869348
0.43389207 0.024709133 0.021863448
0.43392152 0.025677469 0.021857547
0.43395093 0.026645802 0.021851646
0.43398038 0.027614135 0.021845745
0.43400982 0.028582469 0.021839844
0.43403924 0.029550804 0.021833943
0.43406868 0.030519137 0.021828042
0.43409809 0.031487472 0.021822141
0.43412754 0.032455806 0.021816241
0.43415698 0.033424139 0.02181034
0.4341864 0.034392472 0.021804439
0.43421584 0.035360806 0.021798538
0.43424526 0.036329139 0.021792639
0.4342747 0.037297472 0.021786738
0.43430415 0.038265809 0.021780837
0.43433356 0.039234143 0.021774936
0.43436301 0.040202476 0.021769036
0.43439242 0.041170809 0.021763135
0.43442187 0.042139143 0.021757234
0.43445131 0.043107476 0.021751333
0.43361032 0.044113372 0.021230772
0.43363979 0.045083299 0.021224862
0.43366927 0.046053223 0.021218952
0.43369877 0.047023151 0.021213042
0.43372825 0.047993079 0.021207131
0.43375772 0.048963003 0.021201221
0.4337872 0.049932931 0.021195309
0.43381667 0.050902858 0.021189399
0.43384618 0.051872782 0.021183489
0.43387565 0.05284271 0.021177579
0.43390512 0.053812638 0.021171669
0.43306473 0.054837644 0.020650992
0.43309426 0.055809163 0.020645071
0.4331238 0.056780681 0.020639151
0.4331533 0.057752199 0.020633232
0.43231314 0.05878517 0.020112505
0.43234274 0.059758283 0.020106576
0.4323723 0.060731392 0.020100646
0.4324019 0.061704505 0.020094717
0.43156192 0.062745444 0.019573918
0.43072209 0.063789561 0.019053124
0.42988238 0.06483686 0.018532312
0.42904273 0.065887347 0.018011481
0.4290725 0.066866837 0.018005511
0.42823297 0.0679221 0.017484624
0.42739359 0.068980552 0.016963743
0.42655429 0.070042193 0.016442845
0.42658421 0.071026452 0.016436847
0.42661414 0.072010711 0.016430847
0.42382267 -0.011728275 0.015663624
0.42385262 -0.010742421 0.015657617
0.4238826 -0.0097565688 0.01565161
0.4247846 -0.0087222373 0.016160965
0.42568648 -0.00769109 0.016670344
0.42658827 -0.0066631259 0.017179744
0.42749003 -0.005638347 0.017689189
0.42839164 -0.0046167541 0.018198628
0.42929313 -0.0035983485 0.01870808
0.43019453 -0.0025831261 0.019217558
0.4310959 -0.0015710889 0.019727087
0.43199712 -0.00056224148 0.020236598
0.43202665 0.00040927963 0.020230677
0.4329277 0.0014133537 0.020740222
0.4329572 0.0023832775 0.020734312
0.43298668 0.0033532048 0.020728402
0.43388754 0.0043509062 0.021237986
0.43391699 0.0053192419 0.021232085
0.4339464 0.0062875757 0.021226184
0.43397585 0.0072559076 0.021220284
0.43400526 0.0082242414 0.021214383
0.43403471 0.0091925776 0.021208482
0.43406415 0.010160911 0.021202581
0.43409356 0.011129243 0.02119668
0.43412301 0.012097578 0.021190779
0.43415242 0.013065913 0.021184878
0.43418187 0.014034246 0.021178978
0.43421131 0.015002578 0.021173077
0.43424073 0.015970914 0.021167176
0.43427017 0.016939247 0.021161277
0.43429959 0.017907582 0.021155376
0.43345836 0.01887203 0.020633833
0.43348786 0.019841956 0.020627923
0.43351734 0.020811882 0.020622013
0.43354681 0.021781808 0.020616103
0.43357629 0.022751736 0.020610193
0.43360579 0.023721661 0.020604283
0.43363526 0.024691587 0.020598371
0.43366474 0.025661515 0.02059246
0.43369421 0.026631441 0.02058655
0.43372369 0.027601367 0.02058064
0.43375319 0.028571293 0.02057473
0.43378267 0.029541221 0.02056882
0.43381214 0.030511146 0.02056291
0.43384162 0.031481072 0.020556998
0.43387112 0.032451 0.020551087
0.43390059 0.033420928 0.020545177
0.43393007 0.034390852 0.020539267
0.43395954 0.03536078 0.020533357
0.43398902 0.036330707 0.020527447
0.43401852 0.037300631 0.020521535
0.434048 0.038270559 0.020515624
0.43407747 0.039240487 0.020509714
0.43410695 0.040210411 0.020503804
0.43413645 0.041180339 0.020497894
0.43416592 0.042150266 0.020491984
0.4341954 0.043120191 0.020486072
0.43422487 0.044090118 0.020480162
0.43425438 0.045060046 0.020474251
0.43341455 0.04607068 0.019952429
0.43344405 0.047042198 0.019946508
0.43347359 0.048013717 0.019940589
0.43350312 0.048985235 0.019934669
0.43353266 0.049956754 0.019928748
0.43356219 0.050928272 0.019922828
0.43359172 0.051899794 0.019916909
0.43362123 0.052871313 0.019910987
0.43365076 0.053842831 0.019905068
0.4336803 0.05481435 0.019899148
0.43370983 0.055785872 0.019893227
0.43287057 0.056815617 0.019371293
0.43290016 0.057788726 0.019365365
0.43292972 0.058761839 0.019359434
0.43295932 0.059734952 0.019353505
0.43298888 0.060708061 0.019347575
0.43214989 0.061747368 0.018825546
0.43217951 0.062722072 0.018819606
0.43134069 0.063766152 0.018297579
0.43050197 0.06481342 0.017775539
0.42966336 0.06586387 0.017253475
0.42969313 0.066843353 0.017247505
0.42885461 0.067898579 0.016725386
0.42801622 0.068956994 0.016203271
0.42717794 0.070018597 0.015681138
0.42720786 0.071002856 0.015675141
0.42723778 0.071987115 0.015669143
0.42466363 0.073222503 0.014114597
0.42441738 -0.012737759 0.014906688
0.42531848 -0.011698613 0.015417247
0.4253484 -0.010714354 0.015411249
0.42537832 -0.009730095 0.015405252
0.42540824 -0.0087458352 0.015399254
0.42630914 -0.0077146497 0.015909867
0.42808089 -0.0066413125 0.016937142
0.42811066 -0.0056618303 0.016931174
0.42901126 -0.0046401992 0.017441845
0.42991173 -0.0036217552 0.017952537
0.43081215 -0.0026064951 0.018463241
0.43171248 -0.0015944196 0.018973999
0.43174207 -0.00062130857 0.018968068
0.43264222 0.00038598725 0.019478828
0.43267176 0.0013575084 0.019472908
0.43357176 0.0023600231 0.01998369
0.43360123 0.0033299506 0.01997778
0.43363073 0.0042998763 0.01997187
0.43366021 0.0052698036 0.019965958
0.43368968 0.0062397313 0.019960048
0.43371916 0.0072096568 0.019954138
0.43461883 0.0082010254 0.020464994
0.43464828 0.0091693606 0.020459093
0.43467772 0.010137695 0.020453192
0.43470713 0.011106026 0.020447291
0.43473658 0.012074362 0.020441391
0.43476599 0.013042696 0.02043549
0.43392554 0.013999142 0.019912764
0.43395501 0.014969068 0.019906854
0.43398449 0.015938997 0.019900944
0.43401399 0.016908921 0.019895032
0.43404347 0.017878847 0.019889122
0.43407294 0.018848775 0.019883212
0.43410242 0.019818701 0.019877302
0.43413192 0.020788629 0.019871391
0.43416139 0.021758555 0.019865481
0.43419087 0.022728482 0.019859571
0.43422034 0.023698406 0.019853659
0.43424982 0.024668334 0.019847749
0.43340999 0.025645485 0.019324902
0.43343952 0.026617004 0.019318983
0.43346906 0.027588522 0.019313063
0.43349859 0.028560042 0.019307142
0.43352813 0.029531561 0.019301223
0.43355763 0.030503079 0.019295301
0.43358716 0.031474598 0.019289382
0.4336167 0.03244612 0.019283462
0.43364623 0.033417638 0.019277541
0.43367577 0.034389157 0.019271621
0.4337053 0.035360675 0.019265702
0.4337348 0.036332194 0.019259781
0.43376434 0.037303716 0.019253861
0.43379387 0.038275234 0.019247942
0.43382341 0.039246753 0.01924202
0.43385294 0.040218271 0.019236101
0.43388247 0.04118979 0.019230179
0.43391201 0.042161308 0.01922426
0.43394151 0.04313283 0.019218341
0.43397105 0.044104349 0.019212419
0.43400058 0.045075867 0.0192065
0.43403012 0.046047386 0.01920058
0.43405965 0.047018904 0.019194659
0.43408918 0.047990426 0.019188739
0.43411872 0.048961945 0.019182818
0.43414822 0.049933463 0.019176899
0.43417776 0.050904982 0.019170979
0.43420729 0.0518765 0.019165058
0.43423682 0.052848019 0.019159138
0.43339843 0.05387295 0.018635996
0.43342802 0.054846063 0.018630065
0.43345758 0.055819176 0.018624136
0.43348718 0.056792285 0.018618206
0.43351674 0.057765398 0.018612275
0.43354633 0.058738511 0.018606346
0.43270823 0.059774593 0.018083109
0.43273786 0.060749296 0.018077169
0.43276748 0.061724 0.018071229
0.43192962 0.062766448 0.017547986
0.4319593 0.063742749 0.017542036
0.43112159 0.064789973 0.017018758
0.43028399 0.065840386 0.016495459
0.43031377 0.066819869 0.016489489
0.42947623 0.067875057 0.015966136
0.42863888 0.068933435 0.015442795
0.42866874 0.069916099 0.015436807
0.42783153 0.07097926 0.01491343
0.42786142 0.071963519 0.014907433
0.42529032 0.073198795 0.013349192
0.42594215 -0.011722211 0.014655543
0.42597207 -0.010737952 0.014649545
0.42687204 -0.009703544 0.015161366
0.42690191 -0.0087208748 0.015155378
0.42780173 -0.0076912446 0.015667235
0.42870149 -0.0066647953 0.016179137
0.42873126 -0.0056853136 0.016173169
0.42963085 -0.0046636444 0.016685069
0.43053034 -0.0036451621 0.017196992
0.43142974 -0.0026298636 0.017708931
0.43232909 -0.00161775 0.01822092
0.43235865 -0.00064463896 0.018214991
0.43238825 0.00032847209 0.018209061
0.43328732 0.0013342162 0.018721063
0.43331686 0.0023057337 0.018715143
0.43334639 0.003277251 0.018709224
0.43424529 0.0042766221 0.019221257
0.43427476 0.0052465498 0.019215347
0.43430427 0.0062164771 0.019209437
0.43433374 0.0071864026 0.019203527
0.43436322 0.0081563285 0.019197617
0.43439269 0.0091262562 0.019191707
0.43442219 0.010096181 0.019185796
0.43445167 0.011066109 0.019179884
0.43448114 0.012036037 0.019173974
0.43451062 0.013005962 0.019168064
0.43454009 0.013975888 0.019162154
0.4345696 0.014945813 0.019156244
0.43459907 0.015915742 0.019150333
0.43462855 0.016885668 0.019144421
0.43465802 0.017855594 0.019138511
0.43381885 0.01882156 0.018614501
0.43384838 0.019793078 0.018608579
0.43387792 0.020764597 0.01860266
0.43390745 0.021736115 0.01859674
0.43393698 0.022707636 0.018590819
0.43396652 0.023679154 0.0185849
0.43399605 0.024650674 0.01857898
0.43402556 0.025622193 0.018573059
0.43405509 0.026593711 0.018567139
0.43408462 0.02756523 0.018561218
0.43411416 0.02853675 0.018555298
0.43414369 0.029508268 0.018549379
0.43417323 0.030479789 0.018543458
0.43420276 0.031451307 0.018537538
0.43423226 0.032422826 0.018531619
0.4342618 0.033394344 0.018525697
0.43429133 0.034365866 0.018519778
0.43432087 0.035337385 0.018513856
0.4343504 0.036308903 0.018507937
0.43437994 0.037280422 0.018502017
0.43440947 0.03825194 0.018496096
0.43443897 0.039223459 0.018490177
0.43446851 0.040194981 0.018484257
0.43449804 0.041166499 0.018478336
0.43452758 0.042138018 0.018472416
0.43455711 0.043109536 0.018466497
0.43458664 0.044081055 0.018460575
0.43374881 0.045091614 0.017936287
0.43377841 0.046064727 0.017930357
0.43380797 0.047037836 0.017924426
0.43383756 0.048010949 0.017918497
0.43386713 0.048984058 0.017912567
0.43389672 0.049957171 0.017906638
0.43392628 0.050930284 0.017900707
0.43395588 0.051903397 0.017894778
0.43398544 0.052876506 0.017888848
0.43401504 0.053849619 0.017882917
0.4340446 0.054822732 0.017876988
0.43407419 0.055795845 0.017871058
0.43323696 0.056827109 0.017346617
0.43326658 0.057801813 0.017340677
0.4332962 0.058776516 0.017334737
0.43332583 0.059751224 0.017328797
0.43335545 0.060725927 0.017322859
0.43251857 0.061766744 0.01679839
0.43254822 0.062743045 0.016792441
0.43171149 0.063788638 0.016267939
0.43174121 0.064766526 0.01626198
0.43177095 0.065744415 0.016256021
0.43093437 0.066796385 0.015731486
0.43009788 0.067851536 0.015206898
0.43012768 0.068832614 0.015200919
0.4292914 0.069892541 0.01467633
0.42845517 0.070955664 0.014151726
0.4284851 0.071939923 0.014145728
0.42678303 0.073091447 0.013102455
0.42334923 0.074419796 0.011021822
0.42740506 -0.012675105 0.014418853
0.4265658 -0.011745809 0.013893832
0.42746481 -0.010709769 0.014406878
0.42749467 -0.0097271036 0.014400889
0.42752454 -0.0087444345 0.014394901
0.42929235 -0.0076677608 0.015427089
0.42932212 -0.0066882791 0.015421121
0.43022075 -0.0056649814 0.015934249
0.43025047 -0.004687089 0.015928291
0.43114895 -0.003668569 0.016441444
0.43204734 -0.0026532323 0.016954614
0.43207696 -0.0016785276 0.016948676
0.43297523 -0.00066796952 0.017461907
0.43300483 0.00030514153 0.017455978
0.43303439 0.0012782563 0.017450048
0.43393242 0.0022824414 0.017963294
0.43396196 0.0032539587 0.017957373
0.43399149 0.004225478 0.017951453
0.43402103 0.0051969993 0.017945534
0.43405056 0.0061685182 0.017939612
0.43408009 0.0071400357 0.017933693
0.43410963 0.0081115551 0.017927773
0.43413913 0.0090830764 0.017921852
0.43503675 0.010072927 0.018435178
0.43506622 0.011042855 0.018429268
0.43422773 0.011997634 0.017904092
0.43425727 0.012969151 0.017898172
0.4342868 0.013940671 0.017892251
0.43431634 0.01491219 0.017886331
0.43434584 0.015883708 0.017880412
0.43437538 0.016855229 0.01787449
0.43440491 0.017826747 0.017868571
0.43443444 0.018798267 0.01786265
0.43446398 0.019769786 0.01785673
0.43449351 0.020741304 0.017850811
0.43365553 0.021713601 0.017325521
0.43368512 0.022686712 0.017319592
0.43371469 0.023659823 0.017313661
0.43374428 0.024632936 0.01730773
0.43377385 0.025606047 0.017301802
0.43380344 0.02657916 0.017295871
0.433833 0.027552271 0.017289942
0.4338626 0.028525382 0.017284011
0.43389216 0.029498495 0.017278081
0.43392175 0.030471606 0.017272152
0.43395132 0.031444717 0.017266221
0.43398091 0.03241783 0.017260293
0.43401048 0.033390943 0.017254362
0.43404007 0.034364052 0.017248433
0.43406963 0.035337165 0.017242502
0.4340992 0.036310278 0.017236572
0.43412879 0.037283391 0.017230643
0.43415835 0.0382565 0.017224712
0.43418795 0.039229613 0.017218783
0.43421751 0.040202726 0.017212853
0.43424711 0.041175835 0.017206924
0.43427667 0.042148948 0.017200993
0.43430626 0.043122061 0.017195063
0.43433583 0.04409517 0.017189134
0.43436542 0.045068283 0.017183203
0.43439499 0.046041396 0.017177274
0.43442458 0.047014505 0.017171344
0.43445414 0.047987618 0.017165413
0.43448374 0.04896073 0.017159484
0.4345133 0.049933843 0.017153554
0.43454289 0.050906952 0.017147625
0.43457246 0.051880065 0.017141694
0.43373606 0.052904923 0.016616058
0.43376568 0.053879626 0.016610119
0.4337953 0.054854333 0.01660418
0.43382493 0.055829037 0.01659824
0.43385455 0.056803741 0.0165923
0.43388417 0.057778444 0.016586361
0.4339138 0.058753148 0.016580421
0.43307781 0.059790745 0.01605474
0.4331075 0.06076704 0.016048791
0.43313718 0.061743338 0.016042842
0.43230137 0.062787302 0.01551712
0.43233112 0.063765191 0.015511162
0.43236083 0.064743079 0.015505202
0.43152523 0.065793417 0.014979437
0.431555 0.066772901 0.014973469
0.43071952 0.067828014 0.014447648
0.42988417 0.068886317 0.01392184
0.42991403 0.069868982 0.013915853
0.42994389 0.070851654 0.013909864
0.42910874 0.071916319 0.013384018
0.4274087 0.073067769 0.012338278
0.42484388 0.074310787 0.010772595
0.42054957 0.07573691 0.0081670722
0.40158489 0.079716541 -0.0032832606
0.42365664 -0.013964317 0.011063101
0.42802772 -0.012698663 0.013658382
0.42805758 -0.011715994 0.013652394
0.42808744 -0.010733329 0.013646406
0.42898536 -0.0097004352 0.014160704
0.42988321 -0.0086707259 0.014675054
0.42991298 -0.0076912441 0.014669085
0.42994276 -0.0067117619 0.014663116
0.43084037 -0.0056884261 0.015177472
0.43087009 -0.0047105341 0.015171514
0.43176755 -0.0036919757 0.015685899
0.43266493 -0.0026766008 0.01620031
0.43269455 -0.0017018961 0.01619437
0.43272418 -0.000727195 0.016188432
0.43362141 0.00028181114 0.016702902
0.433651 0.001254926 0.016696971
0.43368056 0.002228037 0.01669104
0.43371013 0.003201148 0.016685111
0.43373972 0.0041742572 0.016679181
0.43376929 0.00514737 0.016673252
0.43466613 0.0061452263 0.017187769
0.43469566 0.0071167434 0.017181849
0.4347252 0.0080882628 0.017175928
0.43475473 0.009059784 0.017170008
0.43478426 0.010031302 0.017164089
0.43481377 0.011002821 0.017158167
0.4348433 0.011974342 0.017152248
0.43487284 0.012945859 0.017146327
0.43490237 0.013917378 0.017140407
0.4349319 0.014888898 0.017134488
0.43409467 0.015851602 0.016608022
0.43412423 0.016824713 0.016602093
0.43415383 0.017797824 0.016596163
0.43418339 0.018770937 0.016590234
0.43421298 0.019744048 0.016584303
0.43424255 0.020717159 0.016578373
0.43427214 0.02169027 0.016572444
0.4343017 0.022663383 0.016566513
0.43346483 0.023640418 0.016039941
0.43349448 0.024615124 0.016034001
0.4335241 0.025589827 0.016028062
0.43355373 0.026564531 0.016022122
0.43358335 0.027539236 0.016016183
0.43361297 0.028513942 0.016010243
0.4336426 0.029488645 0.016004303
0.43367222 0.030463351 0.015998363
0.43370184 0.031438056 0.015992425
0.43373147 0.03241276 0.015986485
0.43376109 0.033387464 0.015980545
0.43379074 0.034362167 0.015974605
0.43382037 0.035336874 0.015968665
0.43384999 0.036311578 0.015962727
0.43387961 0.037286282 0.015956787
0.43390924 0.038260985 0.015950847
0.43393886 0.039235692 0.015944907
0.43396848 0.040210396 0.015938967
0.43399811 0.0411851 0.015933029
0.43402773 0.042159803 0.015927089
0.43405735 0.043134511 0.015921149
0.43408701 0.044109214 0.015915209
0.43411663 0.045083918 0.015909269
0.43414626 0.046058621 0.015903331
0.43417588 0.047033325 0.015897391
0.4342055 0.048008032 0.015891451
0.43423513 0.048982736 0.015885511
0.43426475 0.049957439 0.015879573
0.43429437 0.050932143 0.015873633
0.434324 0.05190685 0.015867693
0.43435362 0.052881554 0.015861753
0.43438327 0.053856257 0.015855813
0.4344129 0.054830965 0.015849875
0.43444252 0.055805668 0.015843935
0.4336074 0.056838445 0.015317043
0.43363708 0.057814743 0.015311094
0.43366674 0.058791041 0.015305145
0.43369642 0.059767336 0.015299195
0.43286154 0.060808077 0.014772261
0.43289128 0.061785966 0.014766302
0.43292099 0.062763862 0.014760343
0.43295071 0.063741751 0.014754384
0.43211609 0.06479045 0.014227401
0.43214586 0.065769933 0.014221433
0.43217564 0.066749424 0.014215464
0.43134114 0.067804493 0.013688411
0.4305068 0.068862759 0.013161369
0.43053666 0.069845423 0.013155381
0.42970246 0.070908464 0.01262831
0.42973238 0.071892723 0.012622313
0.42803437 0.073044099 0.011574112
0.42460865 0.074372143 0.0094836121
0.42031947 0.075799674 0.0068719196
0.40569597 0.079332009 -0.0019998094
0.42865035 -0.012722223 0.012897905
0.42954734 -0.011686108 0.013413417
0.4287101 -0.010756888 0.012885928
0.42960697 -0.0097239567 0.01340146
0.42963681 -0.0087428847 0.013395482
0.43053362 -0.0077147274 0.013911074
0.43056339 -0.0067352452 0.013905105
0.43145999 -0.0057118712 0.014420696
0.43148971 -0.0047339792 0.014414736
0.43238616 -0.0037153827 0.014930355
0.43241584 -0.0027390842 0.014924406
0.43331215 -0.0017252648 0.015440054
0.43334177 -0.00075056381 0.015434114
0.43337139 0.00022414092 0.015428174
0.43340102 0.0011988457 0.015422235
0.43343064 0.0021735504 0.015416295
0.43432674 0.0031778174 0.015932027
0.4343563 0.0041509266 0.015926098
0.4343859 0.0051240395 0.015920168
0.43441546 0.0060971524 0.015914239
0.43444505 0.0070702638 0.015908308
0.43447462 0.0080433749 0.015902378
0.43450421 0.0090164877 0.015896449
0.43453377 0.0099895988 0.015890518
0.43456337 0.01096271 0.015884589
0.43459293 0.011935823 0.015878659
0.43462253 0.012908934 0.01587273
0.43465209 0.013882045 0.015866799
0.43468168 0.014855158 0.015860869
0.43471125 0.01582827 0.01585494
0.43474081 0.016801381 0.015849009
0.43477041 0.017774493 0.01584308
0.4339343 0.018743528 0.015315322
0.43396392 0.019718232 0.015309383
0.43399355 0.020692937 0.015303443
0.43402317 0.021667641 0.015297504
0.43405282 0.022642346 0.015291564
0.43408245 0.02361705 0.015285625
0.43324673 0.024597235 0.014757826
0.43327641 0.025573531 0.014751877
0.4333061 0.026549827 0.014745927
0.43333575 0.027526125 0.014739978
0.43336543 0.028502421 0.014734029
0.43339512 0.029478719 0.01472808
0.43342477 0.030455016 0.01472213
0.43345445 0.031431314 0.014716181
0.43348414 0.032407612 0.014710232
0.43351382 0.033383906 0.014704282
0.43354347 0.034360204 0.014698333
0.43357316 0.035336502 0.014692384
0.43360284 0.0363128 0.014686435
0.43363249 0.037289098 0.014680485
0.43366218 0.038265392 0.014674536
0.43369186 0.03924169 0.014668587
0.43372154 0.040217988 0.014662637
0.4337512 0.041194286 0.014656688
0.43378088 0.04217058 0.014650739
0.43381056 0.043146878 0.01464479
0.43384025 0.044123176 0.01463884
0.4338699 0.045099471 0.014632891
0.43389958 0.046075772 0.014626942
0.43392926 0.047052067 0.014620992
0.43395892 0.048028365 0.014615043
0.4339886 0.049004663 0.014609094
0.43401828 0.049980957 0.014603144
0.43404797 0.050957255 0.014597195
0.43407762 0.051933553 0.014591246
0.4341073 0.052909851 0.014585297
0.43413699 0.053886149 0.014579347
0.43416667 0.054862443 0.014573398
0.43419632 0.055838741 0.014567449
0.43422601 0.056815036 0.014561499
0.43339199 0.057850964 0.01403336
0.43342173 0.058828853 0.014027402
0.43345144 0.059806742 0.014021443
0.43348116 0.060784634 0.014015484
