# .PCD v0.7 - Point Cloud Data file format
VERSION 0.7
FIELDS x y z
SIZE 4 4 4
TYPE F F F
COUNT 1 1 1
WIDTH 1411
HEIGHT 1
VIEWPOINT 0 0 0 1 0 0 0
POINTS 1411
DATA ascii
0.52309048 0.13885389 0.042795688
0.52311605 0.13969481 0.042790566
0.52314162 0.14053573 0.04278544
0.52233279 0.1416042 0.042227484
0.52235836 0.14244671 0.042222351
0.52238399 0.14328922 0.042217217
0.52157539 0.14436404 0.041659255
0.52160108 0.14520815 0.04165411
0.50868118 0.089546576 0.033602808
0.50870752 0.090412982 0.033597525
0.50873381 0.09127938 0.033592246
0.50876015 0.092145786 0.033586968
0.50962275 0.092880256 0.034135137
0.50964904 0.093745068 0.034129865
0.51051146 0.094474763 0.034678064
0.51053768 0.095337979 0.034672804
0.51056391 0.096201196 0.034667544
0.51142621 0.096924506 0.035215814
0.51145238 0.097786136 0.035210561
0.51231444 0.098504677 0.035758827
0.51234061 0.099364713 0.035753585
0.51236677 0.10022474 0.035748348
0.51322865 0.10093691 0.036296654
0.5132547 0.10179535 0.036291424
0.51411647 0.10250275 0.036839757
0.51414251 0.10335959 0.036834534
0.51416856 0.10421645 0.036829315
0.51503015 0.10491746 0.037377719
0.51505613 0.10577272 0.037372507
0.51508212 0.10662797 0.037367295
0.51594353 0.10732263 0.037915707
0.51596946 0.10817628 0.037910502
0.51683068 0.10886616 0.038458943
0.51685655 0.10971823 0.038453754
0.51688248 0.1105703 0.038448561
0.51690835 0.11142237 0.038443368
0.51776934 0.11210427 0.038991857
0.51779515 0.11295477 0.038986675
0.51782101 0.11380523 0.03898149
0.51784688 0.11465572 0.038976308
0.51787275 0.11550619 0.038971126
0.51873338 0.11617854 0.039519675
0.51875919 0.11702744 0.039514501
0.518785 0.11787632 0.039509326
0.51881081 0.1187252 0.039504156
0.51967126 0.11938959 0.040052786
0.51969707 0.12023687 0.040047623
0.51972282 0.12108417 0.04004246
0.51974857 0.12193146 0.040037297
0.52060872 0.1225879 0.040585939
0.52063447 0.12343359 0.040580787
0.52066016 0.12427929 0.040575635
0.52068585 0.12512499 0.040570479
0.52154583 0.12577346 0.041119173
0.52157146 0.12661755 0.041114029
0.52159715 0.12746167 0.041108884
0.52245688 0.12810376 0.041657615
0.52248251 0.12894627 0.041652482
0.52250808 0.1297888 0.041647349
0.5233677 0.1304245 0.042196155
0.52339327 0.13126543 0.042191029
0.52341884 0.13210635 0.042185906
0.52344441 0.13294727 0.04218078
0.52430373 0.13357504 0.042729601
0.52432925 0.13441436 0.042724486
0.52435476 0.1352537 0.042719372
0.52438027 0.13609302 0.042714257
0.52357221 0.13715188 0.042155161
0.52359778 0.1379928 0.042150036
0.52362329 0.13883373 0.04214491
0.52364886 0.13967465 0.042139787
0.52367443 0.14051557 0.042134661
0.52286661 0.14158399 0.041575473
0.52289224 0.14242651 0.041570339
0.52291781 0.14326902 0.041565206
0.52211028 0.14434379 0.04100601
0.52213591 0.14518791 0.041000865
0.52132851 0.14626747 0.040441643
0.50836837 0.088783339 0.032382954
0.50839472 0.089651331 0.032377664
0.50925648 0.09039221 0.032927025
0.50928283 0.091258608 0.032921746
0.50930917 0.092125013 0.032916468
0.5101707 0.092859522 0.033465866
0.51019698 0.093724333 0.033460595
0.51022327 0.094589144 0.033455327
0.51024956 0.095453955 0.033450056
0.5111109 0.096180499 0.033999506
0.51113713 0.097043715 0.033994246
0.51116335 0.097906932 0.033988986
0.51202452 0.098627105 0.034538507
0.51205069 0.099488728 0.034533259
0.51291168 0.10020413 0.035082776
0.51293784 0.10106415 0.035077535
0.51379865 0.10177477 0.035627082
0.51382476 0.10263322 0.035621852
0.51385087 0.10349166 0.035616621
0.5147115 0.10419591 0.036166206
0.51473755 0.10505275 0.036160987
0.51559806 0.10575221 0.036710635
0.51562405 0.10660747 0.036705423
0.51565003 0.10746273 0.036700211
0.51651037 0.10815582 0.037249863
0.5165363 0.10900949 0.037244663
0.51656222 0.10986315 0.037239462
0.51742232 0.11054987 0.037789155
0.51744825 0.11140195 0.037783962
0.51747411 0.11225401 0.037778769
0.51750004 0.11310609 0.037773576
0.5183599 0.11378484 0.03832332
0.51838577 0.11463533 0.038318135
0.51841158 0.1154858 0.038312953
0.51843745 0.11633629 0.038307771
0.51846331 0.11718676 0.038302589
0.51932287 0.11785597 0.038852386
0.51934868 0.11870486 0.038847212
0.51937449 0.11955374 0.038842041
0.5194003 0.12040262 0.038836867
0.52025968 0.12106385 0.039386749
0.52028543 0.12191115 0.039381586
0.52031118 0.12275845 0.039376423
0.52033693 0.12360573 0.03937126
0.52119601 0.12425902 0.039921157
0.5212217 0.12510471 0.039916001
0.52124745 0.12595041 0.039910849
0.52127314 0.12679611 0.039905693
0.52213198 0.12744144 0.040455639
0.52215761 0.12828554 0.040450498
0.52301633 0.12892608 0.041000471
0.52304196 0.1297686 0.040995337
0.52306753 0.13061111 0.040990204
0.52309316 0.13145363 0.04098507
0.52395165 0.13208619 0.041535124
0.52397722 0.1329271 0.041530002
0.52400279 0.13376804 0.041524876
0.52402836 0.13460895 0.04151975
0.52405387 0.13544989 0.041514628
0.52407944 0.13629079 0.041509502
0.52410501 0.13713172 0.041504379
0.52413058 0.13797264 0.041499253
0.52415615 0.13881357 0.041494131
0.52418172 0.13965449 0.041489005
0.52420723 0.1404954 0.041483883
0.5242328 0.14133632 0.041478757
0.52342606 0.14240631 0.040918328
0.52261943 0.14347947 0.04035791
0.52264512 0.14432356 0.040352765
0.52267075 0.14516768 0.040347621
0.52186435 0.14624719 0.039787166
0.50894469 0.089630514 0.031705927
0.5089711 0.090498514 0.031700637
0.50983179 0.091237836 0.032251243
0.50985813 0.092104241 0.03224596
0.51071864 0.092838787 0.032796595
0.51074493 0.093703605 0.032791328
0.51077127 0.094568409 0.032786056
0.51079756 0.095433228 0.032780789
0.51082385 0.096298032 0.032775518
0.51168406 0.097023018 0.033326212
0.51171029 0.097886242 0.033320952
0.51173657 0.098749459 0.033315692
0.51259667 0.099468067 0.033866454
0.51262283 0.1003297 0.033861201
0.51348275 0.10104354 0.034411963
0.51350892 0.10190357 0.034406722
0.51353502 0.10276361 0.03440148
0.51439476 0.10347108 0.034952283
0.51442087 0.10432952 0.034947053
0.51528043 0.10503221 0.035497878
0.51530647 0.10588906 0.035492655
0.51533252 0.10674591 0.035487436
0.51619196 0.10744222 0.036038335
0.51621795 0.10829747 0.036033124
0.51624393 0.10915273 0.036027912
0.51710314 0.10984269 0.036578819
0.51712912 0.11069634 0.036573619
0.51798815 0.11138152 0.037124552
0.51801401 0.11223358 0.037119359
0.51803994 0.11308566 0.037114166
0.51806581 0.11393772 0.037108973
0.51892465 0.11461494 0.037659958
0.51895046 0.11546542 0.037654776
0.51897633 0.11631589 0.037649594
0.5190022 0.11716637 0.037644409
0.51902807 0.11801684 0.037639227
0.51988655 0.1186845 0.038190268
0.51991236 0.11953338 0.038185094
0.51993817 0.12038226 0.038179923
0.51996398 0.12123115 0.038174748
0.51998979 0.12208004 0.038169578
0.52084804 0.12273813 0.038720708
0.52087379 0.12358542 0.038715545
0.52089953 0.12443271 0.038710382
0.52092528 0.12528001 0.038705219
0.52178329 0.12593015 0.039256372
0.52180898 0.12677583 0.039251216
0.52183467 0.12762153 0.039246064
0.5226925 0.12826531 0.03979725
0.52271813 0.12910941 0.039792106
0.52274376 0.12995352 0.039786961
0.52360135 0.1305909 0.040338188
0.52362698 0.13143343 0.040333055
0.52365261 0.13227594 0.040327922
0.52451003 0.13290694 0.04087922
0.5245356 0.13374788 0.040874094
0.52456117 0.13458879 0.040868971
0.52458674 0.13542973 0.040863845
0.52461231 0.13627063 0.040858723
0.52463788 0.13711156 0.040853597
0.52466339 0.13795248 0.040848471
0.52468896 0.13879341 0.040843349
0.52471453 0.13963433 0.040838223
0.52390867 0.14070109 0.04027658
0.5239343 0.1415436 0.040271446
0.52312863 0.14261512 0.039709806
0.52315432 0.14345922 0.039704662
0.52317995 0.14430332 0.039699517
0.52237451 0.14538123 0.03913784
0.5224002 0.14622693 0.039132688
0.52159488 0.14730959 0.038570978
0.50860846 0.087995984 0.030487685
0.50946832 0.088741712 0.031039484
0.50949472 0.089609705 0.031034194
0.50952107 0.090477705 0.031028904
0.51038074 0.091217063 0.031580742
0.51040709 0.092083469 0.03157546
0.51043344 0.092949875 0.031570181
0.51045978 0.09381628 0.031564903
0.51131922 0.094547674 0.032116789
0.51134551 0.095412493 0.032111522
0.51137179 0.096277297 0.032106251
0.51139808 0.097142115 0.032100979
0.51225728 0.097865544 0.032652915
0.5122835 0.098728761 0.032647654
0.51230973 0.099591985 0.032642394
0.51316881 0.10030904 0.0331944
0.51319498 0.10117067 0.033189151
0.5132212 0.10203229 0.033183899
0.51407999 0.10274298 0.033735912
0.51410615 0.10360302 0.033730671
0.51496482 0.10430893 0.03428271
0.51499087 0.10516737 0.03427748
0.51501697 0.10602582 0.03427225
0.51587546 0.10672536 0.03482433
0.51590151 0.10758221 0.034819108
0.51675987 0.10827696 0.035371251
0.51678586 0.10913222 0.03536604
0.51681185 0.10998748 0.035360828
0.51766998 0.11067587 0.035912976
0.51769596 0.11152954 0.035907771
0.51772189 0.11238319 0.035902571
0.51857984 0.11306523 0.03645476
0.51860571 0.11391729 0.036449566
0.51863164 0.11476937 0.036444373
0.51865751 0.11562144 0.036439184
0.51951522 0.1162955 0.036991417
0.51954108 0.11714598 0.036986236
0.51956695 0.11799645 0.036981054
0.51959276 0.11884694 0.036975868
0.51961863 0.11969741 0.036970686
0.52047604 0.12036192 0.037522979
0.52050185 0.1212108 0.037517808
0.52052766 0.12205968 0.037512634
0.52055347 0.12290858 0.037507463
0.52057922 0.12375745 0.037502289
0.52143639 0.1244124 0.038054675
0.52146214 0.12525968 0.038049512
0.52148789 0.12610698 0.038044348
0.52234483 0.12675557 0.038596738
0.52237052 0.12760125 0.038591586
0.52239627 0.12844697 0.03858643
0.52325296 0.12908916 0.039138861
0.52327865 0.12993328 0.039133716
0.52330428 0.13077739 0.039128572
0.5241608 0.13141324 0.03968104
0.52418643 0.13225573 0.039675906
0.52421206 0.13309826 0.039670773
0.52423763 0.13394077 0.039665639
0.52509397 0.13456863 0.040218189
0.52511954 0.13540956 0.040213063
0.52514511 0.13625047 0.040207941
0.52517068 0.1370914 0.040202815
0.52519625 0.13793232 0.040197693
0.52439129 0.13899586 0.039634835
0.52441692 0.13983835 0.039629702
0.52444255 0.14068088 0.039624564
0.52446812 0.14152341 0.039619431
0.52366352 0.14259489 0.039056558
0.52368915 0.14343898 0.039051417
0.52288467 0.14451525 0.038488515
0.52291036 0.14536095 0.038483363
0.52293605 0.14620665 0.038478207
0.5229618 0.14705235 0.038473055
0.50915945 0.087975137 0.029814718
0.50918585 0.088844724 0.029809419
0.50921232 0.089714311 0.02980412
0.5100711 0.090456896 0.030357171
0.51009744 0.091324888 0.030351883
0.51095605 0.092062697 0.030904962
0.51098239 0.092929102 0.030899683
0.51100874 0.093795508 0.030894402
0.51103508 0.094661914 0.030889124
0.51189345 0.095391758 0.031442251
0.51191974 0.096256569 0.03143698
0.51194602 0.09712138 0.031431712
0.51197231 0.097986184 0.031426441
0.51283044 0.098708071 0.031979617
0.51285672 0.099571288 0.031974357
0.51288295 0.1004345 0.031969097
0.51290917 0.10129773 0.031963836
0.51376712 0.10201163 0.032517098
0.51379329 0.10287327 0.032511849
0.51465106 0.1035824 0.033065103
0.51467723 0.10444244 0.033059862
0.51470333 0.10530246 0.03305462
0.51556093 0.10600524 0.033607915
0.51558697 0.10686367 0.033602681
0.51644444 0.10756167 0.034156006
0.51647043 0.10841851 0.034150783
0.51649648 0.10927536 0.03414556
0.51735377 0.10996698 0.034698956
0.51737976 0.11082223 0.034693744
0.51740575 0.11167748 0.034688532
0.5182628 0.11236273 0.035241932
0.51828873 0.11321639 0.035236731
0.51914561 0.11389687 0.03579016
0.51917154 0.11474894 0.035784967
0.5191974 0.11560101 0.035779774
0.51922333 0.11645308 0.035774581
0.5192492 0.11730515 0.035769388
0.52010584 0.11797606 0.036322877
0.52013165 0.11882655 0.036317695
0.52015752 0.11967701 0.036312513
0.52018338 0.1205275 0.036307327
0.52020919 0.12137797 0.036302146
0.52106553 0.12203933 0.036855694
0.52109134 0.12288822 0.036850519
0.52111709 0.1237371 0.036845345
0.5211429 0.12458599 0.036840174
0.521999 0.12523937 0.037393801
0.52202481 0.12608667 0.037388638
0.52205056 0.12693396 0.037383474
0.52207631 0.12778126 0.037378311
0.52293211 0.12842669 0.037931953
0.5229578 0.12927239 0.037926801
0.52298349 0.13011809 0.037921645
0.52383912 0.13075714 0.038475327
0.52386481 0.13160126 0.038470183
0.52389044 0.13244535 0.038465042
0.52474588 0.13307805 0.039018761
0.52477151 0.13392057 0.039013628
0.52479708 0.13476308 0.039008491
0.52482271 0.1356056 0.039003357
0.52484834 0.1364481 0.038998224
0.52487391 0.13729063 0.03899309
0.52489954 0.13813314 0.038987957
0.52492517 0.13897565 0.038982823
0.52495074 0.13981816 0.038977686
0.52497637 0.14066069 0.038972553
0.52500194 0.1415032 0.038967419
0.52419835 0.14257464 0.038403314
0.52422398 0.14341874 0.038398173
0.52342051 0.14449497 0.037834037
0.5234462 0.14534068 0.037828885
0.52347189 0.14618637 0.037823729
0.5226686 0.14726897 0.037259556
0.52269441 0.14811626 0.037254393
0.50885242 0.087205298 0.028587475
0.50971043 0.087954283 0.029141756
0.50973684 0.08882387 0.029136457
0.5097633 0.089693464 0.029131157
0.51062107 0.090436086 0.029685438
0.51064742 0.091304079 0.02968015
0.51067382 0.092172079 0.02967486
0.51153141 0.09290833 0.030229183
0.5115577 0.093774736 0.030223902
0.51158404 0.094641142 0.030218624
0.51161039 0.09550754 0.030213343
0.51246774 0.096235834 0.030767715
0.51249403 0.097100645 0.030762445
0.51252031 0.097965449 0.030757174
0.5125466 0.09883026 0.030751904
0.51257288 0.099695079 0.030746635
0.51342988 0.10041381 0.031301063
0.51345611 0.10127703 0.031295802
0.51348239 0.10214025 0.031290542
0.51350862 0.10300347 0.031285282
0.51436543 0.10371423 0.031839795
0.51439166 0.10457586 0.031834543
0.5152483 0.10528184 0.032389048
0.51527441 0.10614188 0.032383807
0.51613092 0.10684308 0.032938343
0.51615703 0.10770153 0.032933112
0.51618314 0.10855997 0.032927882
0.51703942 0.10925481 0.033482455
0.51706547 0.11011167 0.033477236
0.51709151 0.11096852 0.033472013
0.51794767 0.11165698 0.03402666
0.51797366 0.11251223 0.034021448
0.51799965 0.11336749 0.034016237
0.51885557 0.11404958 0.034570888
0.51888156 0.11490326 0.034565687
0.5197373 0.11558058 0.035120364
0.51976323 0.11643265 0.035115175
0.5197891 0.11728472 0.035109982
0.51981503 0.11813679 0.035104789
0.5198409 0.11898886 0.035099596
0.5206964 0.11965662 0.035654336
0.52072227 0.12050711 0.035649154
0.52074808 0.12135758 0.035643972
0.52077395 0.12220807 0.035638787
0.52162921 0.12286787 0.036193576
0.52165502 0.12371675 0.036188405
0.52168077 0.12456564 0.036183231
0.52170658 0.12541452 0.03617806
0.52173239 0.12626341 0.036172885
0.52258742 0.12691364 0.036727764
0.52261317 0.12776093 0.0367226
0.52263892 0.12860823 0.036717437
0.52349365 0.12925211 0.037272323
0.5235194 0.13009781 0.037267171
0.52354509 0.13094351 0.037262019
0.52357078 0.13178921 0.037256863
0.52442533 0.13242511 0.037811793
0.52445096 0.13326924 0.037806652
0.52447665 0.13411334 0.037801508
0.52450228 0.13495745 0.037796363
0.52535653 0.1355854 0.038351346
0.52538216 0.13642791 0.038346212
0.52540779 0.13727042 0.038341079
0.52543336 0.13811293 0.038335945
0.52545899 0.13895544 0.038330812
0.52548462 0.13979796 0.038325675
0.52468187 0.14086619 0.037760358
0.52470756 0.14171031 0.037755214
0.52473319 0.1425544 0.037750069
0.52393067 0.143629 0.037184715
0.52395636 0.1444747 0.037179563
0.52398205 0.1453204 0.037174407
0.52317971 0.14640136 0.036609013
0.52320552 0.14724866 0.036603849
0.52323127 0.14809595 0.036598686
0.50940442 0.087184414 0.027913278
0.51026142 0.087933436 0.028468788
0.51028788 0.088803023 0.02846349
0.51031429 0.089672618 0.028458191
0.51034069 0.090542205 0.028452892
0.51119745 0.091283269 0.029008415
0.51122379 0.092151269 0.029003127
0.5112502 0.093019269 0.028997837
0.51210672 0.093753964 0.029553402
0.51213306 0.094620369 0.029548123
0.51215935 0.095486768 0.029542843
0.51218569 0.096353181 0.029537564
0.51304197 0.09707991 0.030093174
0.51306826 0.097944714 0.030087905
0.51309454 0.098809533 0.030082636
0.51312083 0.099674344 0.030077366
0.51314712 0.10053916 0.030072095
0.5140031 0.10125633 0.030627768
0.51402932 0.10211955 0.030622508
0.51405555 0.10298277 0.030617248
0.51408178 0.10384599 0.030611988
0.51493758 0.1045552 0.03116774
0.51496381 0.10541682 0.031162489
0.51581937 0.10612126 0.031718235
0.51584554 0.10698129 0.031712998
0.51587164 0.10784133 0.031707756
0.51672703 0.10853939 0.032263543
0.51675314 0.10939784 0.032258313
0.5176084 0.11009113 0.03281413
0.51763445 0.11094797 0.032808907
0.5176605 0.11180482 0.032803684
0.51851559 0.11249173 0.033359576
0.51854157 0.11334699 0.033354364
0.51856756 0.11420224 0.033349153
0.51942247 0.11488279 0.033905044
0.5194484 0.11573645 0.033899844
0.51947433 0.11659011 0.033894639
0.520329 0.11726429 0.034450576
0.52035493 0.11811636 0.034445383
0.5203808 0.11896843 0.03444019
0.52040672 0.1198205 0.034434997
0.52043259 0.12067257 0.034429807
0.52128696 0.12133719 0.034985796
0.52131283 0.12218767 0.034980614
0.5213387 0.12303815 0.034975432
0.52136451 0.12388862 0.03497025
0.52221864 0.12454528 0.035526291
0.52224445 0.12539417 0.035521116
0.52227026 0.12624305 0.035515945
0.52229607 0.12709194 0.035510771
0.52315003 0.12774062 0.036066893
0.52317578 0.12858792 0.03606173
0.52320153 0.12943521 0.036056567
0.52322727 0.13028251 0.036051404
0.52408093 0.13092323 0.036607537
0.52410662 0.13176894 0.036602385
0.52413237 0.13261463 0.036597233
0.52415806 0.13346033 0.036592077
0.52501148 0.13409311 0.037148263
0.52503711 0.13493721 0.037143119
0.5250628 0.13578132 0.037137974
0.52508843 0.13662542 0.037132829
0.52511412 0.13746953 0.037127689
0.52513975 0.13831364 0.037122544
0.52516538 0.13915774 0.037117399
0.52519107 0.14000185 0.037112255
0.5252167 0.14084595 0.037107114
0.52524239 0.14169006 0.037101969
0.52526802 0.14253417 0.037096824
0.52446651 0.14360872 0.036530238
0.5244922 0.14445442 0.036525082
0.52451795 0.14530012 0.03651993
0.52371663 0.14638105 0.035953302
0.52374238 0.14722833 0.035948139
0.52376813 0.14807564 0.035942975
0.50992996 0.086292341 0.027244389
0.50995642 0.087163523 0.027239081
0.5108124 0.087912589 0.027795821
0.51000941 0.088905886 0.027228463
0.51086527 0.089651763 0.027785225
0.51089174 0.090521351 0.027779926
0.51091814 0.091390945 0.027774626
0.51177377 0.09213046 0.028331395
0.51180017 0.09299846 0.028326107
0.51182657 0.093866453 0.028320817
0.51268202 0.094599597 0.028877623
0.51270837 0.095465995 0.028872343
0.51273465 0.096332408 0.028867064
0.512761 0.097198807 0.028861783
0.51278734 0.098065212 0.028856505
0.51364249 0.098788798 0.029413369
0.51366878 0.099653609 0.029408099
0.51369506 0.10051842 0.02940283
0.51372135 0.10138322 0.029397558
0.51457632 0.10209886 0.029954471
0.51460254 0.10296208 0.029949211
0.51462877 0.10382529 0.02994395
0.51465499 0.10468852 0.02993869
0.51550972 0.10539616 0.030495686
0.51553589 0.1062578 0.030490436
0.51639044 0.10696067 0.031047426
0.51641661 0.10782071 0.031042187
0.51644272 0.10868073 0.031036945
0.51729709 0.10937726 0.031593975
0.51732314 0.1102357 0.031588744
0.51734924 0.11109413 0.031583514
0.51820338 0.11178428 0.032140579
0.51822942 0.11264113 0.03213536
0.51825547 0.11349797 0.032130137
0.51910949 0.11418173 0.03268728
0.51913548 0.11503699 0.032682069
0.51916146 0.11589225 0.032676857
0.52001524 0.11656965 0.033234
0.52004117 0.11742331 0.0332288
0.52006716 0.11827697 0.033223599
0.52092069 0.11894801 0.033780783
0.52094662 0.11980007 0.03377559
0.52097249 0.12065214 0.033770397
0.52099842 0.12150421 0.033765204
0.52185172 0.12216728 0.034322437
0.52187759 0.12301776 0.034317255
0.5219034 0.12386823 0.034312073
0.52192926 0.12471872 0.034306891
0.52195513 0.12556918 0.034301709
0.52280813 0.1262227 0.034859002
0.52283394 0.12707159 0.034853827
0.52285975 0.12792046 0.034848657
0.52288556 0.12876937 0.034843482
0.52373838 0.12941489 0.035400856
0.52376413 0.1302622 0.035395693
0.52378988 0.13110948 0.03539053
0.52381563 0.13195677 0.035385367
0.52466822 0.13259435 0.035942752
0.52469391 0.13344005 0.0359376
0.5247196 0.13428576 0.035932448
0.52474535 0.13513145 0.035927292
0.52477103 0.13597716 0.03592214
0.52562326 0.13660519 0.036479589
0.52564895 0.13744929 0.036474444
0.52567458 0.1382934 0.036469303
0.52570027 0.13913751 0.036464158
0.5257259 0.13998161 0.036459014
0.52575159 0.14082572 0.036453869
0.52577722 0.14166982 0.036448728
0.52497667 0.14274274 0.035880912
0.52500236 0.14358845 0.03587576
0.52420199 0.14466615 0.035307918
0.52422774 0.14551345 0.035302754
0.52425349 0.14636074 0.035297591
0.52345318 0.14744481 0.034729678
0.52347898 0.14829372 0.034724507
0.52267891 0.14938256 0.034156594
0.51048195 0.086271457 0.02657019
0.51050842 0.087142639 0.026564881
0.51053494 0.08801382 0.026559573
0.51056141 0.088885002 0.026554264
0.51141626 0.089630917 0.02711226
0.51144272 0.090500504 0.027106961
0.51146913 0.091370091 0.027101662
0.51149559 0.092239685 0.027096363
0.511522 0.093109272 0.027091064
0.51237655 0.093845643 0.027649084
0.51240295 0.094713636 0.027643794
0.5124293 0.095581636 0.027638506
0.51328367 0.096311636 0.028196564
0.51331002 0.097178034 0.028191283
0.5133363 0.09804444 0.028186005
0.51336265 0.098910838 0.028180726
0.51338899 0.099777244 0.028175445
0.51424307 0.10049769 0.028733563
0.51426935 0.1013625 0.028728293
0.51429564 0.10222732 0.028723022
0.51432192 0.10309213 0.028717753
0.5151757 0.1038046 0.029275915
0.51520199 0.10466782 0.029270655
0.51522821 0.10553103 0.029265394
0.51608187 0.10623714 0.029823633
0.51610804 0.10709876 0.029818384
0.51613426 0.10796039 0.029813133
0.51698768 0.10866012 0.030371375
0.51701379 0.10952015 0.030366136
0.51703995 0.1103802 0.030360894
0.5178932 0.11107355 0.030919176
0.5179193 0.11193199 0.030913945
0.51794535 0.11279044 0.030908713
0.51879841 0.11347743 0.031467035
0.51882446 0.11433428 0.031461813
0.51885051 0.11519113 0.031456593
0.51970339 0.11587174 0.032014985
0.51972938 0.11672699 0.032009773
0.51975536 0.11758225 0.032004561
0.52060801 0.1182565 0.03256296
0.520634 0.11911017 0.032557756
0.52065992 0.11996382 0.032552555
0.52151239 0.12063172 0.033110991
0.52153826 0.12148378 0.033105798
0.52156419 0.12233586 0.033100605
0.52159011 0.12318793 0.033095416
0.52244228 0.12384784 0.0336539
0.52246815 0.12469833 0.033648718
0.52249402 0.12554879 0.033643536
0.52251983 0.12639928 0.033638351
0.52337182 0.12705123 0.034196883
0.52339762 0.12790012 0.034191713
0.52342343 0.12874901 0.034186538
0.52344924 0.12959789 0.034181364
0.52347505 0.13044678 0.034176193
0.52432674 0.13108915 0.034734819
0.52435255 0.13193646 0.034729656
0.5243783 0.13278374 0.034724493
0.52440405 0.13363104 0.034719329
0.5252555 0.13426548 0.03527797
0.52528119 0.13511118 0.035272818
0.52530688 0.13595688 0.035267666
0.52533257 0.13680257 0.03526251
0.52535832 0.13764827 0.035257358
0.52538401 0.13849397 0.035252202
0.5254097 0.13933967 0.03524705
0.52543539 0.14018537 0.035241898
0.52546114 0.14103107 0.035236742
0.52548683 0.14187677 0.03523159
0.52551252 0.14272247 0.035226438
0.52553821 0.14356817 0.035221282
0.52473885 0.14464583 0.034652211
0.5247646 0.14549313 0.034647048
0.52479035 0.14634041 0.034641884
0.52399111 0.14742447 0.034072734
0.52401686 0.14827336 0.034067564
0.5232178 0.14936216 0.033498421
0.51106042 0.087121755 0.025890684
0.51108694 0.087992936 0.025885375
0.51111341 0.08886411 0.025880067
0.51113987 0.089735299 0.025874758
0.51116633 0.090606481 0.02586945
0.51202011 0.091349244 0.026428696
0.51204658 0.092218839 0.026423397
0.51207298 0.093088426 0.026418097
0.51209944 0.09395802 0.026412798
0.51212585 0.0948276 0.026407499
0.51297927 0.095560826 0.026966771
0.51300567 0.096428819 0.026961483
0.51303208 0.097296819 0.026956193
0.51388532 0.098023668 0.027515505
0.5139116 0.098890066 0.027510226
0.51393795 0.099756472 0.027504945
0.5139643 0.10062288 0.027499666
0.5148173 0.10134176 0.028059023
0.51484358 0.10220658 0.028053753
0.51486987 0.10307139 0.028048484
0.51489615 0.1039362 0.028043212
0.51574892 0.10464712 0.028602621
0.51577514 0.10551034 0.02859736
0.51580137 0.10637356 0.0285921
0.51582766 0.10723677 0.02858684
0.51668018 0.10793974 0.02914633
0.51670641 0.10880135 0.02914108
0.51673257 0.10966298 0.029135829
0.51758492 0.11035957 0.029695325
0.51761103 0.1112196 0.029690083
0.51763719 0.11207964 0.029684843
0.5184893 0.11276986 0.030244375
0.51851541 0.1136283 0.030239144
0.51854151 0.11448673 0.030233912
0.51939344 0.11517059 0.030793486
0.51941949 0.11602743 0.030788265
0.51944548 0.11688428 0.030783042
0.52029729 0.11756175 0.031342689
0.52032328 0.118417 0.031337477
0.52034926 0.11927226 0.031332266
0.52120084 0.11994336 0.031891916
0.52122676 0.12079703 0.031886712
0.52125275 0.12165069 0.031881511
0.52210408 0.12231543 0.032441199
0.52212995 0.1231675 0.032436006
0.52215588 0.12401956 0.032430813
0.52300704 0.12467793 0.032990541
0.5230329 0.12552841 0.032985359
0.52305871 0.12637889 0.032980178
0.52308458 0.12722936 0.032974996
0.52311045 0.12807983 0.03296981
0.52396131 0.12872866 0.033529595
0.52398711 0.12957753 0.033524424
0.52401292 0.13042642 0.033519249
0.52403873 0.1312753 0.033514079
0.52406454 0.13212419 0.033508904
0.52491516 0.13276343 0.034068786
0.52494091 0.13361073 0.034063622
0.52496666 0.13445802 0.034058459
0.52499241 0.13530532 0.034053296
0.52501816 0.13615261 0.034048133
0.52586842 0.13678229 0.034608033
0.52589417 0.137628 0.03460288
0.52591985 0.13847369 0.034597725
0.52594554 0.1393194 0.034592573
0.52597129 0.14016509 0.034587417
0.52599698 0.14101081 0.034582265
0.52602267 0.14185649 0.034577113
0.52604836 0.14270219 0.034571957
0.52524996 0.14377823 0.034001663
0.52527571 0.14462551 0.0339965
0.52530146 0.14547281 0.033991337
0.52532721 0.1463201 0.033986174
0.52452898 0.14740412 0.033415794
0.52455473 0.14825301 0.03341062
0.52375668 0.14934178 0.032840248
0.52295876 0.15043373 0.032269854
0.510786 0.087221272 0.024650777
0.51081252 0.088094041 0.024645459
0.51083905 0.088966817 0.024640139
0.51169187 0.089714408 0.025200559
0.51171839 0.090585589 0.02519525
0.51174486 0.091456771 0.02518994
0.51177132 0.092327952 0.025184631
0.51179779 0.093199141 0.025179323
0.51265043 0.093937166 0.025739832
0.51267684 0.094806753 0.025734533
0.5127033 0.09567634 0.025729233
0.5127297 0.096545935 0.025723934
0.51358205 0.09727601 0.026284458
0.51360846 0.098144002 0.026279168
0.5136348 0.099011995 0.026273878
0.51448697 0.0997357 0.026834439
0.51451325 0.10060211 0.026829161
0.5145396 0.1014685 0.02682388
0.51456594 0.10233492 0.026818601
0.51541781 0.10305066 0.027379213
0.5154441 0.10391546 0.027373943
0.51547039 0.10478028 0.027368674
0.51549667 0.10564508 0.027363405
0.51634836 0.10635287 0.027924063
0.51637459 0.10721608 0.027918803
0.51640081 0.1080793 0.027913542
0.51642704 0.10894252 0.02790828
0.51727849 0.10964233 0.028469022
0.51730472 0.11050395 0.028463773
0.51733088 0.11136557 0.028458523
0.5181821 0.11205902 0.029019268
0.51820827 0.11291905 0.029014027
0.51823437 0.11377908 0.029008785
0.51908541 0.11446615 0.029569574
0.51911151 0.11532459 0.029564342
0.51913762 0.11618304 0.029559111
0.51998842 0.11686374 0.030119935
0.52001446 0.11772059 0.030114712
0.52004051 0.11857743 0.030109491
0.52089119 0.11925175 0.03067039
0.52091718 0.120107 0.030665178
0.52094316 0.12096226 0.030659966
0.5217936 0.12163022 0.031220866
0.52181959 0.12248389 0.031215664
0.52266985 0.12314707 0.031776596
0.52269578 0.12399913 0.031771407
0.52272165 0.12485121 0.031766213
0.52274758 0.12570328 0.03176102
0.5235976 0.12635849 0.032321997
0.52362347 0.12720898 0.032316815
0.52364933 0.12805945 0.032311633
0.5236752 0.12890993 0.032306451
0.52370101 0.1297604 0.032301269
0.5245508 0.13040607 0.032862306
0.5245766 0.13125494 0.032857131
0.52460241 0.13210385 0.032851961
0.52462822 0.13295272 0.032846786
0.52465397 0.13380161 0.032841615
0.52467978 0.1346505 0.032836441
0.52552927 0.13528499 0.033397581
0.52555501 0.1361323 0.033392418
0.52558076 0.13697958 0.033387255
0.52560651 0.13782687 0.033382092
0.52563226 0.13867417 0.033376928
0.52565801 0.13952145 0.033371765
0.52568382 0.14036874 0.033366602
0.52570957 0.14121604 0.033361439
0.52573532 0.14206333 0.033356275
0.52576107 0.14291063 0.033351112
0.52578682 0.14375792 0.033345949
0.52581257 0.1446052 0.033340786
0.52501523 0.145686 0.032769192
0.52504104 0.14653488 0.032764021
0.52506685 0.14738376 0.032758847
0.52426976 0.14847092 0.032187253
0.52347273 0.14956124 0.031615637
0.52349865 0.15041332 0.031610444
0.52187902 0.15175144 0.030472344
0.51051348 0.087320708 0.023408407
0.51136553 0.08807312 0.023970028
0.51139206 0.088945895 0.023964709
0.51141858 0.089818664 0.023959391
0.51144511 0.09069144 0.023954073
0.51147163 0.091564216 0.023948753
0.51232332 0.092307068 0.024510432
0.51234978 0.09317825 0.024505123
0.51237631 0.094049439 0.024499815
0.51240277 0.094920613 0.024494506
0.51325428 0.095655493 0.025056267
0.51328069 0.096525088 0.025050968
0.51330715 0.097394675 0.025045669
0.51333356 0.098264262 0.025040369
0.51418477 0.098991185 0.025602145
0.51421118 0.099859186 0.025596855
0.51423758 0.10072719 0.025591567
0.51508862 0.10144773 0.02615338
0.5151149 0.10231414 0.026148101
0.51514125 0.10318055 0.026142821
0.51516759 0.10404695 0.026137542
0.51601839 0.10475954 0.026699403
0.51604468 0.10562435 0.026694134
0.51607096 0.10648917 0.026688864
0.51609725 0.10735398 0.026683595
0.51694781 0.1080586 0.027245505
0.51697403 0.10892182 0.027240245
0.51700026 0.10978504 0.027234985
0.51702648 0.11064826 0.027229724
0.51787686 0.11134491 0.02779172
0.51790303 0.11220654 0.027786469
0.51792926 0.11306816 0.027781218
0.51877934 0.11375846 0.028343216
0.5188055 0.1146185 0.028337976
0.51883161 0.11547853 0.028332734
0.51968151 0.11616246 0.028894773
0.51970762 0.11702089 0.028889541
0.51973373 0.11787934 0.02888431
0.52058345 0.11855689 0.029446386
0.5206095 0.11941374 0.029441165
0.52063555 0.12027059 0.029435944
0.52148509 0.12094176 0.029998092
0.52151108 0.12179701 0.02999288
0.52153713 0.12265227 0.029987669
0.52238643 0.12331709 0.030549822
0.52241236 0.12417074 0.030544622
0.52326155 0.12483078 0.031106804
0.52328748 0.12568285 0.031101612
0.52331334 0.12653492 0.031096419
0.52333927 0.12738699 0.031091226
0.52418822 0.12803906 0.031653456
0.52421409 0.12888955 0.031648275
0.5242399 0.12974001 0.031643093
0.52426577 0.1305905 0.031637911
0.52429163 0.13144097 0.031632729
0.52514029 0.13208349 0.032195017
0.52516609 0.13293236 0.032189846
0.52519184 0.13378125 0.032184672
0.52521765 0.13463014 0.032179497
0.52524346 0.13547902 0.032174326
0.52526927 0.13632791 0.032169152
0.52611762 0.13695927 0.032731544
0.52614337 0.13780656 0.032726381
0.52616918 0.13865384 0.032721218
0.52619493 0.13950114 0.032716054
0.52622068 0.14034843 0.032710891
0.52624643 0.14119573 0.032705728
0.52627218 0.14204302 0.032700565
0.52629793 0.1428903 0.032695401
0.52632368 0.14373761 0.032690238
0.52634943 0.14458489 0.032685079
0.52555311 0.14566565 0.032112252
0.52557892 0.14651453 0.032107078
0.52478278 0.14760004 0.031534258
0.52480865 0.14845052 0.031529076
0.52401263 0.14954081 0.030956227
0.52321672 0.15063429 0.03038336
0.52242094 0.15173094 0.029810471
0.52162522 0.15283082 0.029237529
0.52000797 0.15418003 0.028096899
0.51921248 0.15528785 0.027523942
0.51841712 0.15639885 0.026950933
0.51106751 0.087299749 0.022731744
0.51109409 0.088174112 0.022726417
0.51112068 0.089048482 0.022721088
0.51114726 0.089922845 0.02271576
0.51117384 0.090797216 0.022710431
0.51202464 0.091543287 0.023273323
0.51205117 0.092416063 0.023268005
0.51207769 0.093288839 0.023262687
0.51210421 0.094161622 0.023257367
0.51295477 0.094899729 0.023820309
0.51298124 0.09577091 0.023815
0.5130077 0.096642092 0.023809692
0.51303422 0.097513273 0.023804383
0.51388454 0.098243408 0.024367403
0.51391101 0.099113002 0.024362104
0.51393741 0.099982589 0.024356805
0.51396388 0.10085218 0.024351506
0.51481396 0.10157437 0.024914544
0.5148403 0.10244237 0.024909254
0.51486671 0.10331037 0.024903966
0.51571655 0.10402618 0.025467042
0.5157429 0.10489258 0.025461761
0.51576924 0.10575898 0.025456483
0.51661891 0.10646843 0.026019597
0.51664519 0.10733324 0.026014328
0.51667148 0.10819805 0.026009059
0.51669776 0.10906286 0.026003787
0.51754719 0.10976434 0.026566952
0.51757348 0.11062756 0.02656169
0.5175997 0.11149079 0.02655643
0.51762593 0.112354 0.02655117
0.51847517 0.1130475 0.027114416
0.51850134 0.11390914 0.027109165
0.51852757 0.11477076 0.027103914
0.51937658 0.11545791 0.027667165
0.51940268 0.11631795 0.027661925
0.51942885 0.11717798 0.027656684
0.52027762 0.11785875 0.028219974
0.52030373 0.11871719 0.028214743
0.52032983 0.11957564 0.028209511
0.52117842 0.12025004 0.028772837
0.52120447 0.12110689 0.028767616
0.52123052 0.12196374 0.028762395
0.52207899 0.12263177 0.029325796
0.52210498 0.12348703 0.029320585
0.52295327 0.12415028 0.029883983
0.5229792 0.12500393 0.02987878
0.52300519 0.12585759 0.029873578
0.52385324 0.12651449 0.030437011
0.52387917 0.12736656 0.030431818
0.52390504 0.12821864 0.030426625
0.52393097 0.1290707 0.030421434
0.52395684 0.12992276 0.030416241
0.52480465 0.13057011 0.030979736
0.52483052 0.13142058 0.030974552
0.52485633 0.13227107 0.03096937
0.5248822 0.13312154 0.030964186
0.52490807 0.133972 0.030959005
0.52575552 0.13460979 0.031522557
0.52578133 0.13545868 0.031517383
0.52580714 0.13630757 0.031512212
0.52583295 0.13715644 0.031507038
0.52585876 0.13800533 0.031501867
0.52588457 0.13885422 0.031496692
0.52591038 0.13970309 0.031491518
0.52593619 0.14055198 0.031486347
0.525962 0.14140086 0.031481173
0.52598774 0.14224976 0.031476002
0.52601355 0.14309864 0.031470828
0.52603936 0.14394753 0.031465653
0.52606517 0.1447964 0.031460483
0.52609098 0.14564529 0.031455308
0.52611679 0.14649418 0.031450137
0.52532166 0.14757966 0.030876083
0.52534753 0.14843014 0.030870901
0.52455252 0.14952038 0.030296819
0.52375764 0.15061383 0.02972272
0.52296287 0.15171044 0.029148599
0.52134746 0.15305483 0.028005498
0.52055287 0.15415941 0.02743133
0.51975846 0.15526719 0.02685714
0.51896405 0.15637815 0.026282899
0.51077145 0.086523116 0.021491017
0.5107981 0.087399073 0.021485679
0.51164812 0.088153154 0.022049755
0.51085138 0.089150995 0.021475002
0.51170129 0.089901887 0.022039099
0.51172787 0.09077625 0.022033771
0.51175445 0.09165062 0.022028442
0.51178104 0.092524983 0.022023115
0.51180756 0.093399361 0.022017786
0.51183414 0.094273724 0.022012459
0.51268375 0.095013469 0.022576619
0.51271027 0.095886245 0.022571301
0.5127368 0.096759014 0.022565983
0.51358622 0.097492382 0.023130186
0.51361269 0.098363571 0.023124877
0.51363915 0.099234752 0.023119569
0.51366568 0.10010593 0.023114258
0.51451486 0.10083134 0.023678543
0.51454127 0.10170092 0.023673244
0.51456773 0.10257051 0.023667945
0.51541668 0.10328956 0.024232233
0.51544309 0.10415755 0.024226943
0.51629186 0.10487181 0.024791263
0.5163182 0.10573821 0.024785982
0.51634455 0.10660461 0.024780704
0.51637089 0.10747102 0.024775423
0.51721948 0.10817732 0.025339788
0.51724577 0.10904212 0.025334518
0.51727206 0.10990694 0.025329249
0.51729834 0.11077176 0.025323978
0.51814663 0.11147009 0.025888395
0.51817286 0.11233331 0.025883134
0.51819915 0.11319652 0.025877874
0.51822537 0.11405975 0.025872614
0.51907349 0.1147501 0.026437111
0.51909971 0.11561173 0.02643186
0.51912588 0.11647335 0.02642661
0.51997375 0.11715736 0.026991114
0.51999992 0.11801739 0.026985873
0.52002609 0.11887743 0.026980633
0.52087379 0.11955506 0.027545173
0.52089983 0.12041349 0.027539941
0.52092594 0.12127194 0.02753471
0.52177346 0.1219432 0.028099291
0.5217995 0.12280004 0.02809407
0.5226469 0.12346651 0.028658712
0.52267289 0.12432177 0.028653501
0.52269888 0.12517703 0.028648289
0.5235461 0.12583713 0.029212937
0.52357203 0.1266908 0.029207734
0.52359796 0.12754446 0.029202532
0.52444494 0.12819821 0.029767221
0.52447087 0.12905027 0.029762028
0.52449673 0.12990233 0.029756835
0.52452266 0.13075441 0.029751644
0.52536941 0.13140018 0.030316377
0.52539521 0.13225067 0.030311195
0.52542108 0.13310114 0.030306011
0.52544695 0.13395162 0.03030083
0.52547276 0.1348021 0.030295646
0.52549863 0.13565257 0.030290464
0.52634501 0.13628721 0.030855268
0.52637082 0.13713609 0.030850096
0.52639663 0.13798498 0.030844923
0.52642244 0.13883387 0.030839751
0.52644825 0.13968274 0.030834578
0.52647406 0.14053163 0.030829404
0.52649987 0.14138052 0.030824231
0.52652562 0.14222941 0.030819058
0.52655143 0.14307828 0.030813886
0.52657723 0.14392717 0.030808713
0.52660304 0.14477605 0.030803541
0.52662885 0.14562494 0.030798366
0.52665466 0.14647382 0.030793194
0.52586055 0.14755926 0.030217908
0.52506649 0.14864789 0.029642606
0.52509242 0.14949995 0.029637413
0.52429855 0.15059336 0.029062077
0.52268499 0.15193288 0.027916543
0.52271104 0.15278973 0.02791132
0.52109784 0.15413879 0.02676576
0.52112401 0.15499882 0.026760519
0.51951104 0.15635745 0.025614863
0.51871777 0.15747157 0.025039403
0.51874405 0.15833639 0.025034133
0.51053071 0.087498322 0.020237146
0.51137978 0.088254035 0.020802448
0.51140636 0.089129992 0.020797109
0.51143301 0.090005957 0.020791771
0.51145965 0.090881914 0.020786433
0.51148623 0.091757871 0.020781096
0.51233506 0.092504025 0.021346452
0.51236159 0.093378395 0.021341123
0.51238817 0.094252758 0.021335796
0.51241475 0.095127128 0.021330466
0.51244134 0.096001498 0.021325137
0.51246792 0.096875854 0.02131981
0.51331633 0.097610861 0.021885233
0.51334286 0.098483637 0.021879915
0.51336944 0.099356413 0.021874597
0.51421767 0.10008504 0.022440059
0.51424414 0.10095623 0.022434751
0.5142706 0.10182741 0.022429442
0.51511872 0.10254966 0.022994978
0.51514512 0.10341926 0.022989679
0.51517159 0.10428884 0.02298438
0.5160194 0.10500474 0.023549924
0.51604581 0.10587273 0.023544634
0.51689351 0.10658384 0.024110204
0.51691985 0.10745025 0.024104923
0.5169462 0.10831666 0.024099644
0.51697254 0.10918306 0.024094364
0.51782 0.10988621 0.024659982
0.51784629 0.11075103 0.024654713
0.51787257 0.11161583 0.024649441
0.51789886 0.11248064 0.024644172
0.51874608 0.11317582 0.025209839
0.5187723 0.11403905 0.025204578
0.51879853 0.11490227 0.025199318
0.51882482 0.11576548 0.025194058
0.51967186 0.1164527 0.025759807
0.51969802 0.11731432 0.025754556
0.51972419 0.11817595 0.025749307
0.52057099 0.1188568 0.02631506
0.52059716 0.11971684 0.02630982
0.52062327 0.12057687 0.026304578
0.52146989 0.12125135 0.026870374
0.521496 0.12210979 0.026865143
0.52234244 0.1227795 0.027430965
0.52236849 0.12363635 0.027425744
0.52239454 0.1244932 0.027420521
0.5232408 0.12515652 0.027986417
0.52326679 0.12601177 0.027981205
0.52329278 0.12686703 0.027975993
0.52413887 0.12752399 0.028541893
0.5241648 0.12837766 0.02853669
0.52419078 0.12923132 0.028531488
0.52503663 0.12988192 0.029097427
0.52506256 0.130734 0.029092234
0.52508843 0.13158606 0.029087042
0.52511436 0.13243812 0.029081849
0.52595997 0.13308075 0.029647836
0.52598584 0.13393123 0.029642655
0.52601165 0.13478172 0.029637471
0.52603751 0.13563219 0.029632289
0.52606338 0.13648267 0.029627105
0.52608919 0.13733314 0.029621923
0.52611506 0.13818362 0.029616741
0.52696031 0.13881351 0.030182809
0.52698612 0.1396624 0.030177636
0.52701193 0.14051127 0.030172462
0.52703774 0.14136016 0.030167289
0.52706349 0.14220905 0.030162117
0.5270893 0.14305793 0.030156944
0.52711511 0.14390682 0.030151771
0.52714092 0.14475569 0.030146599
0.52716672 0.1456046 0.030141424
0.52637357 0.14668839 0.029564915
0.52639943 0.14753887 0.029559733
0.52560639 0.14862746 0.028983196
0.52563232 0.14947952 0.028978005
0.52402067 0.15081418 0.027830066
0.52322793 0.15191233 0.027253436
0.52325398 0.15276919 0.027248215
0.5216428 0.15411817 0.026100187
0.52166891 0.1549782 0.026094947
0.52087653 0.15608749 0.025518283
0.5200842 0.15719998 0.024941567
0.51929206 0.15831566 0.024364866
0.51026523 0.087597504 0.018986119
0.51111341 0.088354841 0.01955267
0.51114011 0.089232393 0.019547325
0.51116675 0.090109944 0.019541977
0.51119345 0.090987496 0.019536629
0.5112201 0.091865048 0.019531282
0.51206791 0.092612825 0.020097861
0.51209456 0.09348879 0.020092523
0.51212114 0.094364747 0.020087184
0.51214778 0.095240712 0.020081846
0.51217443 0.096116669 0.02007651
0.51302195 0.096854895 0.020643147
0.51304853 0.097729258 0.020637818
0.51307511 0.098603629 0.020632491
0.5131017 0.099477999 0.020627161
0.51394898 0.10020826 0.021193849
0.5139755 0.10108104 0.021188529
0.5148226 0.10180652 0.021755245
0.51484913 0.1026777 0.021749936
0.51487559 0.10354889 0.021744628
0.51572257 0.10426799 0.022311416
0.51574898 0.10513759 0.022306118
0.51577544 0.10600717 0.022300819
0.51662219 0.10671992 0.022867611
0.51664859 0.10758791 0.022862323
0.51749516 0.10829589 0.023429144
0.5175215 0.10916229 0.023423864
0.51754785 0.11002869 0.023418585
0.51757419 0.1108951 0.023413304
0.51842052 0.11159509 0.023980176
0.5184468 0.11245991 0.023974905
0.51847309 0.11332472 0.023969635
0.51849937 0.11418953 0.023964366
0.51934552 0.11488157 0.024531284
0.51937175 0.11574478 0.024526024
0.51939797 0.11660802 0.024520764
0.5194242 0.11747123 0.024515504
0.52027017 0.11815529 0.025082504
0.52029634 0.11901692 0.025077254
0.52032256 0.11987855 0.025072003
0.52116823 0.12055625 0.025639009
0.52119434 0.12141629 0.025633767
0.52122051 0.12227631 0.025628528
0.522066 0.12294766 0.026195573
0.5220921 0.1238061 0.026190341
0.52293742 0.12447265 0.026757415
0.52296346 0.12532951 0.026752194
0.52298951 0.12618634 0.026746973
0.52383471 0.12684652 0.027314121
0.52386069 0.12770177 0.027308909
0.52388674 0.12855704 0.027303698
0.5247317 0.12921086 0.027870849
0.52475762 0.13006452 0.027865648
0.52478355 0.13091817 0.027860446
0.52562833 0.13156563 0.028427636
0.52565426 0.13241769 0.028422443
0.52568012 0.13326976 0.028417252
0.52570605 0.13412184 0.028412059
0.52573192 0.13497391 0.028406868
0.5265764 0.13561179 0.028974116
0.52660227 0.13646229 0.028968934
0.52662808 0.13731275 0.02896375
0.52665395 0.13816324 0.028958568
0.52667981 0.13901371 0.028953386
0.52670568 0.13986418 0.028948203
0.52673149 0.14071466 0.028943021
0.52675736 0.14156514 0.028937839
0.52678323 0.14241563 0.028932655
0.52680904 0.1432661 0.028927473
0.52683491 0.14411658 0.02892229
0.52686077 0.14496705 0.028917108
0.52688658 0.14581752 0.028911926
0.52691245 0.146668 0.028906742
0.52693832 0.14751849 0.02890156
0.52614629 0.14860703 0.02832379
0.52535439 0.14969876 0.027746001
0.5245626 0.15079367 0.027168194
0.52377087 0.1518918 0.026590331
0.52379692 0.15274864 0.02658511
0.52218771 0.15409756 0.025434617
0.52221388 0.15495758 0.025429377
0.52142251 0.15606683 0.02485148
0.52063119 0.15717928 0.024273533
0.52065742 0.15804252 0.024268273
0.52068365 0.15890573 0.024263013
0.5100019 0.087696604 0.017732656
0.51002866 0.088577345 0.017727289
0.51087576 0.089334719 0.018295042
0.51090246 0.090213865 0.018289685
0.51092917 0.091093011 0.018284328
0.51177615 0.091844007 0.018852154
0.51180279 0.092721559 0.018846806
0.5118295 0.093599118 0.018841458
0.51267618 0.094343752 0.019409291
0.51270282 0.095219709 0.019403953
0.51272947 0.096095666 0.019398615
0.51275605 0.096971631 0.019393276
0.51278269 0.097847588 0.01938794
0.51280934 0.098723546 0.019382602
0.51365572 0.099457033 0.019950498
0.51368225 0.10033141 0.019945171
0.51370883 0.10120577 0.019939842
0.51455504 0.10193288 0.020507781
0.51458156 0.10280567 0.020502463
0.51542759 0.10352801 0.02107043
0.51545405 0.10439918 0.021065122
0.51548052 0.10527037 0.021059813
0.51632643 0.10598633 0.021627853
0.51635283 0.10685591 0.021622553
0.5163793 0.1077255 0.021617254
0.51722491 0.1084351 0.0221853
0.51725131 0.10930309 0.02218001
0.5180968 0.11000792 0.022748085
0.51812315 0.11087433 0.022742804
0.5181495 0.11174072 0.022737525
0.51817584 0.11260713 0.022732245
0.51902109 0.11330398 0.023300366
0.51904738 0.11416879 0.023295097
0.51907367 0.1150336 0.023289826
0.51909995 0.11589842 0.023284556
0.51912624 0.11676323 0.023279287
0.51997119 0.11745053 0.023847468
0.51999742 0.11831376 0.023842208
0.52002364 0.11917697 0.023836948
0.52086848 0.11985788 0.0244052
0.52089465 0.12071951 0.024399949
0.52092087 0.12158114 0.024394698
0.52176547 0.12225569 0.024962958
0.52179158 0.12311573 0.024957716
0.522636 0.12378551 0.025526006
0.5226621 0.12464395 0.025520774
0.52268821 0.12550239 0.025515543
0.52353245 0.12616581 0.026083868
0.5235585 0.12702265 0.026078645
0.52358454 0.1278795 0.026073424
0.52442861 0.12853654 0.026641825
0.52445459 0.12939179 0.026636614
0.52448064 0.13024704 0.026631402
0.52532446 0.13089772 0.027199803
0.52535039 0.13175137 0.027194602
0.52537638 0.13260505 0.0271894
0.52622002 0.13324933 0.027757844
0.52624589 0.13410141 0.027752651
0.52627182 0.13495348 0.027747458
0.52629775 0.13580555 0.027742267
0.52632362 0.13665763 0.027737074
0.52716696 0.13729236 0.028305575
0.52719283 0.13814284 0.028300393
0.5272187 0.13899331 0.02829521
0.52724451 0.13984379 0.028290028
0.52727038 0.14069428 0.028284846
0.52729625 0.14154474 0.028279662
0.52732211 0.14239523 0.02827448
0.52734792 0.1432457 0.028269298
0.52737379 0.14409618 0.028264115
0.52739966 0.14494666 0.028258933
0.52742547 0.14579713 0.028253749
0.52745134 0.14664762 0.028248567
0.52666032 0.14773452 0.027669575
0.52668619 0.1485866 0.027664382
0.5258953 0.14967829 0.02708536
0.52510452 0.15077317 0.026506322
0.52431375 0.15187125 0.025927225
0.52352315 0.1529725 0.025348147
0.52354926 0.15383095 0.025342917
0.52275878 0.15493697 0.024763808
0.52196842 0.15604618 0.024184678
0.52117813 0.15715858 0.023605498
0.52120435 0.15802182 0.023600237
0.52123058 0.15888503 0.023594977
0.50892109 0.087915763 0.015902394
0.50976735 0.088677958 0.016471352
0.5106135 0.089436963 0.017040327
0.51064026 0.090317704 0.017034961
0.51066703 0.091198437 0.017029593
0.51151294 0.09195108 0.01759861
0.5115397 0.092830218 0.017593253
0.5115664 0.093709372 0.017587896
0.51241219 0.09445563 0.018156983
0.51243889 0.095333181 0.018151635
0.51246554 0.096210733 0.018146288
0.51249224 0.097088285 0.018140942
0.51333773 0.097826593 0.018710041
0.51336437 0.098702542 0.018704705
0.51339096 0.099578507 0.018699367
0.5134176 0.10045447 0.018694028
0.51426286 0.10118481 0.019263182
0.51428944 0.10205917 0.019257853
0.51431602 0.10293354 0.019252526
0.5151611 0.10365751 0.019821715
0.51518762 0.10453029 0.019816395
0.51603252 0.10524948 0.020385614
0.51605904 0.10612066 0.020380305
0.51608551 0.10699184 0.020374995
0.51693028 0.10770465 0.02094429
0.51695669 0.10857424 0.020938991
0.51780128 0.10928228 0.021508276
0.51782769 0.11015029 0.021502987
0.51785409 0.11101829 0.021497699
0.51869845 0.11171995 0.022067023
0.5187248 0.11258636 0.022061743
0.51875114 0.11345275 0.022056464
0.51877749 0.11431916 0.022051184
0.51962161 0.11501288 0.022620559
0.5196479 0.11587769 0.022615289
0.51967418 0.1167425 0.02261002
0.51970047 0.1176073 0.02260475
0.51972675 0.11847212 0.022599479
0.52057064 0.11915627 0.02316891
0.52059686 0.12001949 0.02316365
0.52062309 0.1208827 0.02315839
0.52146679 0.12156048 0.023727896
0.52149302 0.12242211 0.023722645
0.52233654 0.12309512 0.024292147
0.52236265 0.12395515 0.024286907
0.52238882 0.12481518 0.024281666
0.5232321 0.12548181 0.024851203
0.52325821 0.12634026 0.024845973
0.52410138 0.12700212 0.025415543
0.52412742 0.12785895 0.025410321
0.52415347 0.12871581 0.0254051
0.52417952 0.12957266 0.025399879
0.52502251 0.13022654 0.02596953
0.52504849 0.13108179 0.025964318
0.52507454 0.13193704 0.025959106
0.52591729 0.13258457 0.026528761
0.52594322 0.13343823 0.026523558
0.52596915 0.1342919 0.026518356
0.52681172 0.13493305 0.027088052
0.52683759 0.13578512 0.02708286
0.52686352 0.1366372 0.027077667
0.52688938 0.13748926 0.027072476
0.52691531 0.13834134 0.027067283
0.52694118 0.1391934 0.027062092
0.52696711 0.14004548 0.027056899
0.52780926 0.14067388 0.027626669
0.52783513 0.14152436 0.027621487
0.527861 0.14237484 0.027616305
0.52788681 0.14322531 0.027611122
0.52791268 0.1440758 0.02760594
0.52793854 0.14492626 0.027600758
0.52796435 0.14577675 0.027595574
0.52717429 0.14686203 0.02701536
0.52720022 0.14771409 0.027010169
0.52722609 0.14856617 0.027004976
0.52643621 0.14965783 0.026424721
0.52564645 0.15075266 0.025844449
0.52485669 0.1518507 0.025264122
0.52488273 0.15270756 0.025258901
0.52409321 0.15381035 0.024678577
0.52411926 0.15466879 0.024673346
0.52332985 0.15577638 0.024092996
