# .PCD v0.7 - Point Cloud Data file format
VERSION 0.7
FIELDS x y z
SIZE 4 4 4
TYPE F F F
COUNT 1 1 1
WIDTH 1398
HEIGHT 1
VIEWPOINT 0 0 0 1 0 0 0
POINTS 1398
DATA ascii
0.45078626 0.1217315 0.029503211
0.44994852 0.12284569 0.028981958
0.44911093 0.12396308 0.028460724
0.44827342 0.12508363 0.027939467
0.447436 0.12620738 0.027418189
0.44659871 0.12733433 0.02689689
0.44576144 0.12846446 0.026375547
0.44492432 0.12959777 0.025854211
0.44495332 0.13055176 0.025848398
0.44411638 0.13168985 0.025327032
0.4432795 0.13283111 0.024805646
0.44330859 0.13378829 0.024799814
0.4424718 0.13493435 0.024278374
0.44163519 0.13608357 0.02375694
0.44166437 0.13704395 0.023751087
0.44082791 0.13819796 0.023229625
0.4399915 0.13935515 0.022708144
0.4400208 0.14031871 0.022702271
0.43918455 0.14148068 0.02218076
0.4392139 0.14244583 0.02217488
0.43924323 0.14341098 0.022168998
0.43840712 0.14457934 0.021647422
0.43843651 0.14554608 0.02164153
0.45642194 0.086979598 0.032594848
0.45731735 0.087797329 0.03310553
0.45734563 0.088727437 0.03309986
0.45737389 0.089657553 0.033094194
0.45740217 0.090587661 0.033088524
0.4582974 0.091397427 0.03359928
0.45832562 0.092325941 0.033593621
0.45922062 0.093130939 0.034104381
0.45924881 0.094057858 0.034098733
0.46014369 0.094858073 0.034609515
0.46017179 0.095783405 0.034603875
0.46019992 0.096708737 0.034598239
0.46109459 0.097502582 0.035109062
0.46112269 0.098426327 0.035103433
0.46115077 0.099350065 0.035097804
0.46204525 0.10013753 0.035608672
0.46207327 0.10105968 0.03560305
0.46210131 0.10198183 0.035597432
0.46212932 0.10290398 0.035591811
0.46215737 0.10382612 0.035586193
0.46131921 0.1048925 0.03506403
0.46134731 0.10581624 0.035058402
0.46137539 0.10673998 0.035052773
0.46053743 0.10781273 0.034530573
0.46056557 0.10873806 0.034524933
0.45972776 0.10981559 0.03400271
0.45889005 0.11089629 0.033480462
0.4580524 0.1119802 0.032958165
0.45721489 0.11306728 0.032435875
0.45724323 0.11399898 0.032430198
0.45640585 0.11509083 0.031907883
0.45556858 0.11618587 0.031385552
0.45473143 0.1172841 0.030863194
0.45302877 0.11855046 0.029824123
0.45305732 0.11949013 0.029818397
0.45135501 0.12076603 0.028779294
0.45051822 0.12187861 0.028256824
0.44968158 0.12299435 0.027734362
0.44884506 0.12411329 0.027211884
0.44800863 0.12523541 0.026689382
0.44717228 0.12636071 0.026166862
0.44633597 0.12748921 0.025644295
0.44549981 0.12862088 0.025121735
0.44552881 0.12957489 0.025115922
0.44469282 0.13071133 0.024593333
0.44385689 0.13185097 0.02407073
0.44302103 0.1329938 0.02354807
0.44305018 0.13395259 0.023542227
0.44221452 0.13510019 0.023019576
0.4422437 0.13606055 0.023013724
0.44140819 0.13721295 0.022491038
0.44057277 0.1383685 0.021968331
0.43973744 0.13952725 0.021445611
0.43976676 0.14049239 0.021439731
0.43893152 0.14165594 0.020916944
0.43896091 0.14262268 0.020911055
0.43899029 0.14358942 0.020905163
0.43901968 0.14455616 0.020899272
0.45698398 0.086025558 0.031879485
0.45787844 0.086844921 0.032391388
0.45790669 0.087775029 0.032385722
0.45793498 0.088705137 0.032380056
0.45796326 0.089635253 0.032374386
0.45885751 0.090446644 0.032886367
0.45888573 0.091375165 0.032880709
0.45891395 0.092303678 0.03287505
0.45980796 0.093108714 0.033387043
0.45983613 0.09403564 0.033381391
0.46072999 0.094835885 0.033893406
0.46075812 0.095761217 0.03388777
0.46078625 0.096686557 0.03388213
0.46167991 0.097480439 0.03439419
0.46170798 0.098404177 0.034388561
0.46173605 0.099327922 0.034382932
0.46176413 0.10025165 0.034377303
0.46179223 0.10117539 0.034371674
0.4618203 0.10209914 0.034366045
0.46184838 0.10302287 0.034360416
0.46187645 0.10394661 0.034354787
0.46190453 0.10487035 0.034349158
0.4610675 0.10593987 0.033825744
0.46109563 0.10686521 0.033820104
0.46112376 0.10779054 0.033814467
0.46028692 0.10886644 0.033291019
0.45945019 0.10994551 0.032767545
0.45861349 0.11102778 0.032244027
0.45777693 0.11211324 0.031720515
0.45780525 0.11304494 0.031714838
0.45696884 0.11413517 0.031191301
0.45613256 0.11522857 0.030667741
0.45529634 0.11632518 0.030144166
0.45446017 0.11742496 0.029620536
0.45362416 0.11852793 0.029096922
0.45278826 0.11963409 0.028573284
0.45108795 0.12091152 0.02753168
0.45025226 0.12202564 0.027007999
0.4494167 0.12314294 0.026484292
0.44858122 0.12426343 0.025960572
0.44774583 0.12538709 0.025436828
0.4469105 0.12651397 0.024913037
0.44693944 0.12746638 0.024907233
0.44610429 0.12859802 0.024383441
0.44526926 0.12973285 0.023859633
0.44443431 0.13087083 0.023335801
0.4435994 0.13201204 0.022811923
0.44362855 0.13297081 0.02280608
0.44279385 0.13411678 0.0222822
0.44195923 0.13526593 0.021758305
0.44198847 0.13622791 0.021752443
0.441154 0.13738185 0.021228515
0.44031963 0.13853896 0.020704571
0.43948531 0.13969928 0.020180577
0.4395147 0.14066602 0.020174686
0.43868056 0.1418311 0.019650688
0.43871 0.14279942 0.019644788
0.43873945 0.14376777 0.019638887
0.43790552 0.14493921 0.019114852
0.43793499 0.14590915 0.019108942
0.45757434 0.086003222 0.031158457
0.45760265 0.086934924 0.031152779
0.45849603 0.08775273 0.031665921
0.45852432 0.088682838 0.031660251
0.4585526 0.089612953 0.031654585
0.45944583 0.090424381 0.0321678
0.45947406 0.091352902 0.032162141
0.46036708 0.092159562 0.032675356
0.46039528 0.093086489 0.032669708
0.46042344 0.094013415 0.032664057
0.46131629 0.094813704 0.033177309
0.46134442 0.095739037 0.033171669
0.46137255 0.096664369 0.033166029
0.46140069 0.097589701 0.033160392
0.4622933 0.098382033 0.033673692
0.46232137 0.099305771 0.033668064
0.46234944 0.10022951 0.033662435
0.46237752 0.10115325 0.033656806
0.46240559 0.10207698 0.033651177
0.46243367 0.10300072 0.033645548
0.46159756 0.10406702 0.033120919
0.4616257 0.10499235 0.033115283
0.4616538 0.10591769 0.033109643
0.46081787 0.10699037 0.03258498
0.46084607 0.10791729 0.032579333
0.46001029 0.10899473 0.032054637
0.45917454 0.11007538 0.031529892
0.45833898 0.11115919 0.031005163
0.45836729 0.1120909 0.030999485
0.45753184 0.1131795 0.030474721
0.45669651 0.11427128 0.029949943
0.45586124 0.11536624 0.029425144
0.45502606 0.11646441 0.02890029
0.454191 0.11756574 0.028375454
0.45335603 0.11867027 0.027850598
0.45252118 0.11977798 0.027325716
0.45082295 0.12105692 0.02628164
0.44998834 0.12217259 0.025756711
0.44915381 0.12329145 0.025231767
0.44831941 0.12441349 0.0247068
0.44834828 0.1253643 0.024701005
0.44751397 0.12649113 0.024175981
0.44667977 0.12762114 0.02365097
0.44584569 0.12875433 0.023125933
0.44501171 0.12989071 0.022600884
0.44417778 0.13103028 0.022075782
0.44420689 0.13198906 0.02206994
0.44337317 0.1331334 0.021544836
0.44253951 0.13428092 0.021019718
0.44170597 0.13543163 0.02049458
0.44173524 0.13639519 0.020488709
0.44090185 0.13755068 0.019963536
0.44006848 0.13870937 0.019438319
0.44009787 0.13967609 0.019432427
0.43926468 0.14083955 0.018907212
0.43929413 0.14180788 0.018901311
0.43759865 0.143176 0.017856719
0.43676579 0.14434901 0.01733144
0.43679535 0.14532213 0.017325509
0.45813638 0.085049182 0.030443095
0.45816469 0.085980885 0.030437417
0.458193 0.086912587 0.03043174
0.45908538 0.08773043 0.030946121
0.45911366 0.088660538 0.030940453
0.46000594 0.089473605 0.031454887
0.46003416 0.090402119 0.031449232
0.46006238 0.09133064 0.031443574
0.46095443 0.092137344 0.031958014
0.46098259 0.093064263 0.031952366
0.46187449 0.093866184 0.03246684
0.46190262 0.094791517 0.0324612
0.46193075 0.095716849 0.03245556
0.46195886 0.096642181 0.032449923
0.46198699 0.097567514 0.032444283
0.46201512 0.098492846 0.032438647
0.46290669 0.099283628 0.032953184
0.46293476 0.10020736 0.032947555
0.46209949 0.10126884 0.03242173
0.46212763 0.10219418 0.03241609
0.46215576 0.10311951 0.03241045
0.46218386 0.10404483 0.032404814
0.462212 0.10497017 0.032399174
0.46137702 0.10604122 0.031873289
0.46054217 0.10711544 0.031347383
0.46057039 0.10804395 0.031341724
0.45973563 0.10912297 0.03081576
0.45890099 0.11020516 0.030289801
0.45806646 0.11129053 0.029763827
0.45809484 0.11222383 0.02975814
0.45726046 0.11331397 0.029232139
0.45642617 0.11440731 0.028706111
0.45559192 0.11550384 0.028180039
0.45475784 0.11660355 0.027653979
0.45392385 0.11770644 0.027127899
0.45308995 0.11881252 0.026601801
0.45225608 0.1199218 0.02607565
0.45055997 0.12120225 0.025029125
0.4497264 0.12231947 0.024502957
0.44889295 0.12343988 0.023976766
0.44892186 0.1243907 0.023970971
0.4480885 0.12551589 0.023444723
0.44725525 0.12664427 0.022918489
0.44642213 0.12777583 0.022392234
0.4455891 0.12891057 0.02186596
0.44475612 0.13004851 0.021339636
0.44478527 0.13100728 0.021333793
0.4439525 0.13214999 0.020807466
0.44311979 0.13329589 0.020281123
0.44228721 0.13444497 0.019754764
0.44145471 0.13559723 0.019228376
0.44148406 0.13656239 0.019222496
0.44065166 0.13771944 0.018696053
0.4398194 0.13887966 0.018169625
0.43898726 0.14004308 0.017643176
0.43901673 0.141013 0.017637266
0.43732321 0.14237946 0.016590215
0.43562987 0.14375229 0.0155431
0.43479815 0.14493003 0.015016565
0.43224376 0.14651708 0.013448779
0.45783517 0.084202588 0.029206496
0.4587267 0.085026845 0.029722067
0.45875505 0.085958548 0.029716389
0.45878336 0.08689025 0.02971071
0.45967472 0.08770813 0.03022632
0.459703 0.088638239 0.030220652
0.45973128 0.089568354 0.030214984
0.46062249 0.090379857 0.030730663
0.46065071 0.091308385 0.030725004
0.46154174 0.092115119 0.031240681
0.46156991 0.093042046 0.031235032
0.4615981 0.093968965 0.031229384
0.46248892 0.094769336 0.031745099
0.46251705 0.095694661 0.031739462
0.46254519 0.096620001 0.031733822
0.46257332 0.097545333 0.031728182
0.46260142 0.098470666 0.031722546
0.46262956 0.099395998 0.031716906
0.46265769 0.10032133 0.031711265
0.46268582 0.10124666 0.031705629
0.46271393 0.10217199 0.031699989
0.46274206 0.10309733 0.031694353
0.46190801 0.10416514 0.031167252
0.46193618 0.10509206 0.031161603
0.46110228 0.10616466 0.030634474
0.4611305 0.10709318 0.030628817
0.46029669 0.10817055 0.030101627
0.45946303 0.10925111 0.02957445
0.45862946 0.11033486 0.029047254
0.45779598 0.11142178 0.028520038
0.45782441 0.11235667 0.028514341
0.45699108 0.11344837 0.027987091
0.4561578 0.11454328 0.027459795
0.45532468 0.11564136 0.02693251
0.45449165 0.11674261 0.026405208
0.4536587 0.11784706 0.025877884
0.45282581 0.1189547 0.025350511
0.45199305 0.12006552 0.02482315
0.45029899 0.12134749 0.023774153
0.4494665 0.12246627 0.023246743
0.4494954 0.12341709 0.023240948
0.448663 0.12454066 0.022713477
0.44783074 0.12566739 0.022186019
0.44699857 0.12679732 0.021658536
0.44616652 0.12793045 0.021131039
0.44533449 0.12906675 0.020603489
0.44536364 0.13002554 0.020597646
0.4445318 0.13116661 0.020070102
0.44370008 0.13231087 0.019542536
0.44286844 0.13345832 0.019014951
0.44203693 0.13460895 0.018487347
0.44206625 0.13557409 0.018481467
0.44123483 0.13672951 0.0179538
0.44040352 0.13788812 0.017426148
0.43957233 0.13904989 0.016898476
0.43874124 0.14021486 0.016370784
0.43704966 0.14157966 0.015321252
0.43449783 0.14314905 0.013749906
0.43280667 0.14452817 0.012700285
0.43025538 0.14611508 0.011128837
0.45756429 0.084287621 0.027961742
0.45845488 0.085113503 0.028478537
0.4593454 0.085936211 0.028995348
0.45937371 0.086867906 0.028989671
0.45940202 0.087799609 0.028983993
0.46029234 0.088615939 0.029500844
0.46032062 0.089546055 0.029495178
0.46121082 0.090357602 0.03001209
0.46123904 0.091286123 0.030006431
0.46212906 0.092092894 0.030523341
0.46215725 0.093019821 0.030517692
0.46218541 0.093946747 0.030512044
0.46307525 0.094747148 0.031028993
0.46310338 0.095672481 0.031023353
0.46313149 0.096597813 0.031017715
0.46315962 0.097523145 0.031012077
0.46318775 0.098448478 0.031006439
0.46321589 0.099373817 0.031000799
0.46324399 0.10029914 0.03099516
0.46327212 0.10122447 0.030989522
0.46330026 0.10214981 0.030983882
0.46246716 0.10321599 0.030455559
0.46249533 0.10414292 0.030449912
0.46166238 0.10521387 0.02992156
0.4616906 0.10614239 0.029915901
0.46085775 0.10721815 0.029387489
0.46002507 0.10829707 0.028859088
0.45919245 0.10937919 0.028330667
0.45835996 0.11046448 0.027802229
0.45838836 0.11139937 0.027796531
0.45755601 0.11248945 0.027268063
0.45672369 0.11358272 0.026739543
0.45589152 0.11467916 0.026211035
0.45505944 0.11577878 0.025682509
0.45422745 0.11688161 0.025153963
0.45339552 0.11798761 0.02462537
0.45256373 0.1190968 0.024096785
0.45173204 0.12020918 0.023568181
0.45090047 0.12132473 0.023039557
0.45006898 0.12244347 0.022510914
0.44923753 0.12356541 0.021982219
0.44840622 0.12469053 0.021453537
0.44757503 0.12581882 0.020924836
0.44674391 0.12695031 0.020396115
0.44591287 0.12808499 0.019867344
0.44594201 0.12904376 0.019861501
0.44511113 0.13018322 0.019332731
0.44428036 0.13132584 0.018803943
0.44344971 0.13247165 0.018275134
0.443479 0.1334352 0.018269263
0.44264847 0.13458581 0.017740425
0.441818 0.13573959 0.017211536
0.44098765 0.13689657 0.01668266
0.44015741 0.13805673 0.016153764
0.43932727 0.13922004 0.01562485
0.43849725 0.14038658 0.015095916
0.43594819 0.14194947 0.013520887
0.43253997 0.14372014 0.011422762
0.43085104 0.14510395 0.010370677
0.45726696 0.083436087 0.026720235
0.45815665 0.084265202 0.027238242
0.45818508 0.085200086 0.027232544
0.45907462 0.086024426 0.027750582
0.45996407 0.086845569 0.028268637
0.45999238 0.087777272 0.02826296
0.46002069 0.088708974 0.028257282
0.46090996 0.089523755 0.02877537
0.46179917 0.090335339 0.029293517
0.4618274 0.09126386 0.029287858
0.4627164 0.092070669 0.029806001
0.46274456 0.092997596 0.029800354
0.46277276 0.093924522 0.029794704
0.46366155 0.094724961 0.030312886
0.46368968 0.095650293 0.030307246
0.46371782 0.096575625 0.030301608
0.46374595 0.097500958 0.03029597
0.46377406 0.098426297 0.030290332
0.46380219 0.09935163 0.030284692
0.46383032 0.10027695 0.030279053
0.46385846 0.10120229 0.030273415
0.46302631 0.10226684 0.029743869
0.46305448 0.10319377 0.029738219
0.46222252 0.1042631 0.029208645
0.46139055 0.10533562 0.028679017
0.46141884 0.10626574 0.028673349
0.46058708 0.10734303 0.02814373
0.45975545 0.10842352 0.027614087
0.45978382 0.10935681 0.0276084
0.45895231 0.11044207 0.027078727
0.45812091 0.11153051 0.026549036
0.45728955 0.11262215 0.026019292
0.45645836 0.11371696 0.025489561
0.45562723 0.11481497 0.024959816
0.45479622 0.11591614 0.024430046
0.45396525 0.11702053 0.023900226
0.45313442 0.11812808 0.023370417
0.45230371 0.11923882 0.022840589
0.45147306 0.12035275 0.022310747
0.45064253 0.12146986 0.02178088
0.44981205 0.12259017 0.021250961
0.4489817 0.12371364 0.020721056
0.44815147 0.12484032 0.020191131
0.44732133 0.12597017 0.019661186
0.44735041 0.12692736 0.019655354
0.44652036 0.12806199 0.019125354
0.44569045 0.12919982 0.01859536
0.44486067 0.13034081 0.018065348
0.4448899 0.13130277 0.018059487
0.44406024 0.13244855 0.017529445
0.44323066 0.13359752 0.016999384
0.44240114 0.13474968 0.016469277
0.44157177 0.13590501 0.015939178
0.44074252 0.13706353 0.015409059
0.43991333 0.13822524 0.01487892
0.43908426 0.13939013 0.014348762
0.43739665 0.14075318 0.013294311
0.43485075 0.14231916 0.011715558
0.43058819 0.144291 0.0090882191
0.42804301 0.14587925 0.0075093675
0.45433328 0.081008047 0.023912968
0.45611119 0.082685448 0.024951331
0.45700005 0.083519377 0.025470538
0.45788881 0.084350117 0.025989801
0.45877743 0.085177675 0.02650905
0.45880586 0.086112566 0.026503352
0.45969436 0.086935341 0.027022626
0.46058273 0.087754935 0.027541924
0.46061105 0.088686638 0.027536247
0.4614993 0.089501455 0.028055575
0.46152756 0.090431564 0.028049907
0.46241572 0.091241598 0.02856929
0.46330371 0.092048451 0.029088667
0.46333188 0.092975371 0.029083019
0.46421975 0.093777448 0.029602423
0.46424788 0.09470278 0.029596785
0.46427599 0.095628105 0.029591147
0.46430412 0.096553445 0.029585507
0.46433225 0.097478777 0.029579869
0.46436039 0.098404109 0.02957423
0.46438849 0.099329442 0.029568592
0.46355727 0.10039077 0.029037831
0.46358547 0.10131769 0.029032182
0.46361363 0.10224462 0.029026534
0.46278262 0.10331232 0.028495735
0.46195164 0.10438322 0.02796489
0.4619799 0.10531332 0.027959222
0.46114913 0.10638899 0.027428374
0.46031845 0.10746784 0.026897507
0.46034682 0.10840113 0.02689182
0.45951626 0.10948477 0.026360929
0.45868582 0.11057158 0.025830014
0.45785543 0.11166158 0.025299046
0.45702517 0.11275477 0.024768097
0.45705372 0.11369444 0.024762372
0.45622364 0.1147924 0.024231387
0.45453495 0.11605344 0.023175091
0.4537051 0.11715937 0.02264406
0.45287535 0.11826847 0.022113007
0.45204565 0.11938077 0.021581942
0.4512161 0.12049626 0.021050852
0.45038655 0.12161493 0.020519709
0.44955719 0.12273678 0.019988587
0.44872791 0.12386181 0.019457437
0.44875696 0.12481741 0.019451614
0.4479278 0.12594722 0.018920437
0.44709873 0.12708023 0.018389214
0.44626978 0.12821643 0.017857997
0.44544095 0.12935579 0.017326761
0.44547018 0.13031776 0.017320899
0.44464147 0.13146189 0.016789634
0.44381288 0.13260923 0.016258355
0.44298431 0.13375977 0.015727019
0.4421559 0.13491347 0.015195696
0.4413276 0.13607036 0.014664358
0.44135708 0.13704029 0.014658448
0.43967125 0.13839369 0.013601615
0.4379856 0.13975348 0.012544717
0.43630016 0.14111963 0.011487811
0.43289986 0.14288519 0.0093798544
0.42864251 0.14486162 0.0067463191
0.45137763 0.077592246 0.021101851
0.45226604 0.078445323 0.021622179
0.45229483 0.079392955 0.021616405
0.45493069 0.080985442 0.023183307
0.45581868 0.08182577 0.023703706
0.45670661 0.082662925 0.02422413
0.45759442 0.083496891 0.02474457
0.45762295 0.084434964 0.024738854
0.45851067 0.085264146 0.025259359
0.45853913 0.086200625 0.025253652
0.46028569 0.086912967 0.02630036
0.46031407 0.087846257 0.026294671
0.4612014 0.088664301 0.026815208
0.46122971 0.089596003 0.02680953
0.4621169 0.090409264 0.027330101
0.46300405 0.091219336 0.027850723
0.46303228 0.09214785 0.027845064
0.46391922 0.092953153 0.028365679
0.46394739 0.093880072 0.02836003
0.46483418 0.094680592 0.028880678
0.46486232 0.095605925 0.02887504
0.46489045 0.096531257 0.028869402
0.46491855 0.097456589 0.028863762
0.46494669 0.098381922 0.028858123
0.46411642 0.099441625 0.028326139
0.46414462 0.10036854 0.028320491
0.46417278 0.10129547 0.028314842
0.46334273 0.10236154 0.027782826
0.4625127 0.10343081 0.027250752
0.46254098 0.10436092 0.027245084
0.46171117 0.10543495 0.026713012
0.46088144 0.10651217 0.026180927
0.46090978 0.10744546 0.02617524
0.46008021 0.10852746 0.02564312
0.45925075 0.10961264 0.025110986
0.45842129 0.11070102 0.024578795
0.45759201 0.11179257 0.024046622
0.45762056 0.11273224 0.024040896
0.45679143 0.11382857 0.02350869
0.45596239 0.11492809 0.022976469
0.45513338 0.1160308 0.02244419
0.45430452 0.11713668 0.02191193
0.45347577 0.11824575 0.021379646
0.45178965 0.11952264 0.020320818
0.45181856 0.12047346 0.020315023
0.45099005 0.12159209 0.019782647
0.45016167 0.12271391 0.019250292
0.4493334 0.1238389 0.018717909
0.44850522 0.12496709 0.018185513
0.44767711 0.12609847 0.017653061
0.44770622 0.12705724 0.017647218
0.44687831 0.12819339 0.017114775
0.44605047 0.12933272 0.016582305
0.44522274 0.13047525 0.016049817
0.4443951 0.13162094 0.015517314
0.44442442 0.13258609 0.015511433
0.44359687 0.13373658 0.014978863
0.44276947 0.13489026 0.014446313
0.44194219 0.1360471 0.013913737
0.44111496 0.13720714 0.013381147
0.43943116 0.13856208 0.01232181
0.4377476 0.13992336 0.011262468
0.43435112 0.14168082 0.0091496259
0.43095499 0.14345101 0.0070367125
0.42670283 0.14543203 0.0043969876
0.42159474 0.14762862 0.0012304281
0.41563085 0.1500456 -0.0024630327
0.45197907 0.077569492 0.020367261
0.45286646 0.078422606 0.020888822
0.45375377 0.079272538 0.021410398
0.45464095 0.080119282 0.021931998
0.45466965 0.081063725 0.021926243
0.45641509 0.08180321 0.022975283
0.4564437 0.082744464 0.022969548
0.45733055 0.083580062 0.023491209
0.45821732 0.084412478 0.024012892
0.45824584 0.085350551 0.024007175
0.45913249 0.086178176 0.024528924
0.46001902 0.08700262 0.025050655
0.46090543 0.087823883 0.02557241
0.46179175 0.088641964 0.02609418
0.46182007 0.089573666 0.026088502
0.46270624 0.090386964 0.0266103
0.46273452 0.09131708 0.026604632
0.4636206 0.092125587 0.027126497
0.46450654 0.092930928 0.027648345
0.4645347 0.093857855 0.027642695
0.46456289 0.094784774 0.027637048
0.46544862 0.095583737 0.028158939
0.46547675 0.096509077 0.0281533
0.46464741 0.097565547 0.027620101
0.46467558 0.098492473 0.027614454
0.46470377 0.099419408 0.027608804
0.46473193 0.10034633 0.027603157
0.46390283 0.10141076 0.027069917
0.46307376 0.1024784 0.026536617
0.46310204 0.10340851 0.026530951
0.46227318 0.10448091 0.025997661
0.46144441 0.1055565 0.025464352
0.46147278 0.10648979 0.025458666
0.46064416 0.10757016 0.024925321
0.45981565 0.10865371 0.024391964
0.45898718 0.10974046 0.023858549
0.4590157 0.11067854 0.023852834
0.4581874 0.11177004 0.023319429
0.45735922 0.11286475 0.022786003
0.45738783 0.113806 0.022780268
0.45655981 0.11490548 0.022246808
0.4548752 0.11616796 0.021185568
0.45404741 0.11727541 0.020652065
0.45321971 0.11838602 0.020118536
0.4523921 0.11949985 0.019584995
0.45156455 0.12061685 0.019051403
0.45073715 0.12173703 0.018517816
0.44990984 0.1228604 0.017984215
0.44908261 0.12398695 0.017450592
0.44911173 0.12494414 0.017444758
0.4482846 0.12607548 0.016911078
0.44745761 0.12720999 0.01637741
0.44663075 0.12834771 0.015843717
0.44580397 0.12948859 0.015310011
0.44583327 0.13045214 0.015304139
0.44500664 0.1315978 0.014770398
0.44418004 0.13274667 0.01423661
0.44335359 0.13389869 0.013702836
0.44252726 0.13505392 0.013169036
0.44170099 0.13621232 0.012635223
0.44001913 0.137564 0.011573439
0.4383375 0.13892204 0.01051165
0.43580043 0.1404797 0.008921857
0.43326369 0.14204693 0.0073320381
0.42901623 0.14401659 0.0046862145
0.42391375 0.14620024 0.0015123065
0.4196673 0.14820334 -0.001133715
0.45255169 0.076597504 0.019638451
0.45258054 0.077546731 0.019632667
0.45346692 0.078399889 0.020155462
0.45435318 0.079249851 0.020678271
0.45523939 0.08009664 0.021201098
0.45526809 0.081041083 0.021195343
0.45615417 0.08188308 0.021718232
0.4570401 0.082721896 0.022241114
0.45792598 0.083557531 0.022764008
0.45795453 0.084497206 0.022758283
0.45884022 0.085328057 0.023281207
0.45886874 0.08626613 0.023275491
0.45975435 0.087092206 0.023798484
0.4606398 0.0879151 0.024321457
0.46152517 0.088734806 0.024844449
0.46241042 0.08955133 0.025367461
0.46329558 0.090364665 0.025890499
0.46332386 0.09129478 0.025884831
0.46420893 0.092103332 0.026407924
0.46509385 0.092908703 0.026931005
0.46512204 0.09383563 0.026925355
0.46515021 0.094762556 0.026919708
0.4651784 0.095689476 0.026914058
0.46520656 0.096616402 0.026908411
0.46523473 0.097543322 0.026902761
0.46526292 0.098470256 0.026897114
0.46443471 0.099531472 0.026362659
0.46446294 0.10045999 0.026357001
0.46363485 0.10152599 0.025822485
0.4636631 0.1024561 0.025816817
0.46283522 0.10352688 0.025282299
0.46286353 0.10445857 0.025276622
0.46203578 0.10553412 0.02474208
0.46120813 0.10661286 0.024207518
0.46038055 0.10769478 0.023672936
0.46040902 0.10863125 0.023667231
0.45958155 0.10971797 0.023132583
0.45875424 0.11080785 0.022597954
0.45878279 0.11174751 0.022592228
0.45795563 0.11284218 0.022057569
0.45712855 0.11394002 0.021522885
0.45630154 0.11504107 0.020988155
0.45547464 0.11614528 0.02045344
0.45464787 0.11725269 0.019918703
0.45382118 0.11836327 0.019383943
0.45299459 0.11947705 0.018849166
0.45216802 0.12059402 0.018314341
0.45134163 0.12171416 0.017779527
0.45051533 0.12283749 0.017244687
0.44968912 0.123964 0.016709836
0.44886297 0.12509371 0.016174931
0.44889212 0.1260525 0.016169088
0.44806615 0.12718697 0.015634183
0.44724026 0.12832464 0.015099262
0.4464145 0.12946549 0.014564321
0.44558883 0.13060953 0.014029362
0.44476321 0.13175674 0.013494345
0.44393772 0.13290715 0.012959348
0.44396716 0.13387547 0.012953447
0.44314182 0.13503067 0.01241842
0.44146186 0.13637747 0.011354231
0.43978205 0.13773067 0.010289977
0.43810248 0.13909023 0.0092257112
0.43471393 0.14084259 0.0071030436
0.43132573 0.14260769 0.0049802982
0.42708346 0.14458194 0.0023282846
0.42284167 0.14657213 -0.00032382016
0.45226762 0.075716779 0.018379869
0.45315313 0.07657475 0.018903863
0.45403853 0.07742954 0.019427881
0.45406735 0.078377165 0.019422106
0.45495263 0.079227172 0.019946147
0.45583779 0.080073997 0.020470208
0.45586652 0.08101844 0.020464454
0.45675159 0.081860475 0.020988576
0.45763651 0.082699336 0.021512685
0.45766512 0.08364059 0.02150695
0.45854992 0.084474675 0.022031087
0.45857847 0.085414343 0.022025362
0.45946312 0.086243637 0.02254953
0.46034771 0.08706975 0.023073755
0.46123216 0.087892681 0.023597961
0.46211651 0.088712431 0.024122188
0.46300077 0.089528993 0.024646433
0.46302909 0.090460688 0.024640756
0.4639132 0.091272481 0.025165031
0.46479726 0.09208107 0.025689356
0.46482548 0.093009584 0.025683699
0.46570936 0.093813404 0.026208021
0.46573752 0.094740331 0.026202373
0.46576571 0.095667258 0.026196726
0.46579388 0.096594177 0.026191076
0.46582207 0.097521104 0.026185429
0.46499482 0.098580688 0.025649751
0.46502304 0.099509209 0.025644092
0.46419591 0.10057358 0.025108352
0.46422419 0.10150369 0.025102684
0.46339723 0.10257284 0.024566948
0.46342558 0.10350453 0.024561271
0.46259877 0.10457845 0.024025505
0.46177208 0.10565555 0.023489719
0.46094549 0.10673585 0.022953914
0.46097395 0.10767233 0.022948209
0.46014744 0.1087574 0.022412337
0.45932108 0.10984565 0.021876484
0.45934963 0.11078532 0.021870758
0.45852342 0.11187836 0.021334875
0.4576973 0.11297458 0.020798976
0.45687124 0.11407398 0.020263022
0.45604533 0.11517657 0.019727081
0.45521948 0.11628234 0.019191122
0.45439377 0.1173913 0.018655136
0.45356813 0.11850344 0.018119138
0.45274255 0.11961878 0.017583089
0.45191711 0.1207373 0.017047051
0.45109177 0.12185898 0.016510995
0.45026651 0.12298387 0.015974918
0.45029563 0.12394106 0.015969085
0.44947046 0.12507072 0.015432948
0.44864547 0.12620357 0.014896818
0.44782057 0.12733962 0.014360674
0.44699576 0.12847883 0.01382451
0.44617105 0.12962122 0.013288327
0.44620037 0.13058639 0.013282446
0.44537577 0.13173357 0.012746202
0.44455129 0.13288394 0.012209971
0.4437269 0.13403748 0.01167372
0.44290265 0.13519423 0.011137444
0.44122469 0.13654256 0.010070752
0.439547 0.13789725 0.0090040546
0.43701583 0.13944992 0.0074068909
0.43363139 0.14120531 0.0052792761
0.4302474 0.14297345 0.00315161
0.42515674 0.14514707 -3.7033638e-05
0.45287007 0.075693987 0.01764404
0.45375457 0.076551989 0.018169267
0.45463899 0.077406816 0.018694513
0.45466781 0.078354448 0.018688738
0.45555207 0.079204492 0.019214014
0.45643622 0.080051355 0.019739307
0.45646495 0.080995798 0.019733552
0.457349 0.08183787 0.020258909
0.45737767 0.082780719 0.020253163
0.45826155 0.083618023 0.020778516
0.45914531 0.084452145 0.021303887
0.45917389 0.085391812 0.021298161
0.4600575 0.086221151 0.021823563
0.46094111 0.087047301 0.022349015
0.46182454 0.08787027 0.022874456
0.46270788 0.08869005 0.023399916
0.46359113 0.089506648 0.023925394
0.46361944 0.090438351 0.023919716
0.46450254 0.091250181 0.024445225
0.46538562 0.092058808 0.024970783
0.46541384 0.092987321 0.024965126
0.46629667 0.093791179 0.025490683
0.46632487 0.094718106 0.025485033
0.46635303 0.095645033 0.025479386
0.46638122 0.096571952 0.025473736
0.46555495 0.097629905 0.024936834
0.46558318 0.098558426 0.024931176
0.464757 0.099621169 0.024394214
0.46478525 0.10055128 0.024388546
0.46395928 0.10161879 0.023851585
0.46398759 0.10255049 0.023845907
0.46316177 0.10362278 0.023308918
0.46233603 0.10469825 0.02277191
0.46151039 0.10577691 0.022234881
0.46153885 0.10671339 0.022229176
0.46071333 0.10779684 0.021692086
0.46074182 0.10873491 0.02168637
0.45991647 0.10982312 0.021149283
0.45994505 0.1107628 0.021143558
0.45911983 0.11185579 0.020606441
0.45829472 0.11295197 0.020069307
0.45746967 0.11405133 0.019532122
0.45664474 0.11515389 0.018994948
0.45581993 0.11625962 0.018457755
0.45499521 0.11736854 0.017920543
0.45417058 0.11848064 0.017383311
0.45334601 0.11959594 0.016846027
0.45252159 0.12071443 0.016308757
0.45169726 0.12183607 0.015771467
0.45087302 0.12296093 0.015234157
0.45004883 0.12408896 0.014696795
0.4492248 0.12522018 0.014159448
0.44840086 0.12635458 0.01362208
0.447577 0.12749217 0.013084693
0.4476063 0.12845573 0.013078821
0.44678259 0.12959808 0.012541405
0.44595894 0.13074365 0.012003937
0.44513541 0.13189238 0.011466483
0.44431201 0.13304432 0.010929008
0.44348869 0.13419941 0.010391514
0.44266546 0.13535771 0.009854001
0.44098961 0.13670754 0.0087848334
0.43931398 0.13806376 0.0077156588
0.43593329 0.13980946 0.0055831689
0.43255296 0.14156789 0.0034506018
0.42832056 0.14353381 0.00078631513
0.42408863 0.14551564 -0.0018780684
0.45258892 0.074809961 0.016381741
0.4543272 0.075580016 0.017440457
0.45521063 0.076436467 0.017966926
0.45523944 0.077384099 0.017961152
0.45612273 0.078235775 0.018487651
0.45615149 0.079181813 0.018481886
0.45703465 0.080028705 0.019008413
0.45791775 0.080872416 0.019534992
0.45794642 0.081815265 0.019529246
0.45882934 0.0826542 0.020055817
0.45885795 0.083595455 0.02005008
0.45888656 0.084536716 0.020044345
0.45976928 0.085369281 0.02057096
0.4606519 0.086198658 0.021097595
0.46153447 0.087024845 0.021624282
0.46241692 0.087847851 0.022150954
0.46329924 0.088667676 0.022677647
0.46418148 0.089484312 0.02320436
0.46420979 0.090416014 0.023198681
0.46509188 0.091227882 0.023725424
0.46597394 0.092036545 0.02425221
0.46600217 0.092965066 0.024246551
0.46688402 0.093768962 0.024773343
0.46691218 0.094695881 0.024767693
0.46608683 0.095750615 0.024229577
0.46611506 0.096679129 0.02422392
0.46614328 0.097607642 0.024218261
0.46531805 0.098668762 0.02368008
0.46534634 0.09959887 0.023674412
0.46452132 0.10066474 0.023136228
0.46454963 0.10159645 0.023130551
0.46372476 0.10266711 0.022592338
0.46289998 0.10374095 0.022054106
0.46292841 0.10467584 0.02204841
0.46210378 0.10575446 0.021510148
0.46127918 0.10683627 0.020971835
0.4613077 0.10777435 0.020966118
0.46048331 0.10886093 0.020427808
0.46051186 0.10980059 0.020422082
0.45968762 0.11089197 0.019883744
0.4588635 0.11198651 0.019345392
0.45803937 0.11308426 0.018806981
0.45721543 0.11418516 0.018268583
0.45639157 0.11528928 0.017730167
0.45556781 0.11639655 0.017191732
0.45474416 0.11750703 0.016653277
0.45392054 0.1186207 0.01611477
0.45309708 0.11973754 0.015576281
0.4522737 0.12085758 0.015037767
0.45145044 0.12198079 0.014499234
0.45062721 0.1231072 0.013960649
0.44980413 0.12423678 0.013422078
0.4498333 0.12519716 0.013416225
0.44901037 0.12633152 0.012877624
0.44818753 0.12746906 0.012339004
0.44736481 0.12860981 0.011800364
0.44654208 0.12975372 0.011261678
0.44571954 0.13090084 0.010722999
0.44489709 0.13205113 0.010184302
0.44407475 0.13320459 0.009645584
0.44325247 0.13436125 0.0091068475
0.44243029 0.13552111 0.0085680587
0.44075653 0.13687247 0.0074964473
0.43823126 0.13842013 0.0058919243
0.43485472 0.14016886 0.0037544821
0.43062699 0.14212343 0.0010841027
0.42639977 0.14409393 -0.0015863739
0.43941438 0.072308302 0.0071329693
0.44456714 0.072777584 0.010327662
0.44801173 0.073400483 0.012455581
0.45060223 0.07409858 0.01405012
0.45319235 0.074787125 0.01564469
0.45492864 0.075557254 0.016705867
0.45581108 0.076413743 0.017233571
0.45583987 0.077361383 0.017227795
0.45672217 0.078213088 0.017755527
0.45760438 0.07906162 0.018283274
0.45763308 0.080006063 0.018277518
0.45851517 0.080849811 0.018805331
0.45854384 0.08179266 0.018799584
0.45942575 0.082631633 0.019327395
0.45945436 0.083572887 0.01932166
0.46033612 0.084407091 0.019849498
0.46036467 0.085346751 0.019843772
0.46124628 0.086176172 0.020371633
0.46212786 0.087002397 0.020899553
0.46300927 0.08782544 0.02142746
0.46389061 0.088645302 0.021955386
0.46477184 0.089461975 0.022483325
0.46480015 0.090393677 0.022477647
0.46568123 0.091205582 0.023005622
0.46656227 0.092014283 0.023533648
0.46659049 0.092942804 0.023527991
0.46661872 0.093871318 0.023522332
0.46664694 0.094799832 0.023516674
0.46667516 0.095728353 0.023511015
0.46670339 0.096656866 0.023505358
0.46587911 0.097716354 0.022965947
0.46590739 0.098646462 0.022960279
0.46508333 0.099710703 0.022420872
0.46511167 0.10064241 0.022415195
0.46428776 0.10171144 0.021875763
0.46431613 0.10264473 0.021870077
0.46349236 0.10371853 0.021330612
0.46266869 0.10479553 0.020791126
0.46269715 0.10573201 0.020785419
0.46187356 0.10681378 0.020245874
0.46105015 0.10789874 0.019706346
0.4610787 0.1088384 0.01970062
0.46025541 0.10992813 0.019161057
0.46028402 0.1108694 0.019155322
0.45946088 0.11196391 0.01861573
0.4586378 0.11306161 0.018076086
0.45781487 0.11416248 0.017536461
0.45699203 0.11526655 0.016996812
0.45531771 0.11653341 0.015923249
0.45534661 0.11748423 0.015917454
0.45367256 0.11876067 0.014843805
0.45285013 0.11987907 0.014304068
0.45202783 0.12100065 0.013764312
0.45205691 0.12195784 0.013758479
0.4512347 0.12308422 0.013218666
0.45041263 0.12421376 0.012678861
0.44959065 0.1253465 0.012139036
0.44876876 0.1264824 0.011599198
0.447947 0.12762152 0.011059335
0.44712526 0.12876381 0.01051942
0.44630367 0.12990928 0.0099795172
0.44548219 0.13105795 0.0094396016
0.44551167 0.13202786 0.0094336914
0.44383949 0.13336483 0.0083596995
0.44301823 0.13452303 0.0078196879
0.44219714 0.13568445 0.0072796945
0.43967471 0.13722561 0.0056715049
0.43715262 0.13877633 0.0040632947
0.43378022 0.1405281 0.0019209054
0.42955765 0.14248566 -0.00075565424
0.43318087 0.071959324 0.0021048782
0.43747535 0.072534271 0.0047721732
0.44776848 0.073463738 0.011176449
0.45035595 0.074163549 0.012774641
0.45379585 0.074764296 0.014907628
0.45638272 0.075443402 0.016505983
0.45641151 0.076391026 0.016500209
0.45729285 0.077244379 0.017029159
0.45817408 0.078094535 0.017558133
0.45820278 0.079038978 0.017552378
0.45908394 0.07988435 0.018081408
0.45911258 0.080827206 0.018075664
0.45999354 0.081667803 0.018604696
0.46002215 0.082609065 0.018598961
0.46005076 0.083550319 0.018593226
0.46093151 0.084384561 0.019122297
0.46096006 0.085324228 0.019116571
0.46184069 0.086153679 0.019645667
0.46272123 0.086979941 0.020174818
0.46360165 0.087803029 0.020703953
0.46448195 0.088622928 0.021233112
0.46536219 0.089439638 0.021762291
0.46624231 0.090253167 0.022291483
0.46627057 0.091183282 0.022285815
0.4671506 0.091992021 0.022815075
0.46717882 0.092920542 0.022809416
0.46720704 0.093849055 0.022803759
0.46723527 0.094777577 0.0227981
0.46726349 0.09570609 0.022792442
0.46729171 0.096634604 0.022786785
0.46646848 0.097694054 0.022246141
0.46649674 0.098624162 0.022240473
0.46567369 0.099688366 0.021699838
0.46570203 0.10062007 0.021694161
0.46487913 0.10168906 0.021153491
0.46405631 0.10276124 0.020612802
0.46323359 0.1038366 0.020072099
0.46326205 0.10477307 0.020066392
0.46243945 0.10585321 0.019525623
0.46246797 0.1067913 0.019519906
0.46164554 0.10787621 0.018979145
0.46167409 0.10881588 0.018973419
0.46085182 0.10990557 0.018432623
0.46002966 0.11099844 0.017891807
0.45920753 0.11209451 0.017350947
0.45838556 0.11319377 0.016810093
0.45756367 0.1142962 0.016269226
0.45674187 0.11540182 0.015728332
0.45592019 0.11651062 0.01518742
0.45509854 0.11762263 0.014646461
0.45427704 0.11873779 0.01410551
0.45345563 0.11985616 0.013564546
0.45263433 0.12097771 0.013023555
0.45181307 0.12210245 0.012482514
0.45099196 0.12323037 0.011941491
0.45017093 0.12436146 0.011400443
0.44935003 0.12549576 0.01085938
0.44852921 0.12663323 0.010318294
0.44770843 0.1277739 0.0097771548
0.44688779 0.12891774 0.0092360349
0.44691724 0.12988606 0.0092301341
0.44609675 0.13103469 0.0086889798
0.44527638 0.13218649 0.0081478106
0.44445607 0.13334149 0.0076066167
0.44278607 0.13468473 0.006530094
0.44196603 0.1358477 0.0059888517
0.43859699 0.13757859 0.0038416611
0.43607801 0.1391324 0.0022296996
0.43270975 0.14088719 8.2395512e-05
0.43724614 0.072593808 0.003475812
0.44752726 0.073526919 0.0098948516
0.45096347 0.074140564 0.012032657
0.45354763 0.074830927 0.013634644
0.45698315 0.075420678 0.015772628
0.45786354 0.076275654 0.016302802
0.45789227 0.077221692 0.016297037
0.45877251 0.078071892 0.016827239
0.45965269 0.078918897 0.017357498
0.45968133 0.079861745 0.017351752
0.46056134 0.080703981 0.017882004
0.46058995 0.081645235 0.017876267
0.46061856 0.082586497 0.017870532
0.46149835 0.083422363 0.018400827
0.4615269 0.08436203 0.018395102
0.46240655 0.085193112 0.018925421
0.46328613 0.086021014 0.019455796
0.4641656 0.086845726 0.019986155
0.46504495 0.087667257 0.020516537
0.4659242 0.088485599 0.021046935
0.46595252 0.089417301 0.021041257
0.46683165 0.090230867 0.021571688
0.4677107 0.091041245 0.022102166
0.46773893 0.091969758 0.022096507
0.46776715 0.092898279 0.022090849
0.46779537 0.093826793 0.022085192
0.46782359 0.094755314 0.022079533
0.46785182 0.095683828 0.022073874
0.46702954 0.096741639 0.021532014
0.46705779 0.097671755 0.021526346
0.46623573 0.098734327 0.020984482
0.46626404 0.099666029 0.020978805
0.46544209 0.10073339 0.020436917
0.46547046 0.10166668 0.02043123
0.46464866 0.10273882 0.019889306
0.46382698 0.10381414 0.01934737
0.46300533 0.10489266 0.018805377
0.46303383 0.10583073 0.018799661
0.46221238 0.10691401 0.018257676
0.46224093 0.10785368 0.01825195
0.46141964 0.10894173 0.017709931
0.46059841 0.11003299 0.017167898
0.45977724 0.11112744 0.016625807
0.45895621 0.11222506 0.016083736
0.45813531 0.11332586 0.015541644
0.45731446 0.11442984 0.014999527
0.45649374 0.11553702 0.014457397
0.45567304 0.11664738 0.013915209
0.45485252 0.11776093 0.013373041
0.45403206 0.11887766 0.012830846
0.45321172 0.11999758 0.012288638
0.45239145 0.12112068 0.011746373
0.45157129 0.12224697 0.011204126
0.45075122 0.12337644 0.010661854
0.44993126 0.1245091 0.010119569
0.4491114 0.12564494 0.0095772585
0.4482916 0.12678397 0.0090349019
0.44747195 0.12792619 0.0084925527
0.44665235 0.12907158 0.0079501895
0.44668186 0.13004151 0.0079442794
0.44586241 0.13119169 0.0074018869
0.44504309 0.13234505 0.0068594697
0.44337499 0.13368504 0.0057804994
0.4425559 0.13484636 0.0052380394
0.44173694 0.13601087 0.0046955538
0.43837199 0.1377432 0.0025434203
0.43500745 0.13948829 0.00039120915
0.43164328 0.14124611 -0.0017610739
0.43100229 0.071240701 -0.0015708136
0.43358535 0.071993291 3.4488861e-05
0.43786979 0.072570212 0.0027141015
0.45500278 0.074718624 0.013433511
0.45758361 0.075397961 0.01503926
0.45846295 0.076252975 0.015570672
0.45934221 0.077104807 0.016102098
0.46022144 0.077953443 0.016633576
0.46025011 0.078896292 0.016627831
0.46112913 0.079740152 0.017159311
0.46115774 0.080681413 0.017153576
0.46118635 0.081622675 0.017147839
0.46206519 0.082460165 0.017679352
0.46209374 0.083399832 0.017673627
0.46212229 0.084339499 0.017667901
0.46300092 0.085170627 0.018199453
0.46387953 0.085998558 0.018731063
0.46475798 0.086823307 0.019262655
0.46563631 0.087644875 0.019794265
0.46651456 0.088463262 0.020325901
0.46739271 0.08927846 0.02085755
0.467421 0.090208568 0.020851882
0.46829903 0.091018982 0.021383593
0.46832725 0.091947496 0.021377934
0.46835548 0.092876017 0.021372275
0.4683837 0.093804531 0.021366619
0.46841192 0.094733052 0.02136096
0.4675906 0.095789224 0.020817874
0.46761888 0.096719339 0.020812208
0.46679777 0.097780287 0.020269126
0.46682608 0.09871199 0.020263446
0.46600509 0.099777713 0.019720331
0.46603346 0.10071101 0.019714642
0.46521261 0.10178152 0.019171502
0.46439189 0.10285521 0.018628344
0.46442035 0.10379169 0.018622637
0.46359971 0.10487016 0.018079409
0.46277922 0.10595182 0.017536202
0.46280777 0.10689148 0.017530475
0.46198744 0.10797792 0.016987238
0.46116716 0.10906753 0.016443975
0.46034697 0.11016034 0.015900668
0.4595269 0.11125633 0.015357371
0.45870695 0.1123555 0.014814051
0.45788705 0.11345786 0.014270716
0.45706731 0.1145634 0.013727363
0.45624757 0.11567214 0.013183951
0.455428 0.11678405 0.012640559
0.45460853 0.11789916 0.012097147
0.45378914 0.11901743 0.011553709
0.45296979 0.12013891 0.011010227
0.45215061 0.12126358 0.010466756
0.45133153 0.12239141 0.0099232607
0.45051253 0.12352244 0.009379752
0.44969362 0.12465664 0.0088362237
0.44887477 0.12579405 0.0082926378
0.44805607 0.12693463 0.0077490704
0.44723746 0.1280784 0.0072054835
0.44726694 0.12904833 0.0071995733
0.44644848 0.13019687 0.0066559515
0.4456301 0.13134861 0.0061123162
0.44481179 0.13250352 0.0055686296
0.44314581 0.13384502 0.0044872151
0.44232777 0.1350079 0.0039435118
0.44066209 0.13636056 0.0028619976
0.43730131 0.13809593 0.00070491718
0.43394095 0.13984403 -0.0014522146
0.43163401 0.071216792 -0.002342385
0.43506393 0.071888074 -0.00019503577
0.43849346 0.072546616 0.001952391
0.45903364 0.07528425 0.01484431
0.45991194 0.076137714 0.015376959
0.46079022 0.076987982 0.015909661
0.46081886 0.077930838 0.015903914
0.46084753 0.078873686 0.01589817
0.46172553 0.079717591 0.016430877
0.46175414 0.080658846 0.016425142
0.46178275 0.081600107 0.016419405
0.46266058 0.082437634 0.016952159
0.46268913 0.083377302 0.016946431
0.46356681 0.084210061 0.017479207
0.46444443 0.085039623 0.018012036
0.46532193 0.085866012 0.018544851
0.46619931 0.086689204 0.019077685
0.4670766 0.087509222 0.019610543
0.46710491 0.088440925 0.019604865
0.46798205 0.08925616 0.02013775
0.46885917 0.090068199 0.020670682
0.46888739 0.09099672 0.020665025
0.46891561 0.091925241 0.020659367
0.46894383 0.092853755 0.020653708
0.46897206 0.093782268 0.020648051
0.46900028 0.09471079 0.020642392
0.46817994 0.095766932 0.020098073
0.46820822 0.09669704 0.020092405
0.46738809 0.09775795 0.01954809
0.46741644 0.098689653 0.019542413
0.46659645 0.099755339 0.018998062
0.46577659 0.10082421 0.018453699
0.46580499 0.10175911 0.018448003
0.46498528 0.10283276 0.017903609
0.4641656 0.1039096 0.017359164
0.46419409 0.10484768 0.017353449
0.46337461 0.10592929 0.016809007
0.46255523 0.10701409 0.016264539
0.46258384 0.10795535 0.016258804
0.46176457 0.10904492 0.015714314
0.46009758 0.11028761 0.014631009
0.45927858 0.11138516 0.01408647
0.45845968 0.11248588 0.013541906
0.45764086 0.1135898 0.012997328
0.4568221 0.11469691 0.012452699
0.45600349 0.11580718 0.011908083
0.45518497 0.11692065 0.011363448
0.45436653 0.11803731 0.010818787
0.45270073 0.1193198 0.0097352387
0.45188257 0.12044442 0.0091905352
0.45191181 0.12140639 0.0091846734
0.45109376 0.12253578 0.0086399401
0.45027584 0.12366837 0.0080951825
0.44945794 0.12480413 0.0075503788
0.4486402 0.12594309 0.0070055882
0.44782254 0.12708522 0.0064607775
0.44700497 0.12823054 0.0059159477
0.44618753 0.12937905 0.0053710928
0.44621712 0.13035215 0.0053651631
0.44539976 0.13150546 0.0048202528
0.44373569 0.13284369 0.003736397
0.44291863 0.13400494 0.0031914702
0.44125488 0.13535433 0.0021075085
0.43959135 0.13671008 0.001023546
0.43708134 0.13826035 -0.00059949019
0.43484274 0.071945719 -0.0015012538
0.4391171 0.07252302 0.0011906805
0.46048167 0.075170629 0.014651819
0.46051037 0.076115072 0.014646064
0.4613876 0.076965384 0.015179998
0.46226472 0.077812508 0.015713921
0.46229333 0.078753762 0.015708184
0.46232194 0.079695024 0.015702449
0.46319884 0.080535777 0.01623641
0.46322742 0.081475444 0.016230684
0.46325597 0.082415111 0.016224958
0.4641327 0.083249494 0.016758958
0.46500936 0.084080689 0.017293008
0.46588588 0.084908709 0.017827047
0.4667623 0.08573354 0.018361105
0.46679068 0.08666683 0.018355416
0.46766695 0.087486885 0.018889509
0.46854311 0.088303745 0.019423615
0.46941927 0.089117423 0.019957773
0.46944749 0.090045936 0.019952115
0.46947572 0.090974465 0.019946458
0.46950394 0.091902979 0.019940799
0.46953216 0.092831492 0.01993514
0.46956038 0.093760006 0.019929484
0.46874103 0.094814517 0.019383941
0.46876928 0.095744632 0.019378273
0.46795014 0.096803911 0.018832734
0.46797845 0.097735614 0.018827057
0.46800679 0.098667316 0.018821379
0.46718782 0.099732965 0.018275796
0.46636894 0.1008018 0.017730199
0.46555018 0.10187383 0.017184582
0.46557865 0.1028103 0.017178874
0.46475998 0.10388711 0.016633198
0.46394145 0.10496709 0.016087532
0.46397001 0.10590675 0.016081806
0.46315163 0.10699152 0.015536112
0.46233335 0.10807948 0.014990398
0.4615151 0.10917062 0.014444632
0.46069703 0.11026493 0.01389888
0.45903227 0.11151391 0.012813102
0.45821443 0.11261619 0.0122673
0.45739663 0.11372166 0.011721448
0.45657897 0.11483032 0.011175607
0.4557614 0.11594215 0.010629749
0.45409739 0.1172166 0.0095437765
0.45328006 0.11833641 0.0089978687
0.45246285 0.11945939 0.0084519414
0.45164573 0.12058557 0.0079059945
0.4508287 0.12171493 0.0073600286
0.45001173 0.12284748 0.0068140114
0.44919488 0.1239832 0.0062680063
0.44922432 0.12495153 0.0062621059
0.44840762 0.12609203 0.0057160719
0.44759104 0.12723573 0.0051700184
0.44677454 0.12838261 0.0046239453
0.44595811 0.12953268 0.004077821
0.44598773 0.13050738 0.0040718815
0.4443256 0.13184236 0.0029855787
0.44350949 0.13300197 0.0024394281
0.44184765 0.13434811 0.0013530194
0.44103178 0.13551569 0.00080682046
0.43937033 0.13687296 -0.00027961846
0.43686339 0.13842469 -0.0019063585
0.43547145 0.07192193 -0.0022691251
0.43974075 0.072499417 0.00042897576
0.45766085 0.074560806 0.011763232
0.46108007 0.075147986 0.013920925
0.46195638 0.075999923 0.014456082
0.46283251 0.076848678 0.014991228
0.46286112 0.07778994 0.014985492
0.46288973 0.078731202 0.014979756
0.46376568 0.079573587 0.015514941
0.46379423 0.080513246 0.015509214
0.46382281 0.081452914 0.015503488
0.46385136 0.082392581 0.015497763
0.46472707 0.083227001 0.016032996
0.46560273 0.08405824 0.016568279
0.46647823 0.08488629 0.017103551
0.46735364 0.085711159 0.017638842
0.46822897 0.086532846 0.018174153
0.46825728 0.087464549 0.018168475
0.46913248 0.088281445 0.018703809
0.4700076 0.08909516 0.0192392
0.47003582 0.090023682 0.019233542
0.47006404 0.090952203 0.019227885
0.47009227 0.091880716 0.019222226
0.47012049 0.09280923 0.019216567
0.47014871 0.093737751 0.01921091
0.46933037 0.094792217 0.018664135
0.46935865 0.095722333 0.018658467
0.46854049 0.096781574 0.0181117
0.4685688 0.097713277 0.018106023
0.46775082 0.098777302 0.017559221
0.46693289 0.0998445 0.017012401
0.46696132 0.10077939 0.017006703
0.46614355 0.10185137 0.016459852
0.46532583 0.10292655 0.015912952
0.46450827 0.1040049 0.015366063
0.46453685 0.10494456 0.015360337
0.46371943 0.1060277 0.014813419
0.4629021 0.10711402 0.014266482
0.46208483 0.10820352 0.013719493
0.46126768 0.10929622 0.013172517
0.45960486 0.11054192 0.01208429
0.45878798 0.11164258 0.011537266
0.45797113 0.11274642 0.010990189
0.45715445 0.11385344 0.010443132
0.45549226 0.11511985 0.0093547795
0.45467573 0.11623485 0.0088076359
0.45385939 0.11735301 0.0082605043
0.45304313 0.11847437 0.0077133533
0.45222697 0.1195989 0.0071661831
0.45141089 0.12072664 0.0066189938
0.45059487 0.12185756 0.0060717524
0.449779 0.12299165 0.005524524
0.44896322 0.12412894 0.0049772761
0.44899273 0.12509885 0.0049713659
0.4481771 0.12624092 0.0044240886
0.44736156 0.12738617 0.0038767923
0.44654608 0.1285346 0.0033294444
0.44573072 0.12968622 0.002782115
0.44491547 0.13084102 0.0022347604
0.44410035 0.131999 0.0016873863
0.44328526 0.13316019 0.0011399608
0.44162551 0.13450783 5.1113497e-05
0.44081071 0.13567695 -0.0004963284
0.43915129 0.13703576 -0.0015852757
0.43694699 0.071816824 -0.0024949498
0.44121122 0.072392911 0.0002093216
0.45910993 0.074448727 0.011569505
0.46252513 0.075034462 0.013732166
0.4625538 0.075977318 0.013726421
0.46342891 0.076826118 0.0142628
0.46345752 0.077767372 0.014257064
0.46348614 0.078708634 0.014251328
0.46436107 0.079551056 0.014787746
0.46438962 0.080490723 0.01478202
0.4644182 0.08143039 0.014776293
0.46529296 0.082266442 0.015312744
0.46616766 0.083099306 0.015849251
0.46704221 0.083928995 0.016385747
0.46791664 0.084755488 0.016922262
0.46794501 0.085688785 0.016916575
0.46881932 0.086510509 0.017453114
0.46969354 0.087329037 0.017989676
0.46972182 0.088259146 0.017984008
0.47059593 0.089072898 0.018520633
0.47062415 0.090001419 0.018514974
0.47065237 0.09092994 0.018509317
0.47068059 0.091858454 0.018503658
0.47070882 0.092786975 0.018498
0.46989143 0.093839809 0.017950002
0.46991971 0.094769917 0.017944334
0.46910253 0.095827527 0.017396338
0.46913084 0.096759237 0.017390659
0.46831378 0.097821623 0.016842641
