# .PCD v0.7 - Point Cloud Data file format
VERSION 0.7
FIELDS x y z
SIZE 4 4 4
TYPE F F F
COUNT 1 1 1
WIDTH 1408
HEIGHT 1
VIEWPOINT 0 0 0 1 0 0 0
POINTS 1408
DATA ascii
0.47037965 0.12359817 0.048257217
0.46953386 0.12468078 0.047744792
0.46868822 0.12576658 0.047232375
0.4678427 0.12685555 0.046719939
0.46699727 0.12794772 0.04620748
0.46615186 0.12904307 0.045694981
0.46530664 0.13014162 0.045182485
0.46446151 0.13124333 0.044669967
0.46361643 0.13234822 0.044157442
0.46277151 0.13345632 0.043644886
0.46279928 0.13437051 0.043639317
0.46110973 0.13659944 0.042614106
0.46988311 0.088482454 0.047774691
0.4707844 0.089261696 0.048276979
0.4699378 0.090282157 0.047763724
0.47083902 0.09105821 0.048266031
0.47174013 0.091831081 0.048768349
0.4717674 0.092727743 0.048762888
0.47266835 0.093495838 0.049265239
0.47269556 0.094390914 0.049259786
0.47359639 0.095154226 0.049762163
0.47449717 0.095914356 0.050264601
0.47452426 0.096806243 0.050259165
0.47542486 0.09756159 0.050761592
0.47545192 0.098451883 0.050756164
0.47635233 0.099202454 0.051258627
0.47637936 0.10009116 0.051253211
0.47727963 0.10083696 0.0517557
0.4773066 0.10172407 0.051750295
0.47820675 0.10246509 0.052252807
0.47910684 0.10320292 0.052755378
0.47913373 0.10408683 0.052749991
0.48003364 0.10481989 0.053252555
0.48093343 0.10554977 0.053755142
0.48096019 0.1064305 0.053749774
0.48185986 0.1071556 0.05425239
0.48188657 0.10803474 0.054247033
0.4819133 0.10891388 0.054241676
0.48194003 0.10979303 0.054236319
0.48196673 0.11067218 0.054230962
0.48112082 0.11171492 0.053717572
0.48114759 0.11259566 0.053712208
0.4803018 0.11364321 0.053198788
0.47945613 0.11469391 0.052685358
0.47861049 0.11574782 0.052171867
0.47776499 0.11680491 0.051658396
0.47691959 0.11786518 0.051144902
0.47607431 0.11892864 0.050631385
0.4743568 0.12017164 0.049609713
0.47351173 0.12124307 0.049096156
0.47179461 0.1224972 0.04807445
0.4709498 0.12357659 0.047560837
0.46923298 0.12484189 0.046539031
0.46838841 0.12592924 0.046025369
0.46754393 0.12701976 0.045511696
0.46669951 0.12811349 0.044997964
0.46585521 0.1292104 0.04448425
0.46501103 0.13031049 0.043970514
0.46416694 0.13141376 0.043456756
0.46332297 0.13252021 0.042942982
0.46335074 0.1334344 0.042937413
0.46250686 0.13454565 0.042423576
0.47132626 0.088341899 0.047587294
0.47135356 0.089240164 0.047581822
0.47138089 0.09013842 0.047576349
0.47140819 0.09103667 0.047570873
0.47230828 0.091809586 0.048074432
0.47320828 0.092579313 0.048578005
0.47323549 0.093474381 0.048572551
0.47413537 0.094239324 0.049076159
0.47416252 0.095132805 0.049070712
0.47506228 0.095892973 0.049574375
0.4750894 0.09678486 0.04956894
0.47598895 0.097540244 0.050072599
0.47688845 0.098292455 0.050576285
0.47691545 0.099181153 0.050570868
0.47781479 0.09992858 0.051074576
0.47784173 0.10081568 0.05106917
0.47874093 0.10155834 0.051572915
0.47964007 0.10229781 0.052076701
0.47966692 0.10318173 0.052071314
0.48056588 0.10391641 0.052575108
0.48146471 0.10464791 0.053078912
0.48149148 0.10552865 0.053073544
0.48151827 0.10640938 0.05306818
0.48154503 0.10729013 0.053062811
0.48244363 0.10801366 0.053566672
0.48247036 0.10889281 0.053561315
0.48162535 0.10993233 0.053046711
0.48165211 0.11081308 0.053041343
0.48167887 0.11169381 0.053035978
0.48083407 0.11273971 0.052521341
0.47998935 0.11378881 0.052006681
0.4800162 0.11467272 0.052001294
0.47830012 0.11589654 0.050977271
0.4783271 0.11678364 0.050971866
0.47661138 0.118017 0.049947821
0.47576714 0.11908202 0.049433067
0.47405168 0.12032653 0.048408922
0.47320768 0.12139951 0.04789412
0.47149262 0.12265516 0.046869937
0.47064883 0.12373612 0.04635505
0.46980515 0.12482024 0.045840181
0.4689616 0.12590754 0.045325287
0.46811813 0.12699804 0.044810377
0.46640381 0.12827919 0.043786008
0.46556059 0.12937765 0.043271054
0.46471745 0.13047929 0.042756069
0.46387443 0.13158412 0.042241074
0.46390221 0.13249829 0.042235505
0.46305928 0.13360792 0.04172045
0.46140173 0.13675565 0.040684737
0.47276741 0.088201426 0.047402371
0.47279465 0.089098096 0.047396906
0.47282192 0.089994758 0.047391441
0.47284919 0.090891421 0.047385979
0.47374821 0.091662779 0.047890779
0.47377542 0.092557847 0.047885325
0.47467431 0.093324423 0.04839015
0.47470149 0.094217904 0.048384704
0.4756003 0.094979696 0.048889592
0.47562739 0.09587159 0.048884157
0.47652602 0.096628614 0.049389038
0.47742453 0.097382449 0.049893949
0.47745153 0.098271146 0.049888533
0.47834989 0.099020205 0.050393462
0.47837687 0.099907316 0.050388057
0.47927511 0.10065159 0.05089302
0.48017326 0.10139268 0.051398035
0.48020014 0.10227661 0.051392648
0.48109812 0.10301293 0.05189766
0.48112494 0.10389525 0.051892284
0.48202276 0.1046268 0.052397322
0.48204955 0.10550754 0.052391954
0.48207632 0.10638826 0.052386586
0.48210308 0.10726901 0.052381221
0.48212984 0.10814974 0.052375853
0.48215663 0.10903049 0.052370485
0.4821834 0.10991122 0.052365121
0.48221016 0.11079196 0.052359752
0.48136631 0.11183622 0.051843893
0.48052254 0.11288368 0.051328015
0.4805494 0.11376761 0.051322628
0.47970575 0.11481985 0.050806683
0.47886223 0.11587527 0.050290752
0.47801879 0.11693387 0.049774807
0.47630513 0.11816875 0.048748285
0.4754619 0.11923531 0.048232257
0.47461882 0.12030508 0.047716241
0.47290564 0.12155588 0.046689622
0.4720628 0.12263359 0.04617355
0.47034991 0.12389556 0.045146838
0.46950728 0.12498123 0.044630725
0.4686648 0.1260701 0.04411459
0.46782234 0.12716216 0.043598406
0.46698001 0.12825739 0.043082234
0.4661378 0.1293558 0.042566046
0.4652957 0.13045742 0.042049829
0.46445367 0.1315622 0.041533601
0.46361169 0.13267018 0.041017324
0.46276987 0.13378136 0.040501051
0.46195608 0.13581465 0.039979164
0.4611145 0.13693377 0.039462846
0.47333556 0.088179931 0.04670845
0.47423375 0.088956103 0.047214452
0.47426096 0.089851178 0.047208998
0.47428817 0.090746246 0.047203541
0.47431538 0.091641322 0.047198087
0.47521329 0.092409529 0.047704138
0.47524047 0.093303002 0.047698691
0.47613829 0.094066426 0.048204802
0.47616541 0.094958313 0.048199367
0.47706306 0.095716976 0.048705474
0.47709012 0.096607268 0.04870005
0.47798765 0.09736114 0.049206182
0.47888502 0.098111831 0.049712345
0.478912 0.098998934 0.04970694
0.47980925 0.099744849 0.050213125
0.47983617 0.10063037 0.050207727
0.48073334 0.10137149 0.050713971
0.48076022 0.10225542 0.050708588
0.48165718 0.10299177 0.051214829
0.481684 0.1038741 0.051209453
0.48258084 0.10460568 0.051715724
0.4826076 0.10548642 0.051710356
0.48263437 0.10636715 0.051704992
0.48266116 0.10724789 0.051699623
0.48268792 0.10812863 0.051694255
0.48271468 0.10900937 0.051688891
0.48274145 0.1098901 0.051683523
0.48189855 0.11093275 0.051166438
0.48105577 0.11197856 0.050649337
0.48108262 0.11286249 0.050643951
0.48023993 0.1139131 0.050126787
0.47939736 0.11496689 0.049609635
0.4785549 0.11602386 0.04909246
0.47771251 0.11708402 0.048575267
0.47687027 0.11814737 0.048058059
0.47515875 0.11938854 0.047029004
0.47431672 0.12045985 0.046511747
0.47260562 0.12171217 0.04548265
0.47176376 0.12279145 0.044965312
0.47092208 0.1238739 0.044447985
0.46921146 0.12514214 0.043418799
0.46836996 0.12623258 0.042901389
0.46752861 0.12732618 0.042383991
0.46668735 0.12842296 0.041866578
0.46584618 0.12952293 0.041349147
0.46500513 0.1306261 0.040831693
0.46416411 0.13173246 0.04031419
0.46332327 0.13284199 0.039796699
0.46248248 0.1339547 0.039279182
0.46251041 0.13487366 0.039273582
0.4616698 0.13599116 0.038756043
0.46082923 0.13711184 0.038238451
0.47477368 0.08803957 0.046527214
0.47480088 0.088934645 0.046521761
0.47482809 0.089829713 0.046516307
0.4748553 0.090724789 0.046510853
0.47575229 0.091494627 0.047018122
0.47577944 0.092388108 0.047012679
0.47667632 0.093153156 0.047520012
0.47670344 0.094045043 0.047514576
0.47760013 0.09480533 0.048021909
0.47762719 0.09569563 0.048016481
0.47765425 0.096585922 0.048011057
0.47855073 0.097339831 0.048518427
0.47944713 0.098090559 0.049025815
0.4794741 0.09897767 0.04902041
0.48037034 0.099723615 0.049527828
0.48039728 0.10060913 0.04952243
0.48129344 0.10135029 0.050029911
0.48132029 0.10223422 0.050024524
0.48221627 0.10297062 0.050531998
0.48224309 0.10385294 0.050526623
0.48226988 0.10473528 0.050521247
0.48316568 0.10546531 0.051028762
0.48319244 0.10634603 0.051023394
0.48321921 0.10722677 0.051018026
0.48324597 0.10810751 0.051012661
0.48240399 0.10914693 0.050494362
0.48243082 0.11002926 0.050488986
0.48158896 0.11107345 0.04997066
0.48161584 0.11195737 0.049965274
0.48077407 0.11300636 0.049446885
0.47993249 0.11405851 0.04892851
0.47909099 0.11511385 0.048410118
0.47824958 0.11617238 0.047891703
0.47740826 0.1172341 0.047373269
0.476567 0.11829901 0.046854787
0.47485763 0.11954168 0.045823287
0.47401664 0.12061454 0.045304786
0.47317576 0.12169059 0.044786263
0.47146681 0.12294922 0.043754637
0.47062621 0.12403323 0.043236066
0.46978566 0.12512042 0.042717479
0.46807718 0.12639497 0.041685753
0.46723691 0.12749013 0.041167118
0.46639669 0.12858847 0.04064846
0.46555659 0.12968999 0.040129784
0.46471655 0.13079473 0.039611056
0.46300891 0.13209476 0.038579211
0.46303684 0.13301371 0.038573608
0.46219712 0.13412799 0.038054857
0.46135744 0.13524544 0.037536051
0.46051794 0.13636608 0.03701726
0.45967853 0.1374899 0.036498446
0.47534081 0.088018112 0.045834534
0.47536802 0.088913187 0.04582908
0.47539523 0.089808255 0.045823626
0.47542244 0.090703323 0.045818172
0.47631842 0.091473207 0.046326678
0.47634557 0.092366688 0.046321232
0.47724146 0.093131773 0.046829794
0.47726855 0.09402366 0.046824358
0.47816423 0.094783984 0.047332924
0.47819129 0.095674284 0.047327496
0.47908682 0.096429825 0.047836091
0.47911385 0.097318523 0.047830675
0.48000923 0.098069288 0.048339296
0.4800362 0.098956399 0.048333891
0.48093143 0.099702388 0.048842542
0.48095834 0.1005879 0.048837144
0.48185351 0.1013291 0.049345858
0.48188037 0.10221303 0.049340472
0.48277533 0.10294946 0.049849179
0.48280215 0.10383179 0.049843803
0.48282894 0.10471412 0.049838427
0.48285577 0.10559645 0.049833052
0.48288259 0.10647879 0.049827673
0.48290941 0.10736112 0.049822297
0.48293623 0.10824344 0.049816921
0.48296306 0.10912578 0.049811542
0.48212218 0.11016833 0.049291994
0.48214903 0.11105226 0.049286608
0.48130825 0.1120996 0.048766997
0.48046762 0.11315013 0.048247397
0.47962707 0.11420386 0.047727779
0.47878662 0.11526074 0.047208142
0.47794628 0.11632083 0.046688486
0.47710598 0.1173841 0.046168782
0.47626582 0.11845055 0.045649089
0.4745585 0.11969475 0.044615112
0.47371858 0.12076917 0.044095367
0.47287872 0.12184679 0.043575574
0.47117189 0.12310691 0.0425415
0.47033232 0.12419248 0.042021688
0.46862575 0.12546375 0.040987521
0.46778643 0.12655729 0.040467661
0.4669472 0.127654 0.039947782
0.46610805 0.1287539 0.039427884
0.46526897 0.12985699 0.03890793
0.46443003 0.13096327 0.038387995
0.46272445 0.13226481 0.037353668
0.46188569 0.13337904 0.036833651
0.46104708 0.13449645 0.036313646
0.46020856 0.13561706 0.035793625
0.4602367 0.13654239 0.035787985
0.45939833 0.13766778 0.03526793
0.47588074 0.087101579 0.0451473
0.47590795 0.087996654 0.045141846
0.47593516 0.08889173 0.045136388
0.47683021 0.089664824 0.045646109
0.47685739 0.090558305 0.045640666
0.47688454 0.091451786 0.04563522
0.47777945 0.092218511 0.046145003
0.47780657 0.09311039 0.046139568
0.47783369 0.094002277 0.046134133
0.47872835 0.094762638 0.046643931
0.47875541 0.095652938 0.046638507
0.47964993 0.096408516 0.047148332
0.47967693 0.097297221 0.047142915
0.48057133 0.098048024 0.047652774
0.4805983 0.098935135 0.047647364
0.48149252 0.099681154 0.048157249
0.48151943 0.10056667 0.048151854
0.48241359 0.10130791 0.048661795
0.48244044 0.10219184 0.048656408
0.48246732 0.10307577 0.048651021
0.48336121 0.10381064 0.049160972
0.48338804 0.10469297 0.049155597
0.48341486 0.1055753 0.049150221
0.48344168 0.10645763 0.049144842
0.48346847 0.10733996 0.049139466
0.4834953 0.10822229 0.049134091
0.48265538 0.10926323 0.048613317
0.48268226 0.11014714 0.048607931
0.48184243 0.11119287 0.048087101
0.48100275 0.11224176 0.04756628
0.48102972 0.11312886 0.047560874
0.47932369 0.1143491 0.046524577
0.47935075 0.1152394 0.046519153
0.47764495 0.1164692 0.04548277
0.47680575 0.11753402 0.044961851
0.47596666 0.11860203 0.044440914
0.4742614 0.11984774 0.04340446
0.4734225 0.12092372 0.042883448
0.47258374 0.12200288 0.04236244
0.47087899 0.12326453 0.041325893
0.47004041 0.12435166 0.040804811
0.46833599 0.12562445 0.039768193
0.46749771 0.12671953 0.039247092
0.46665952 0.12781779 0.038725972
0.46582139 0.12891926 0.0382048
0.46411759 0.13021275 0.037168056
0.46327975 0.13132218 0.036646873
0.46244195 0.13243479 0.03612563
0.46160433 0.13355057 0.035604399
0.46076676 0.13466954 0.035083149
0.45992932 0.1357917 0.034561887
0.45909196 0.13691704 0.0340406
0.45912018 0.13784556 0.034034941
0.47644791 0.087080121 0.044454612
0.47647509 0.087975197 0.044449158
0.4765023 0.088870265 0.044443704
0.47739637 0.089643404 0.044954658
0.47742352 0.090536885 0.044949211
0.47745067 0.091430366 0.044943769
0.47747782 0.09232384 0.044938322
0.47837168 0.093089007 0.04544935
0.4783988 0.093980893 0.045443915
0.47929245 0.094741292 0.045954946
0.47931951 0.095631592 0.045949522
0.48021305 0.096387215 0.04646058
0.48110646 0.097139642 0.046971653
0.48113343 0.098026752 0.046966247
0.48116037 0.098913863 0.046960842
0.48205361 0.099659927 0.047471959
0.48208052 0.10054544 0.047466565
0.48297366 0.10128672 0.047977742
0.48300052 0.10217065 0.047972355
0.4830274 0.10305457 0.047966968
0.48392028 0.10378949 0.048478149
0.4839471 0.10467181 0.048472773
0.48397392 0.10555415 0.048467394
0.48400074 0.10643648 0.048462018
0.48402756 0.1073188 0.048456643
0.4831886 0.1083581 0.047934651
0.48321545 0.10924203 0.047929265
0.48237661 0.11028611 0.047407206
0.48153788 0.11133338 0.046885159
0.48156485 0.11222049 0.046879753
0.48072627 0.11327253 0.046357688
0.47988778 0.11432777 0.045835592
0.47904941 0.11538617 0.045313478
0.47821108 0.11644778 0.044791318
0.47650754 0.11768386 0.043752465
0.4756695 0.11875343 0.043230284
0.47396627 0.12000067 0.042191327
0.47312847 0.1210782 0.041669097
0.47229078 0.12215891 0.041146856
0.47058803 0.12342207 0.040107798
0.46975055 0.12451075 0.039585505
0.46804821 0.12578505 0.038546413
0.46721098 0.1268817 0.038024072
0.46637383 0.12798153 0.037501674
0.46467194 0.12927176 0.03646249
0.46383506 0.13037954 0.035940073
0.46299821 0.13149053 0.035417613
0.46216154 0.13260469 0.034895159
0.46132496 0.13372202 0.034372687
0.46048847 0.13484256 0.0338502
0.45965207 0.13596626 0.033327691
0.45881572 0.13709317 0.032805134
0.45797953 0.13822325 0.032282583
0.45800784 0.13915496 0.032276906
0.47701505 0.087058663 0.043761928
0.47704223 0.087953731 0.043756474
0.47706944 0.088848807 0.04375102
0.47796249 0.089621983 0.044263199
0.47798964 0.090515465 0.044257756
0.47801679 0.091408938 0.04425231
0.4789097 0.092175744 0.04476456
0.47893682 0.093067624 0.044759128
0.47982952 0.093829654 0.045271382
0.47985658 0.094719954 0.045265954
0.48074913 0.095477201 0.045778237
0.48077613 0.096365906 0.045772824
0.48166856 0.097118378 0.04628513
0.4816955 0.098005489 0.046279725
0.48172247 0.098892592 0.046274316
0.4826147 0.099638693 0.04678667
0.48350686 0.10038161 0.047299065
0.48353374 0.10126553 0.047293678
0.48356059 0.10214946 0.047288291
0.48358747 0.10303338 0.047282904
0.48447934 0.10376833 0.047795326
0.48450616 0.10465066 0.047789946
0.48453298 0.105533 0.047784571
0.48369494 0.10656907 0.047261361
0.48372179 0.107453 0.047255974
0.48374867 0.10833691 0.047250587
0.48291075 0.10937937 0.046727311
0.48293769 0.11026488 0.046721917
0.48209998 0.11131211 0.046198636
0.48126236 0.11236252 0.045675345
0.48042485 0.11341612 0.045152027
0.47958744 0.1144729 0.044628687
0.47875005 0.11553288 0.044105306
0.47791284 0.11659604 0.043581937
0.47621137 0.11783363 0.042540606
0.4753744 0.11890475 0.04201718
0.47453746 0.11997905 0.04149371
0.47283649 0.12123258 0.040452283
0.47199985 0.12231486 0.03992879
0.47029915 0.12357955 0.038887262
0.46946275 0.12466977 0.038363725
0.46776244 0.1259456 0.037322164
0.46692625 0.1270438 0.036798541
0.46609017 0.12814516 0.03627494
0.46525422 0.12924974 0.035751309
0.4635545 0.13054627 0.034709588
0.46271878 0.13165881 0.034185916
0.46188316 0.13277452 0.033662219
0.46104762 0.1338934 0.03313851
0.46021217 0.13501549 0.032614775
0.45937678 0.13614075 0.032090995
0.45854157 0.13726921 0.03156722
0.45770642 0.13840084 0.031043433
0.45773479 0.13933414 0.031037746
0.45689979 0.14047056 0.030513924
0.47755498 0.08614213 0.043074697
0.47758219 0.087037198 0.043069243
0.47760937 0.087932274 0.04306379
0.47763658 0.088827349 0.043058336
0.47852862 0.089600563 0.043571748
0.47855577 0.090494044 0.043566301
0.47858295 0.091387518 0.043560859
0.47947481 0.092154361 0.044074349
0.47950193 0.093046241 0.044068914
0.48039362 0.093808308 0.044582397
0.48042068 0.094698608 0.044576969
0.48131225 0.095455892 0.045090482
0.48133925 0.096344598 0.045085065
0.48223063 0.097097106 0.045598611
0.4822576 0.097984217 0.045593206
0.48314887 0.09873195 0.046106774
0.48317578 0.099617466 0.046101376
0.48406693 0.10036042 0.046615008
0.48409382 0.10124434 0.046609621
0.48412067 0.10212827 0.046604235
0.48414755 0.10301219 0.046598848
0.4841744 0.1038961 0.046593461
0.48420128 0.10478003 0.046588074
0.48422813 0.10566396 0.046582688
0.48425502 0.10654788 0.046577301
0.48428187 0.10743181 0.046571918
0.48344493 0.10847262 0.046047416
0.48347184 0.10935815 0.046042021
0.48263511 0.11040373 0.045517523
0.48179844 0.11145252 0.044993002
0.48096189 0.11250448 0.044468466
0.48012543 0.11355963 0.043943912
0.48015255 0.11445152 0.043938477
0.47845277 0.1156795 0.042894706
0.47761661 0.11674421 0.042370092
0.47678053 0.1178121 0.041845452
0.47508124 0.119056 0.040801588
0.4742454 0.12013186 0.040276904
0.47254649 0.12138691 0.039232999
0.47171086 0.12247074 0.038708236
0.47001228 0.12373693 0.037664264
0.46917695 0.12482871 0.037139487
0.46747866 0.12610607 0.036095414
0.46664357 0.12720582 0.035570588
0.46580857 0.12830874 0.035045743
0.46497366 0.12941486 0.034520872
0.463276 0.13071291 0.033476677
0.46244133 0.131827 0.032951757
0.46160677 0.13294426 0.032426823
0.46077231 0.1340647 0.031901866
0.45993787 0.13518836 0.031376861
0.45910358 0.13631517 0.030851869
0.45826942 0.13744518 0.030326853
0.45743531 0.13857836 0.029801821
0.45746374 0.13951325 0.029796125
0.45662978 0.14065123 0.029271066
0.45665827 0.1415877 0.029265359
0.47814932 0.087015741 0.042376552
0.47817653 0.087910816 0.042371098
0.47820374 0.088805892 0.042365644
0.47823092 0.08970096 0.04236019
0.47912189 0.090472624 0.04287485
0.47914907 0.091366097 0.042869408
0.48003995 0.092132978 0.043384124
0.48006704 0.093024857 0.043378688
0.48095775 0.093786962 0.043893404
0.48098481 0.094677262 0.04388798
0.48187533 0.095434591 0.044402722
0.48190236 0.096323289 0.044397306
0.48279274 0.097075842 0.044912081
0.48281971 0.097962946 0.044906676
0.48370996 0.098710716 0.045421481
0.48373687 0.099596232 0.045416087
0.48462701 0.10033922 0.045930948
0.48465389 0.10122314 0.045925561
0.48468074 0.10210707 0.045920178
0.48470762 0.10299099 0.045914792
0.48473448 0.10387491 0.045909405
0.48476136 0.10475884 0.045904018
0.48478821 0.10564277 0.045898631
0.48481509 0.10652668 0.045893244
0.48397911 0.10756588 0.04536752
0.48400602 0.10845139 0.045362126
0.48317024 0.10949536 0.044836398
0.48319721 0.11038247 0.044830993
0.48236156 0.11143121 0.044305243
0.48152602 0.11248314 0.043779474
0.48069057 0.11353825 0.043253686
0.47985515 0.11459655 0.042727847
0.47901991 0.11565804 0.042202014
0.4773224 0.11689231 0.041155774
0.47648737 0.11796175 0.040629897
0.47479016 0.11920717 0.039583553
0.47395536 0.12028458 0.039057631
0.47225848 0.12154116 0.038011223
0.47142395 0.12262654 0.037485246
0.46972746 0.12389424 0.0364388
0.46889317 0.12498758 0.035912782
0.46719694 0.12626645 0.034866232
0.46636289 0.12736775 0.034340162
0.46552896 0.12847222 0.033814073
0.46383324 0.12976703 0.032767426
0.46299952 0.13087948 0.032241289
0.46216592 0.13199511 0.031715132
0.46133241 0.13311392 0.031188956
0.46049893 0.13423593 0.030662728
0.45966563 0.13536114 0.030136507
0.45883241 0.1364895 0.029610272
0.45799929 0.13762106 0.029084018
0.45716625 0.1387558 0.028557738
0.45719472 0.13969229 0.028552033
0.45636177 0.14083183 0.028025698
0.45639029 0.1417699 0.028019981
0.47877085 0.088784426 0.041672964
0.47966087 0.089557722 0.042188846
0.47968805 0.090451203 0.042183399
0.4797152 0.091344677 0.042177957
0.48060507 0.092111595 0.042693906
0.48063219 0.093003474 0.04268847
0.48152184 0.093765616 0.043204419
0.48154891 0.094655916 0.043198995
0.48243845 0.095413283 0.04371497
0.48246545 0.096301988 0.043709554
0.48335484 0.097054571 0.044225562
0.48338181 0.097941682 0.044220157
0.48427102 0.098689489 0.044736192
0.48429796 0.099575005 0.044730794
0.48432487 0.10046052 0.044725399
0.48521397 0.10120195 0.045241505
0.48524082 0.10208588 0.045236118
0.4852677 0.1029698 0.045230731
0.48529455 0.10385372 0.045225345
0.48532143 0.10473765 0.045219962
0.48534828 0.10562158 0.045214575
0.48451328 0.10665913 0.044687625
0.48454019 0.10754465 0.044682231
0.48370537 0.10858697 0.044155285
0.48373234 0.10947409 0.044149879
0.48289764 0.1105212 0.043622907
0.48206306 0.1115715 0.043095917
0.48122859 0.11262497 0.042568903
0.48039412 0.11368166 0.042041838
0.47955984 0.11474151 0.041514788
0.47872564 0.11580454 0.040987719
0.47703019 0.11704033 0.039938997
0.4761962 0.11811133 0.039411847
0.47450107 0.11935827 0.038363062
0.47366735 0.12043723 0.037835896
0.47197253 0.12169532 0.036787014
0.47113907 0.12278225 0.036259796
0.46944463 0.12405147 0.035210878
0.46861136 0.12514637 0.034683581
0.46691725 0.12642676 0.033634588
0.46608427 0.12752961 0.033107277
0.46525133 0.12863564 0.032579914
0.46355772 0.12993196 0.031530827
0.46358582 0.13085729 0.031525191
0.46189252 0.13216314 0.030476047
0.46106002 0.13328354 0.029948596
0.46022764 0.13440709 0.029421156
0.45939538 0.13553382 0.028893698
0.45856324 0.13666375 0.028366219
0.45859164 0.13759865 0.028360523
0.45775962 0.13873336 0.027833011
0.45692766 0.13987125 0.027305452
0.45695618 0.14080934 0.027299736
0.45698467 0.1417474 0.027294019
0.47933802 0.088762969 0.040980272
0.48022702 0.089536302 0.041497387
0.48025417 0.090429783 0.041491941
0.48028132 0.091323256 0.041486498
0.48117018 0.092090212 0.04200368
0.4811973 0.092982091 0.041998245
0.48122442 0.093873978 0.041992813
0.48211303 0.09463457 0.042510003
0.48300153 0.095391974 0.043027215
0.48302856 0.096280679 0.043021798
0.48391694 0.0970333 0.043539036
0.48394388 0.09792041 0.043533631
0.48483211 0.098668255 0.044050898
0.48485905 0.099553771 0.044045504
0.48488596 0.10043929 0.044040106
0.48577404 0.10118076 0.044557448
0.48580089 0.10206469 0.044552062
0.48582777 0.10294861 0.044546675
0.48585463 0.10383253 0.044541288
0.48588151 0.10471646 0.044535901
0.48504743 0.10575239 0.04400773
0.48507437 0.1066379 0.044002336
0.4842405 0.10767861 0.043474168
0.48426747 0.10856571 0.043468762
0.48343375 0.1096112 0.042940564
0.48260012 0.11065986 0.042412348
0.48176658 0.11171171 0.041884113
0.4817937 0.11260359 0.041878678
0.48009977 0.11382498 0.040827554
0.47926655 0.11488639 0.040299259
0.4784334 0.11595097 0.039770946
0.47673997 0.11718828 0.038719721
0.47590706 0.11826084 0.038191359
0.47421402 0.11950929 0.037140101
0.47338131 0.12058982 0.036611658
0.4716886 0.12184941 0.035560336
0.47085619 0.1229379 0.035031877
0.46916378 0.12420864 0.033980452
0.46833161 0.12530509 0.033451941
0.46663958 0.12658697 0.032400478
0.46580759 0.1276914 0.031871893
0.46497577 0.12879899 0.031343315
0.46414402 0.12990977 0.030814722
0.46331239 0.13102373 0.030286107
0.46162108 0.13233112 0.029234456
0.46078968 0.13345306 0.028705794
0.46081799 0.13438475 0.028700117
0.45998675 0.13551146 0.028171424
0.45915559 0.13664134 0.027642714
0.45832455 0.13777442 0.027113983
0.45749354 0.1389107 0.026585201
0.45752203 0.13984877 0.026579484
0.45669124 0.14098981 0.026050705
0.47990516 0.088741511 0.04028758
0.48079315 0.089514881 0.040805928
0.4808203 0.090408355 0.040800486
0.4817082 0.091176942 0.041318893
0.48173532 0.092068829 0.041313458
0.48176241 0.092960708 0.041308023
0.48178953 0.093852594 0.041302588
0.48267713 0.094613224 0.04182101
0.48270419 0.095503524 0.041815586
0.48359165 0.09625937 0.042334039
0.48447904 0.097012036 0.042852506
0.48450598 0.097899139 0.042847101
0.48453295 0.09878625 0.042841695
0.48542014 0.099532545 0.043360207
0.48544705 0.10041806 0.043354809
0.48547396 0.10130357 0.043349415
0.486361 0.10204349 0.043867998
0.48638785 0.10292742 0.043862611
0.48641473 0.10381133 0.043857224
0.48558161 0.10484564 0.043327831
0.48560855 0.10573116 0.043322433
0.48477563 0.10677022 0.042793043
0.4848026 0.10765734 0.042787638
0.48396984 0.10870118 0.042258222
0.48313716 0.10974822 0.041728783
0.4823046 0.11079843 0.041199323
0.48233172 0.11169033 0.041193888
0.48063973 0.11290844 0.040140316
0.48066694 0.11380352 0.040134862
0.47897527 0.11503118 0.039081268
0.47814319 0.11609733 0.038551711
0.47645181 0.11733615 0.037498012
0.47561997 0.11841026 0.036968406
0.47392893 0.11966024 0.035914645
0.47309735 0.12074231 0.03538499
0.4714067 0.12200341 0.034331188
0.47057533 0.12309346 0.033801485
0.46888497 0.12436572 0.032747585
0.46805388 0.12546372 0.032217838
0.46636385 0.12674715 0.031163871
0.46553299 0.12785311 0.030634072
0.46470222 0.12896225 0.030104253
0.46387154 0.13007459 0.029574415
0.46304095 0.13119011 0.029044559
0.46135172 0.13249901 0.027990438
0.46138003 0.13343072 0.027984759
0.46054974 0.13455579 0.027454844
0.45971954 0.13568404 0.02692491
0.45974797 0.13661893 0.026919212
0.45891792 0.13775197 0.026389249
0.45808792 0.1388882 0.025859233
0.45811644 0.13982628 0.025853517
0.45728663 0.14096728 0.025323505
0.4804723 0.088720053 0.039594904
0.48135927 0.089493461 0.040114481
0.48138642 0.090386935 0.040109038
0.48227331 0.091155559 0.040628672
0.48144075 0.092173897 0.040098149
0.48232755 0.092939325 0.040617805
0.48235464 0.093831211 0.04061237
0.48324126 0.094591878 0.041132025
0.48326832 0.095482178 0.041126601
0.48415476 0.096238062 0.041646287
0.48418176 0.097126767 0.041640874
0.48506808 0.097877875 0.042160582
0.48509505 0.098764986 0.042155176
0.4859812 0.09951131 0.042674921
0.48600811 0.10039683 0.042669527
0.48603505 0.10128234 0.042664129
0.48606196 0.10216787 0.042658735
0.48608887 0.10305338 0.042653337
0.48611578 0.10393889 0.042647943
0.48614269 0.10482442 0.042642545
0.48531076 0.10586185 0.04211193
0.48533773 0.10674896 0.042106524
0.48450592 0.10779118 0.041575886
0.48367423 0.10883658 0.041045222
0.48370129 0.10972688 0.041039798
0.48286971 0.11077705 0.040509105
0.4820382 0.11183044 0.039978366
0.48120686 0.11288698 0.039447635
0.47951713 0.11411139 0.03839159
0.478686 0.1151759 0.037860814
0.47785491 0.11624362 0.037329983
0.47702399 0.1173145 0.036799166
0.47533488 0.11855961 0.035742998
0.47364593 0.1198111 0.034686759
0.47281539 0.12089472 0.034155861
0.47112679 0.12215736 0.033099588
0.47029644 0.12324896 0.032568611
0.46860823 0.12452273 0.031512268
0.46777818 0.12562229 0.030981276
0.4660902 0.12690721 0.029924832
0.46526039 0.12801474 0.02939379
0.46443069 0.12912543 0.02886273
0.46360105 0.13023934 0.028331649
0.46277148 0.1313564 0.027800523
0.46194208 0.13247667 0.027269403
0.46111274 0.13360012 0.026738264
0.46028349 0.13472675 0.026207112
0.45945436 0.13585655 0.025675934
0.45948282 0.13679303 0.025670227
0.45865378 0.13792764 0.025138989
0.4586823 0.13886571 0.025133273
0.45785347 0.14000508 0.024602043
0.45788202 0.14094475 0.024596315
0.48103943 0.088698588 0.038902212
0.4819254 0.089472033 0.039423026
0.48195258 0.090365514 0.03941758
0.48197973 0.091258995 0.039412137
0.48286557 0.092026062 0.039933015
0.48289266 0.092917942 0.039927579
0.48291978 0.093809828 0.039922144
0.48380536 0.09457054 0.040443037
0.48383242 0.095460832 0.040437609
0.48471788 0.096216761 0.040958524
0.48474488 0.097105458 0.040953107
0.48563018 0.097856604 0.041474059
0.48565716 0.098743714 0.041468654
0.4856841 0.099630825 0.041463248
0.48656923 0.1003756 0.04198423
0.48659614 0.10126111 0.041978832
0.48662305 0.10214663 0.041973438
0.48664996 0.10303215 0.04196804
0.48667687 0.10391766 0.041962646
0.48584589 0.10495348 0.041430812
0.48587286 0.10584058 0.041425407
0.48504201 0.10688117 0.04089354
0.48506904 0.10776987 0.040888123
0.48423833 0.10881524 0.040356234
0.48340774 0.1098638 0.039824314
0.4825772 0.11091553 0.039292354
0.48174679 0.11197045 0.038760398
0.48091647 0.11302856 0.03822843
0.48008627 0.11408985 0.037696436
0.47839871 0.11532056 0.036637858
0.47756875 0.11638982 0.036105815
0.47588155 0.11763167 0.0350472
0.47505176 0.11870889 0.034515083
0.47336492 0.1199619 0.0334564
0.47253543 0.12104706 0.032924261
0.47084889 0.12231123 0.031865478
0.47001964 0.12340438 0.03133329
0.46833348 0.12467966 0.030274473
0.46750441 0.12578079 0.029742209
0.46581858 0.12706721 0.028683323
0.46498984 0.12817629 0.028151039
0.46416119 0.12928855 0.02761874
0.46333256 0.130404 0.027086385
0.46250409 0.13152263 0.026554041
0.46167573 0.13264444 0.026021684
0.46084747 0.13376945 0.025489302
0.46001929 0.13489762 0.024956906
0.46004775 0.13583411 0.024951199
0.45921966 0.13696708 0.024418738
0.45924819 0.13790515 0.024413021
0.45842031 0.13904288 0.023880567
0.45844886 0.13998255 0.023874842
0.45847741 0.14092222 0.023869114
0.48160657 0.088677131 0.038209531
0.48249152 0.089450613 0.038731571
0.4825187 0.090344094 0.038726129
0.48254585 0.091237575 0.038720682
0.48343068 0.092004679 0.039242797
0.48345777 0.092896558 0.039237361
0.48348489 0.093788445 0.039231926
0.48436949 0.094549194 0.039754052
0.48439655 0.095439486 0.039748624
0.48442361 0.096329778 0.0397432
0.48530799 0.09708415 0.040265355
0.48619226 0.09783534 0.04078754
0.48621923 0.098722443 0.040782135
0.4862462 0.099609554 0.04077673
0.48627317 0.10049666 0.04077132
0.4871572 0.10123988 0.041293547
0.48718414 0.10212541 0.041288152
0.48635405 0.10315798 0.040755104
0.48638102 0.10404509 0.040749699
0.48640797 0.1049322 0.040744293
0.48643494 0.10581931 0.040738888
0.48560512 0.10685986 0.040205788
0.48477539 0.10790361 0.039672673
0.48394576 0.10895052 0.039139532
0.48397285 0.10984241 0.039134096
0.48228672 0.11105392 0.038073175
0.48145738 0.1121104 0.037539978
0.48062813 0.11317006 0.037006766
0.47979897 0.11423291 0.036473528
0.47811347 0.11546513 0.035412472
0.47728455 0.11653594 0.034879193
0.47645575 0.11760994 0.034345895
0.47477072 0.11885808 0.033284742
0.47308594 0.1201126 0.032223582
0.47225752 0.12119933 0.031690206
0.47057304 0.12246501 0.030628948
0.46974483 0.12355971 0.030095516
0.46806067 0.12483652 0.029034195
0.46723273 0.12593919 0.028500715
0.46640491 0.12704504 0.027967222
0.46557716 0.12815407 0.027433705
0.46389362 0.12945159 0.02637225
0.46306613 0.13056859 0.02583869
0.46309444 0.13150029 0.025833013
0.46226707 0.13262206 0.025299422
0.46143982 0.13374703 0.024765806
0.46061265 0.13487518 0.024232179
0.45978555 0.13600652 0.023698492
0.45981404 0.13694458 0.023692776
0.45898712 0.1380807 0.023159098
0.4590157 0.13902035 0.023153372
0.45904425 0.13996002 0.023147646
0.48217371 0.088655673 0.03751684
0.48305768 0.089429192 0.038040116
0.48308483 0.090322673 0.03803467
0.48311198 0.091216147 0.038029227
0.48313916 0.092109628 0.038023781
0.48402292 0.092875175 0.038547136
0.48405004 0.093767062 0.038541701
0.48493358 0.094527848 0.039065059
0.48496065 0.09541814 0.039059635
0.48498771 0.096308433 0.039054208
0.48587108 0.097062841 0.0395776
0.48589811 0.097951546 0.039572183
0.48678133 0.098701179 0.040095605
0.4868083 0.09958829 0.0400902
0.48683527 0.10047539 0.04008479
0.48686221 0.1013625 0.040079385
0.48688918 0.10224961 0.04007398
0.48691615 0.10313672 0.040068574
0.48694313 0.10402383 0.040063169
0.48697007 0.10491093 0.040057763
0.4861412 0.10594986 0.039523445
0.48531243 0.10699195 0.038989108
0.48533949 0.10788226 0.03898368
0.48451087 0.10892913 0.03844931
0.4836823 0.10997922 0.037914891
0.48285386 0.11103246 0.037380483
0.48117 0.11225027 0.03631708
0.48034179 0.11331148 0.035782628
0.47951365 0.1143759 0.035248119
0.47868565 0.11544348 0.034713622
0.47700241 0.11668199 0.033650097
0.4753193 0.11792688 0.0325865
0.47449169 0.1190072 0.032051928
0.47280899 0.12026323 0.030988291
0.47198156 0.12135153 0.030453641
0.47029918 0.12261871 0.029389942
0.46947208 0.12371497 0.028855268
0.46778998 0.1249933 0.02779147
0.46696308 0.12609753 0.027256755
0.46613631 0.12720491 0.026722012
0.46530962 0.12831551 0.026187258
0.46448296 0.1294293 0.02565245
0.46365649 0.13054626 0.025117651
0.4628301 0.13166639 0.024582837
0.46200377 0.13278972 0.024048002
0.46117759 0.13391624 0.023513151
0.46120605 0.13485272 0.023507444
0.46037993 0.13598402 0.022972524
0.46040845 0.13692209 0.022966808
0.45958254 0.13805817 0.022431897
0.45961109 0.13899782 0.022426171
0.45963964 0.13993749 0.022420445
0.48359665 0.088514291 0.037354108
0.4836238 0.089407772 0.037348665
0.48365095 0.090301253 0.037343219
0.4836781 0.091194727 0.037337773
0.48370528 0.092088208 0.03733233
0.48458803 0.092853792 0.037856918
0.48461515 0.093745679 0.037851483
0.48549768 0.094506502 0.038376074
0.48552477 0.095396802 0.03837065
0.48555183 0.096287094 0.038365223
0.48643419 0.09704154 0.038889848
0.48646119 0.097930238 0.038884431
0.48734343 0.098679908 0.039409086
0.4873704 0.099567018 0.039403681
0.48739734 0.10045412 0.039398275
0.48742431 0.10134123 0.039392866
0.48745129 0.10222834 0.039387461
0.48747826 0.10311545 0.039382055
0.4875052 0.10400256 0.03937665
0.48667729 0.10503985 0.03884111
0.4858495 0.10608032 0.038305547
0.48587656 0.10697061 0.038300119
0.48504889 0.10801587 0.037764523
0.48422128 0.10906431 0.037228882
0.48339379 0.11011593 0.036693253
0.48256642 0.11117074 0.036157604
0.48173913 0.11222874 0.035621934
0.48005742 0.11345284 0.034556001
0.4792304 0.1145188 0.034020282
0.47754908 0.11575405 0.032954309
0.47672221 0.11682796 0.032418508
0.47504124 0.11807437 0.031352472
0.47421467 0.11915625 0.030816657
0.472534 0.12041381 0.029750513
0.47170767 0.12150364 0.02921465
0.47088146 0.12259667 0.028678769
0.46920124 0.12387016 0.027612533
0.46837527 0.12497115 0.027076604
0.46754941 0.12607534 0.026540654
0.46586972 0.12736472 0.025474347
0.46504405 0.12847689 0.024938317
0.4642185 0.12959221 0.0244023
0.46424684 0.13052392 0.024396621
0.46256772 0.13183242 0.023330204
0.46259615 0.1327673 0.023324508
0.46177095 0.13389379 0.022788422
0.46094581 0.13502346 0.022252278
0.46097431 0.13596153 0.022246562
0.46014935 0.13709597 0.021710427
0.46017793 0.13803564 0.021704702
0.46020648 0.13897529 0.021698976
0.48330799 0.08861275 0.036131471
0.48418993 0.089386351 0.03665721
0.48421708 0.090279832 0.036651768
0.48424426 0.091173306 0.036646321
0.48427141 0.092066787 0.036640879
0.48515314 0.092832409 0.0371667
0.48518026 0.093724295 0.037161265
0.48606181 0.094485156 0.037687082
0.48608887 0.095375456 0.037681658
0.48611593 0.096265748 0.037676234
0.48699731 0.097020231 0.038202088
0.48702431 0.097908936 0.038196675
0.48705131 0.098797627 0.038191259
0.48793247 0.099545747 0.038717154
0.48795944 0.10043285 0.038711749
0.48798642 0.10131996 0.038706344
0.48801339 0.10220708 0.038700938
0.48718637 0.10324114 0.03816418
0.4872134 0.10412984 0.038158767
0.4872404 0.10501854 0.03815335
0.4864136 0.10605898 0.037616555
0.48558691 0.1071026 0.03707974
0.485614 0.10799449 0.037074305
0.4847874 0.10904289 0.036537431
0.48396093 0.11009447 0.036000568
0.482281 0.11130894 0.034932252
0.48145479 0.11236849 0.034395341
0.47977513 0.11359411 0.033326928
0.47894916 0.11466162 0.032789968
0.47812328 0.11573232 0.03225299
0.47644413 0.11697386 0.031184481
0.47476518 0.11822178 0.030115968
0.47393969 0.11930522 0.029578909
0.47226107 0.12056428 0.028510295
0.47143582 0.12165569 0.02797319
0.47061065 0.12275027 0.027436065
0.46893251 0.12402527 0.026367353
0.46810761 0.12512781 0.025830179
0.46728277 0.12623356 0.025292987
0.46645805 0.12734246 0.024755774
0.46563339 0.12845458 0.024218511
0.46480885 0.12956987 0.023681259
0.46398443 0.13068834 0.023143988
0.4631601 0.13181001 0.022606699
0.46233585 0.13293485 0.022069389
0.46151167 0.1340629 0.021532029
0.46154019 0.13500097 0.021526312
0.46071619 0.13613378 0.020988954
0.46074477 0.13707344 0.020983228
0.46077332 0.13801311 0.020977501
0.46080187 0.13895276 0.020971775
0.38606533 0.030092811 -0.023754548
0.38609797 0.031166261 -0.02376109
0.48390234 0.089486368 0.035433326
0.48478323 0.090258412 0.035960309
0.48566407 0.09102726 0.036487345
0.48483753 0.092045367 0.03594942
0.48571828 0.092811026 0.036476474
0.4857454 0.093702912 0.036471039
0.48662594 0.09446381 0.036998086
0.486653 0.09535411 0.036992662
0.48668006 0.096244402 0.036987234
0.48756039 0.096998923 0.037514325
0.48758742 0.097887628 0.037508912
0.48761442 0.098776326 0.037503496
0.48849458 0.099524483 0.038030624
0.48852155 0.10041159 0.038025219
0.48854852 0.10129869 0.038019814
0.48772249 0.10233113 0.037481833
0.48774949 0.10321983 0.037476417
0.48777649 0.10410853 0.037471004
0.48695067 0.10514733 0.036932983
0.48697773 0.10603763 0.036927558
0.48615202 0.10708121 0.036389515
0.48532638 0.10812799 0.035851415
0.48450089 0.10917794 0.035313331
0.48367548 0.11023108 0.034775224
0.48199761 0.11144706 0.033704437
0.48117238 0.11250817 0.033166252
0.48034734 0.11357246 0.032628078
0.47866994 0.11480437 0.031557199
0.4769927 0.11604266 0.030486243
0.47616801 0.11711968 0.029947992
0.47449115 0.11836912 0.028877001
0.47366667 0.11945412 0.028338669
0.47199017 0.12071469 0.027267616
0.47116596 0.12180764 0.026729267
0.47034183 0.12290379 0.026190868
0.46866578 0.1241803 0.025119713
0.46869391 0.12510563 0.025114072
0.46701819 0.12639169 0.02404286
0.46619445 0.12750217 0.023504378
0.46537089 0.12861584 0.022965902
0.46454743 0.12973267 0.022427408
0.46372405 0.13085271 0.021888895
0.46290079 0.13197592 0.021350361
0.46207756 0.13310233 0.020811778
0.46210608 0.1340404 0.020806061
0.46128303 0.13517158 0.020267479
0.46131161 0.13611124 0.020261753
0.46134016 0.13705091 0.020256028
0.46051732 0.13818847 0.019717406
0.48529503 0.088450029 0.035279747
0.48532221 0.089343511 0.035274301
0.48534936 0.090236992 0.035268858
0.48537651 0.091130465 0.035263412
0.4862563 0.091897763 0.035791691
0.48628339 0.092789643 0.035786256
0.48631051 0.093681529 0.035780821
0.48719004 0.094442464 0.036309101
0.4872171 0.095332764 0.036303677
0.48724416 0.096223056 0.036298249
0.48812351 0.096977614 0.036826573
0.48815051 0.097866319 0.03682116
0.48817754 0.098755017 0.036815744
0.48820454 0.099643722 0.036810327
0.48823154 0.10053242 0.036804911
0.48825857 0.10142112 0.036799498
0.48828557 0.10230983 0.036794081
0.4883126 0.10319852 0.036788665
0.4874877 0.10423569 0.036249425
0.48751476 0.10512599 0.036243998
0.48669004 0.10616795 0.035704732
0.48586535 0.10721309 0.03516541
0.48504081 0.10826141 0.0346261
0.48421636 0.10931292 0.034086775
0.48339203 0.11036761 0.033547428
0.48256776 0.11142548 0.033008058
0.48089206 0.11264777 0.031934738
0.48006806 0.11371361 0.031395324
0.47839269 0.11494705 0.03032193
0.47671756 0.11618685 0.029248537
0.47589394 0.11726543 0.028709043
0.47421908 0.11851639 0.027635548
0.47339571 0.11960293 0.027096005
0.47257245 0.12069266 0.026556443
0.47089809 0.12195954 0.025482852
0.47007504 0.12305724 0.024943242
0.46925211 0.12415811 0.024403611
0.46842927 0.12526217 0.023863962
0.46675554 0.12654977 0.022790244
0.46593294 0.12766179 0.022250546
0.46511042 0.12877701 0.021710834
0.464288 0.1298954 0.021171097
0.46346569 0.13101698 0.020631339
0.46349415 0.13195346 0.020625634
0.46267194 0.13307984 0.020085815
0.46184987 0.13420939 0.019546015
0.46187842 0.13514905 0.019540289
0.461907 0.13608873 0.019534564
0.46108511 0.13722463 0.018994721
0.48495501 0.086758226 0.034064319
0.48498222 0.087653302 0.034058865
0.4850094 0.088548377 0.034053408
0.48503661 0.089443445 0.034047954
0.48591548 0.090215564 0.034577399
0.48594263 0.091109045 0.034571957
0.48682141 0.09187638 0.035101466
0.48684853 0.092768259 0.035096031
0.48687562 0.093660146 0.035090595
0.48775417 0.094421118 0.035620108
0.48778123 0.095311418 0.035614684
0.48780829 0.09620171 0.03560926
0.48868662 0.096956313 0.036138818
0.48871362 0.09784501 0.036133401
0.48874062 0.098733708 0.036127985
0.48876765 0.099622414 0.036122572
0.48879465 0.10051111 0.036117155
0.48882166 0.10139981 0.036111739
0.48884869 0.10228852 0.036106322
0.48802477 0.10332406 0.035565857
0.48805183 0.10421435 0.035560433
0.48722804 0.10525467 0.035019942
0.48725516 0.10614657 0.035014506
0.48643148 0.10719167 0.034473952
0.48560795 0.10823996 0.033933416
0.48393387 0.10944781 0.032857742
0.48311058 0.11050407 0.032317158
0.48228735 0.1115635 0.031776514
0.48061374 0.11278731 0.030700751
0.47979081 0.11385469 0.03016009
0.4781175 0.11508965 0.029084226
0.47729477 0.116165 0.028543524
0.47562188 0.11741109 0.02746762
0.4739491 0.11866357 0.02639165
0.47312677 0.11975166 0.02585087
0.47230455 0.12084296 0.025310064
0.47063228 0.12211135 0.024233997
0.46981028 0.12321059 0.023693142
0.46898842 0.12431303 0.023152269
0.46816662 0.12541865 0.022611381
0.46734488 0.12652747 0.022070438
0.46652329 0.12763946 0.021529512
0.46570179 0.12875463 0.020988561
0.46488038 0.12987298 0.020447589
0.46405908 0.13099453 0.019906607
0.46323782 0.13211927 0.019365564
0.46326634 0.13305736 0.019359848
0.46244526 0.13418686 0.018818814
0.46162429 0.13531955 0.018277757
0.4616529 0.13626082 0.018272022
0.46168151 0.13720207 0.018266285
0.48549494 0.0858417 0.033377089
0.48552215 0.086736768 0.033371631
0.48554936 0.087631844 0.033366177
0.48557654 0.088526919 0.033360723
0.48560375 0.089421988 0.03335527
0.48648161 0.090194143 0.033885948
0.48650879 0.091087624 0.033880502
0.48738652 0.091854997 0.034411248
0.48741364 0.092746876 0.034405813
0.48744076 0.093638763 0.034400377
0.48831826 0.09439978 0.034931123
0.48834532 0.095290072 0.034925699
0.48837239 0.096180364 0.034920275
0.48839945 0.097070657 0.034914847
0.48927671 0.097823709 0.035445649
0.48930374 0.0987124 0.035440233
0.48933074 0.099601105 0.03543482
0.48935777 0.10048981 0.035429403
0.48938477 0.1013785 0.035423987
0.48856181 0.10241242 0.034882296
0.48858887 0.10330272 0.034876872
0.48776606 0.1043414 0.034335159
0.48779318 0.10523329 0.034329724
0.48697045 0.10627677 0.033787943
0.48614788 0.10732342 0.033246182
0.4853254 0.10837326 0.032704402
0.48450303 0.10942628 0.032162596
0.48283112 0.11064045 0.031084394
0.48200899 0.11170144 0.030542545
0.48033744 0.11292674 0.029464304
0.47951552 0.11399571 0.02892237
0.47784433 0.11523216 0.027844062
0.47702268 0.11630908 0.027302116
0.47535178 0.11755669 0.02622371
0.47368112 0.11881068 0.025145296
0.47285986 0.11990032 0.024603266
0.47203866 0.12099318 0.024061192
0.47036847 0.12226307 0.022982681
0.46954754 0.12336388 0.02244059
0.46872672 0.12446787 0.021898473
0.46790594 0.12557505 0.021356311
0.4670853 0.12668543 0.020814154
0.46626475 0.12779896 0.020271987
0.46544433 0.12891568 0.019729791
0.46462399 0.13003559 0.019187585
0.46380368 0.13115871 0.018645318
0.46298355 0.132285 0.018103072
0.4630121 0.13322467 0.018097347
0.46304065 0.13416433 0.018091621
0.4622207 0.13529699 0.017549329
0.46224931 0.13623825 0.017543593
0.48606208 0.085820235 0.032684397
0.48608929 0.086715311 0.032678943
0.48696628 0.087492287 0.033210829
0.48699343 0.088385761 0.033205386
0.48702058 0.089279242 0.03319994
0.48704776 0.090172723 0.033194497
0.48707491 0.091066204 0.033189051
0.48795167 0.091833614 0.033721022
0.48797876 0.092725493 0.033715591
0.48800588 0.09361738 0.033710156
0.48888239 0.094378434 0.034242135
0.48890945 0.095268726 0.034236707
0.48893651 0.096159019 0.034231283
0.48896357 0.097049311 0.034225859
0.48983982 0.097802401 0.03475789
0.48986685 0.098691098 0.034752477
0.48989385 0.099579796 0.03474706
0.48992085 0.1004685 0.034741644
0.48909888 0.10150078 0.034198731
0.48912594 0.10239108 0.034193307
0.489153 0.10328137 0.034187883
0.4883312 0.10432002 0.033644937
0.48835829 0.10521191 0.033639502
0.48668781 0.1064069 0.032558948
0.48671502 0.10730196 0.032553494
0.4850449 0.10850649 0.031472918
0.48422357 0.10956106 0.030929869
0.48255372 0.11077675 0.029849196
0.48173264 0.11183929 0.029306099
0.48091167 0.11290502 0.028762987
0.4792423 0.11413663 0.027682209
0.47757319 0.1153746 0.026601432
0.47675258 0.11645308 0.026058238
0.47508377 0.11770221 0.02497736
0.4742634 0.11878864 0.024434118
0.47259492 0.12004892 0.023353171
0.47177482 0.12114331 0.02280988
0.47095481 0.12224089 0.022266574
0.46928683 0.12351709 0.021185558
0.46846703 0.12462264 0.020642173
0.46764734 0.12573136 0.020098798
0.46682775 0.12684329 0.019555401
0.46600828 0.12795839 0.019011987
0.46518889 0.12907667 0.018468557
0.46436957 0.13019815 0.017925069
0.46355036 0.1313228 0.017381597
0.46357894 0.13226247 0.017375872
0.46360749 0.13320214 0.017370146
0.46278849 0.13433316 0.016826637
0.4628171 0.13527443 0.0168209
0.48662922 0.085798778 0.031991713
0.48750526 0.086577386 0.032524817
0.48753241 0.087470859 0.032519374
0.48755956 0.08836434 0.032513928
0.48758674 0.089257821 0.032508481
0.48846257 0.090028457 0.033041675
0.48764104 0.091044776 0.032497592
0.48851678 0.091812231 0.033030804
0.4885439 0.09270411 0.033025369
0.48857099 0.093595996 0.033019934
0.48944649 0.094357088 0.03355315
0.48947355 0.09524738 0.033547722
0.48950061 0.09613768 0.033542298
0.48952767 0.097027972 0.033536874
0.49040294 0.097781092 0.034070134
0.49042994 0.09866979 0.034064718
0.49045697 0.099558495 0.034059301
0.48963591 0.10058914 0.03351517
0.48966298 0.10147944 0.033509746
0.48969004 0.10236973 0.033504322
0.4897171 0.10326003 0.033498894
0.48889631 0.10429864 0.032954715
0.48807555 0.10534045 0.03241048
0.48725495 0.10638543 0.03186626
0.48643446 0.1074336 0.031322025
0.48561403 0.10848496 0.030777767
0.48394608 0.10969578 0.02969465
0.4831259 0.1107551 0.029150344
0.48145834 0.11197708 0.028067196
0.48063836 0.11304437 0.02752281
0.47897109 0.11427748 0.026439589
0.47730404 0.11551698 0.025356336
0.47648448 0.11659701 0.024811871
0.47481775 0.11784764 0.023728544
0.47399846 0.11893564 0.023184063
0.47233203 0.12019742 0.02210064
0.47151297 0.12129338 0.021556105
0.47069404 0.12239251 0.021011557
0.46987516 0.12349483 0.020466991
0.46820936 0.12477734 0.019383442
0.4682377 0.12570903 0.019377764
0.46657223 0.12700109 0.018294184
0.46575382 0.12811774 0.017749529
0.46493542 0.12923759 0.017204823
0.4641172 0.1303606 0.01666013
0.46414578 0.13130027 0.016654402
0.46332768 0.13242808 0.016109673
0.46250969 0.13355906 0.015564932
0.46253836 0.13450192 0.015559186
0.46172047 0.13563769 0.015014382
0.48719636 0.08577732 0.031299025
0.48807138 0.086555958 0.031833366
0.48725078 0.087567464 0.031288117
0.48812568 0.08834292 0.031822477
0.48815286 0.089236401 0.03181703
0.48818001 0.090129882 0.031811588
0.4890548 0.090898961 0.032346018
0.48908189 0.091790847 0.032340582
0.48910901 0.092682727 0.032335147
0.48998356 0.093445443 0.032869581
0.49001062 0.094335742 0.032864157
0.49003768 0.095226042 0.032858733
0.49006474 0.096116334 0.032853305
0.4900918 0.097006626 0.032847881
0.49011886 0.097896911 0.032842457
0.49099305 0.098648481 0.033376962
0.49017298 0.099677511 0.032831606
0.49020004 0.1005678 0.032826182
0.4902271 0.1014581 0.032820754
0.49025416 0.10234839 0.03281533
0.48943433 0.10338537 0.032269929
0.48946142 0.10427725 0.032264493
0.48864168 0.10531903 0.031719029
0.48782209 0.10636397 0.031173576
0.4861559 0.10756516 0.030088089
0.48533654 0.10861807 0.029542588
0.48367065 0.10983042 0.028457001
0.48285154 0.11089129 0.027911453
0.48118597 0.11211479 0.026825797
0.47952065 0.11334464 0.025740128
0.47870192 0.11441825 0.025194502
0.47703689 0.11565927 0.02410874
0.4762184 0.11674085 0.023563065
0.47540003 0.11782561 0.023017369
0.47373548 0.11908256 0.02193151
0.47291735 0.12017528 0.021385768
0.47125319 0.12144337 0.020299872
0.47043526 0.12254405 0.01975408
0.46961743 0.12364794 0.019208238
0.46879971 0.124755 0.018662408
