# .PCD v0.7 - Point Cloud Data file format
VERSION 0.7
FIELDS x y z
SIZE 4 4 4
TYPE F F F
COUNT 1 1 1
WIDTH 1352
HEIGHT 1
VIEWPOINT 0 0 0 1 0 0 0
POINTS 1352
DATA ascii
0.47436866 0.035054848 0.020132503
0.47439665 0.035975404 0.020126894
0.47442463 0.036895957 0.020121284
0.47445261 0.03781651 0.020115675
0.47448057 0.038737066 0.020110065
0.47450855 0.039657619 0.020104455
0.47453654 0.040578175 0.020098846
0.47456452 0.041498728 0.020093236
0.47374624 0.04245593 0.019543359
0.47377428 0.043378074 0.019537739
0.4738023 0.044300221 0.01953212
0.47383034 0.045222368 0.0195265
0.47385836 0.046144515 0.019520881
0.4738864 0.047066662 0.019515263
0.47391441 0.04798881 0.019509643
0.47394246 0.048910957 0.019504024
0.47397047 0.049833104 0.019498404
0.47399852 0.050755251 0.019492785
0.47402653 0.051677398 0.019487165
0.47405457 0.052599546 0.019481547
0.47408259 0.053521693 0.019475928
0.47411063 0.05444384 0.019470308
0.47413865 0.055365983 0.019464688
0.47416669 0.056288134 0.019459069
0.47419471 0.057210278 0.019453449
0.47422275 0.058132425 0.01944783
0.47425076 0.059054572 0.019442212
0.47343352 0.060043626 0.018892165
0.4734616 0.060967363 0.018886536
0.47348967 0.061891101 0.018880907
0.47351775 0.062814839 0.018875279
0.47354585 0.063738585 0.01886965
0.47357392 0.064662322 0.018864021
0.47275701 0.065662518 0.018313913
0.47278512 0.06658785 0.018308274
0.47196835 0.067592829 0.017758133
0.47115168 0.06860099 0.017207976
0.4711799 0.069529511 0.017202318
0.47036335 0.070542455 0.016652096
0.46954691 0.071558587 0.016101886
0.46957523 0.072490282 0.016096208
0.46791434 0.073600389 0.015001412
0.46709821 0.074626073 0.01445115
0.46628213 0.075654946 0.013900829
0.46462172 0.076780982 0.012805937
0.46127266 0.078104533 0.010621779
0.46767348 -0.009521896 0.015874797
0.46770179 -0.0085901935 0.01586912
0.4677301 -0.0076584918 0.015863443
0.46775845 -0.0067267898 0.015857765
0.46778676 -0.0057950877 0.015852086
0.46866274 -0.0048187682 0.016391383
0.46869099 -0.0038886524 0.016385715
0.46956688 -0.0029171079 0.01692508
0.47044262 -0.001948753 0.017464424
0.47131827 -0.00098357815 0.01800379
0.47219381 -2.159404e-05 0.018543178
0.47306925 0.00093720999 0.019082582
0.47309726 0.0018593575 0.019076962
0.47397262 0.002813383 0.019616432
0.4740006 0.0037339351 0.019610824
0.47487575 0.0046831807 0.020150285
0.4749037 0.0056021446 0.020144684
0.47493163 0.0065211048 0.020139085
0.47495955 0.0074400669 0.020133486
0.47498748 0.0083590271 0.020127885
0.47501543 0.009277991 0.020122286
0.47504336 0.010196951 0.020116685
0.47507128 0.011115913 0.020111086
0.47509921 0.012034875 0.020105485
0.47512716 0.012953837 0.020099886
0.47515509 0.013872798 0.020094287
0.47518301 0.014791758 0.020088686
0.47521093 0.015710721 0.020083087
0.47523889 0.016629681 0.020077486
0.47526681 0.017548643 0.020071886
0.47529474 0.018467605 0.020066286
0.47532266 0.019386567 0.020060686
0.47535062 0.020305529 0.020055087
0.47537854 0.021224489 0.020049486
0.47540647 0.022143451 0.020043887
0.47543439 0.023062414 0.020038286
0.47546235 0.023981376 0.020032687
0.47549027 0.024900336 0.020027086
0.4755182 0.025819298 0.020021487
0.47554612 0.02673826 0.020015888
0.47557408 0.02765722 0.020010287
0.475602 0.028576182 0.020004688
0.47478408 0.029509453 0.019453755
0.47481203 0.030430008 0.019448144
0.47484002 0.03135056 0.019442536
0.474868 0.032271117 0.019436926
0.47489598 0.03319167 0.019431315
0.47492397 0.034112222 0.019425707
0.47410631 0.035056643 0.018874668
0.47413436 0.03597879 0.018869048
0.47416237 0.036900938 0.018863428
0.47419041 0.037823085 0.018857809
0.47421843 0.038745232 0.018852191
0.47424647 0.039667379 0.018846571
0.47427449 0.040589526 0.018840952
0.47430253 0.041511673 0.018835332
0.47433054 0.042433821 0.018829713
0.47435859 0.043355968 0.018824093
0.4743866 0.044278115 0.018818473
0.47441465 0.045200258 0.018812856
0.47444266 0.046122409 0.018807236
0.4744707 0.047044553 0.018801617
0.47449872 0.0479667 0.018795997
0.47452676 0.048888847 0.018790377
0.47455478 0.049810994 0.018784758
0.47458282 0.050733142 0.01877914
0.47461084 0.051655289 0.01877352
0.47463888 0.052577436 0.018767901
0.4738223 0.053555299 0.018216696
0.47385037 0.05447904 0.018211067
0.47387844 0.055402778 0.018205438
0.47390652 0.05632652 0.018199809
0.47393459 0.057250258 0.01819418
0.47396266 0.058173999 0.018188551
0.47399077 0.059097737 0.018182922
0.47401884 0.060021479 0.018177293
0.47404692 0.060945217 0.018171664
0.47407499 0.061868954 0.018166035
0.47410306 0.062792696 0.018160405
0.47413114 0.063716434 0.018154776
0.47331521 0.064715005 0.01760344
0.47334331 0.065640338 0.0175978
0.47337145 0.06656567 0.017592162
0.4725557 0.067570604 0.017040793
0.47258386 0.068497531 0.017035143
0.47176826 0.069507249 0.016483745
0.47179648 0.07043577 0.016478088
0.47098097 0.071450271 0.015926622
0.47016558 0.072467946 0.015375174
0.46935031 0.073488817 0.014823701
0.46937868 0.074422114 0.014818014
0.46772006 0.075540103 0.013720709
0.46606159 0.07666447 0.012623328
0.4635599 0.077890746 0.010980079
0.4492515 0.080486357 0.0016949435
0.46823552 -0.010475935 0.01515944
0.46826383 -0.0095442338 0.015153763
0.46829215 -0.0086125312 0.015148086
0.46832046 -0.0076808291 0.015142408
0.4683488 -0.0067491275 0.015136731
0.4692238 -0.005771176 0.015677251
0.46925208 -0.0048410678 0.015671583
0.47012699 -0.0038678877 0.016212163
0.47015521 -0.0029393693 0.016206507
0.47102994 -0.0019709761 0.016747091
0.47190458 -0.001005763 0.017287688
0.47193271 -8.043187e-05 0.01728205
0.4728072 0.0008800003 0.017822675
0.47368157 0.0018372488 0.018363323
0.47370961 0.0027593926 0.018357703
0.47458389 0.0037118646 0.018898416
0.47461188 0.0046324185 0.018892806
0.47463986 0.0055529741 0.018887198
0.47466785 0.0064735282 0.018881587
0.4746958 0.0073940819 0.018875979
0.47472379 0.0083146356 0.018870369
0.47559771 0.0092559587 0.019411111
0.47562563 0.010174919 0.019405512
0.47565356 0.011093881 0.019399913
0.47568148 0.012012843 0.019394312
0.47570944 0.012931805 0.019388713
0.47573736 0.013850765 0.019383112
0.47576529 0.014769726 0.019377513
0.47579321 0.015688689 0.019371912
0.47582117 0.01660765 0.019366313
0.47584909 0.017526612 0.019360714
0.47587702 0.018445574 0.019355113
0.47590494 0.019364534 0.019349514
0.47508755 0.020281842 0.018797444
0.47511554 0.021202395 0.018791834
0.47514349 0.022122949 0.018786224
0.47517148 0.023043504 0.018780615
0.47519946 0.023964059 0.018775005
0.47522745 0.024884611 0.018769396
0.47525543 0.025805166 0.018763786
0.47528341 0.026725721 0.018758176
0.4753114 0.027646275 0.018752567
0.47533935 0.028566828 0.018746957
0.47536734 0.029487383 0.018741347
0.47539532 0.030407937 0.018735738
0.4745785 0.031345949 0.018183505
0.47460654 0.032268096 0.018177886
0.47463456 0.033190243 0.018172266
0.4746626 0.03411239 0.018166646
0.47469062 0.035034537 0.018161027
0.47471866 0.035956684 0.018155409
0.47474667 0.036878832 0.018149789
0.47477472 0.037800979 0.01814417
0.47480273 0.038723122 0.01813855
0.47483078 0.03964527 0.018132931
0.47401452 0.040600803 0.017580628
0.47404259 0.041524541 0.017574999
0.47407067 0.042448279 0.017569371
0.47409874 0.04337202 0.017563742
0.47412682 0.044295758 0.017558113
0.47415489 0.0452195 0.017552484
0.47418296 0.046143238 0.017546855
0.47421107 0.047066975 0.017541226
0.47423914 0.047990717 0.017535597
0.47426721 0.048914455 0.017529968
0.47429529 0.049838196 0.017524339
0.47432336 0.050761934 0.017518708
0.47435144 0.051685676 0.01751308
0.47437951 0.052609418 0.017507451
0.47440758 0.053533152 0.017501822
0.47443569 0.054456893 0.017496193
0.47446376 0.055380631 0.017490564
0.47449183 0.056304373 0.017484935
0.47451991 0.057228111 0.017479306
0.47454798 0.058151852 0.017473677
0.47373274 0.059140824 0.016921172
0.47376087 0.06006616 0.016915532
0.47378901 0.060991492 0.016909894
0.47381714 0.061916821 0.016904255
0.47384524 0.062842153 0.016898617
0.47387338 0.063767485 0.016892977
0.47390151 0.064692818 0.016887339
0.47392964 0.06561815 0.016881701
0.47395775 0.066543482 0.016876061
0.47314301 0.067548387 0.016323458
0.47317117 0.068475306 0.016317809
0.47235659 0.069484986 0.015765171
0.47238481 0.070413508 0.015759513
0.47157031 0.071427971 0.01520682
0.47159857 0.072358079 0.015201152
0.47078425 0.073377311 0.014648462
0.47081259 0.074309014 0.014642784
0.46915594 0.075425342 0.013543017
0.46749941 0.07654804 0.012443184
0.46668553 0.077581607 0.011890401
0.46541357 -0.011653353 0.012254555
0.46882585 -0.010498273 0.014438407
0.46885419 -0.0095665706 0.014432729
0.4688825 -0.008634869 0.014427051
0.46891081 -0.0077031669 0.014421374
0.46893913 -0.0067714648 0.014415696
0.46981314 -0.0057934755 0.014957449
0.47068712 -0.0048186709 0.015499255
0.47071534 -0.0038901491 0.015493597
0.47158909 -0.0029201242 0.016035398
0.47161728 -0.0019931993 0.016029751
0.47249088 -0.001027948 0.016571581
0.47251901 -0.00010261691 0.016565943
0.47339249 0.00085785345 0.017107803
0.47342056 0.0017815946 0.017102174
0.47429389 0.0027372839 0.017644063
0.47432193 0.0036594316 0.017638443
0.47434995 0.004581579 0.017632825
0.47437799 0.0055037267 0.017627206
0.47525111 0.0064514577 0.018169181
0.47527909 0.0073720114 0.018163571
0.47530708 0.0082925651 0.018157961
0.47533506 0.0092131207 0.018152352
0.47536305 0.010133675 0.018146742
0.47539103 0.011054229 0.018141134
0.47541901 0.011974785 0.018135523
0.475447 0.012895338 0.018129913
0.47547495 0.013815892 0.018124305
0.47550294 0.014736444 0.018118694
0.47553092 0.015657002 0.018113084
0.47555891 0.016577553 0.018107476
0.47558689 0.017498108 0.018101865
0.47561488 0.018418662 0.018096257
0.47564286 0.019339217 0.018090647
0.47567084 0.020259771 0.018085036
0.4756988 0.021180324 0.018079428
0.47572678 0.022100879 0.018073818
0.47575477 0.023021434 0.018068207
0.47578275 0.023941988 0.018062599
0.47581074 0.024862541 0.018056989
0.47499463 0.025790958 0.01750358
0.47502264 0.026713105 0.01749796
0.47505069 0.027635252 0.017492343
0.4750787 0.028557399 0.017486723
0.47510675 0.029479546 0.017481104
0.47513476 0.030401694 0.017475484
0.4751628 0.031323839 0.017469864
0.47519082 0.032245986 0.017464245
0.47521886 0.033168133 0.017458625
0.47440329 0.034112476 0.016905159
0.47443137 0.035036217 0.01689953
0.47445944 0.035959955 0.016893901
0.47448751 0.036883697 0.016888272
0.47451559 0.037807435 0.016882643
0.47454366 0.038731173 0.016877012
0.47457173 0.039654914 0.016871383
0.47459981 0.040578656 0.016865755
0.47462788 0.041502394 0.016860126
0.47381279 0.042462662 0.016306562
0.47384092 0.043387994 0.016300922
0.47386906 0.044313326 0.016295284
0.47389719 0.045238659 0.016289646
0.47392529 0.046163991 0.016284006
0.47395343 0.047089323 0.016278367
0.47398156 0.048014656 0.016272729
0.47400969 0.048939988 0.016267091
0.4740378 0.04986532 0.016261451
0.47406593 0.050790653 0.016255813
0.47409406 0.051715985 0.016250174
0.4741222 0.052641317 0.016244536
0.4741503 0.05356665 0.016238896
0.47417843 0.054491982 0.016233258
0.47420657 0.05541731 0.01622762
0.4742347 0.056342646 0.016221981
0.4742628 0.057267979 0.016216341
0.47429094 0.058193307 0.016210703
0.47431907 0.05911864 0.016205065
0.4743472 0.060043976 0.016199425
0.47437531 0.060969308 0.016193787
0.47440344 0.061894637 0.016188148
0.47443157 0.062819973 0.01618251
0.47445971 0.063745305 0.01617687
0.47448781 0.064670637 0.016171232
0.47451594 0.065595962 0.016165594
0.47370216 0.066599235 0.015611767
0.47373033 0.067526162 0.015606118
0.47375852 0.068453088 0.01560047
0.47378668 0.069380008 0.015594821
0.47297314 0.070391245 0.015040946
0.47300136 0.071319766 0.015035288
0.47218791 0.07233578 0.014481352
0.47221619 0.073265888 0.014475684
0.47140291 0.074286677 0.01392175
0.47058976 0.075310655 0.013367797
0.46893528 0.076431677 0.012265534
0.46812233 0.077463619 0.011711501
0.45303604 0.081115358 0.0018302723
0.47026113 -0.010466324 0.014265988
0.47028941 -0.009536216 0.01426032
0.47031766 -0.0086061042 0.014254653
0.47034594 -0.0076759956 0.014248985
0.471219 -0.0066979653 0.014792004
0.47040248 -0.0058157751 0.014237649
0.47127545 -0.0048409323 0.014780687
0.47130367 -0.0039124102 0.014775029
0.4721764 -0.0029423472 0.015318064
0.4722046 -0.0020154223 0.015312416
0.47307721 -0.0010501329 0.01585548
0.47310534 -0.00012480178 0.015849842
0.47313344 0.00080052932 0.015844204
0.47400588 0.001759448 0.016387306
0.47403395 0.0026831855 0.016381677
0.47490621 0.0036373232 0.01692481
0.47493425 0.0045594703 0.01691919
0.47496226 0.005481618 0.01691357
0.47499031 0.0064037656 0.016907951
0.47501832 0.0073259114 0.016902333
0.47504637 0.0082480572 0.016896714
0.47507438 0.0091702063 0.016891094
0.47510242 0.010092352 0.016885474
0.47513044 0.0110145 0.016879855
0.47600231 0.011952714 0.017423118
0.47603026 0.012873268 0.017417507
0.47521454 0.01378094 0.016862998
0.47524256 0.014703086 0.016857378
0.4752706 0.015625235 0.016851759
0.47529861 0.01654738 0.016846139
0.47532666 0.017469529 0.016840519
0.47535467 0.018391676 0.0168349
0.47538272 0.019313822 0.016829282
0.47541073 0.020235969 0.016823662
0.47543877 0.021158116 0.016818043
0.47546679 0.022080263 0.016812423
0.47549483 0.02300241 0.016806804
0.47552285 0.023924557 0.016801184
0.47555089 0.024846703 0.016795566
0.4755789 0.02576885 0.016789947
0.47560695 0.026690997 0.016784327
0.47563496 0.027613144 0.016778708
0.47566301 0.028535292 0.016773088
0.47484818 0.029471632 0.016218435
0.47487628 0.030395372 0.016212806
0.47490436 0.031319112 0.016207177
0.47493243 0.032242849 0.016201548
0.47496051 0.033166591 0.016195919
0.47498858 0.034090329 0.01619029
0.47501665 0.035014071 0.016184662
0.47420225 0.035963152 0.015629932
0.47423035 0.036888484 0.015624293
0.47425848 0.037813816 0.015618654
0.47428662 0.038739149 0.015613016
0.47431475 0.039664481 0.015607377
0.47434285 0.040589813 0.015601738
0.47437099 0.041515145 0.015596099
0.47439912 0.042440478 0.015590461
0.47442725 0.04336581 0.015584822
0.47445536 0.044291142 0.015579183
0.47448349 0.045216475 0.015573544
0.47451162 0.046141807 0.015567905
0.47453976 0.047067139 0.015562267
0.47456786 0.047992472 0.015556628
0.47375417 0.048965443 0.015001752
0.47378236 0.049892366 0.014996104
0.47381052 0.050819293 0.014990455
0.47383869 0.051746216 0.014984807
0.47386688 0.052673142 0.014979159
0.47389504 0.053600065 0.01497351
0.47476476 0.054469798 0.015517158
0.47479287 0.055395126 0.015511518
0.47397956 0.056380842 0.014956566
0.47400773 0.057307765 0.014950917
0.47487724 0.058171123 0.015494603
0.47406408 0.059161615 0.01493962
0.47409227 0.060088541 0.014933972
0.47412044 0.061015464 0.014928323
0.4741486 0.061942391 0.014922675
0.47417679 0.062869318 0.014917026
0.47420496 0.063796237 0.014911378
0.47423312 0.064723164 0.014905729
0.47426131 0.065650091 0.014900081
0.47428948 0.06657701 0.014894432
0.47431767 0.067503937 0.014888784
0.47434583 0.068430863 0.014883135
0.47353324 0.069440469 0.014328036
0.47356147 0.070368983 0.014322379
0.47358969 0.071297504 0.014316721
0.47277725 0.07231348 0.013761551
0.47280553 0.073243588 0.013755883
0.47283378 0.074173696 0.013750215
0.47202161 0.075196043 0.013195039
0.47036907 0.076315403 0.012090324
0.46955714 0.077345714 0.011535099
0.46706456 0.078573227 0.0098807467
0.46289176 0.080007516 0.0071272412
0.47000656 -0.010542949 0.012996338
0.47087875 -0.0095585156 0.013540514
0.47090703 -0.0086284038 0.013534846
0.47093529 -0.0076982952 0.013529178
0.47096357 -0.006768187 0.013523511
0.47183555 -0.0057917084 0.014067772
0.47186378 -0.0048631937 0.014062114
0.471892 -0.0039346716 0.014056455
0.47276375 -0.0029645704 0.014600724
0.47279191 -0.0020376458 0.014595076
0.47366351 -0.0010723179 0.015139374
0.47369164 -0.00014698681 0.015133735
0.47371978 0.00077834429 0.015128097
0.47374791 0.0017036791 0.015122457
0.47461924 0.0026610387 0.015666803
0.47464734 0.0035847779 0.015661174
0.47467542 0.0045085172 0.015655546
0.47470349 0.0054322584 0.015649917
0.47473156 0.0063559976 0.015644288
0.47475964 0.0072797351 0.015638659
0.47563067 0.0082259485 0.016183071
0.47565868 0.0091480976 0.016177451
0.47568673 0.010070243 0.016171832
0.47571474 0.010992391 0.016166212
0.47574279 0.011914538 0.016160592
0.4757708 0.012836685 0.016154973
0.47579885 0.013758832 0.016149355
0.47582686 0.014680977 0.016143735
0.4758549 0.015603126 0.016138116
0.47588292 0.016525272 0.016132496
0.47591096 0.017447419 0.016126877
0.47593898 0.018369567 0.016121257
0.47596702 0.019291712 0.016115639
0.47599503 0.020213859 0.01611002
0.47602308 0.021136006 0.0161044
0.47605109 0.022058154 0.016098781
0.47523695 0.022983309 0.015542965
0.47526503 0.023907049 0.015537336
0.4752931 0.024830787 0.015531708
0.4753212 0.025754528 0.015526079
0.47534928 0.026678266 0.01552045
0.47537735 0.027602006 0.015514821
0.47540542 0.028525745 0.015509192
0.4754335 0.029449485 0.015503562
0.47546157 0.030373225 0.015497933
0.47548965 0.031296965 0.015492304
0.47467604 0.032239638 0.01493638
0.47470418 0.033164971 0.014930741
0.47473231 0.034090303 0.014925103
0.47476041 0.035015635 0.014919464
0.47478855 0.035940968 0.014913825
0.47481668 0.0368663 0.014908186
0.47484481 0.037791632 0.014902548
0.47487292 0.038716964 0.014896909
0.47490105 0.039642297 0.01489127
0.47408792 0.040600896 0.014335249
0.47411612 0.041527823 0.0143296
0.47414428 0.042454746 0.014323952
0.47417244 0.043381669 0.014318303
0.47420064 0.044308595 0.014312655
0.4742288 0.045235518 0.014307006
0.47425696 0.046162445 0.014301358
0.47428516 0.047089372 0.014295709
0.47431332 0.048016295 0.014290061
0.4735007 0.04899082 0.013733942
0.47352892 0.049919337 0.013728284
0.47355714 0.050847854 0.013722626
0.47358537 0.051776372 0.013716968
0.47361359 0.052704893 0.01371131
0.47364181 0.053633407 0.013705651
0.47451055 0.054504767 0.014250522
0.47453871 0.055431694 0.014244874
0.47456691 0.056358621 0.014239226
0.47459507 0.057285544 0.014233577
0.47462323 0.058212467 0.014227929
0.47465143 0.059139393 0.01422228
0.47467959 0.06006632 0.014216632
0.47470775 0.060993243 0.014210983
0.47473595 0.061920166 0.014205335
0.47476411 0.062847093 0.014199686
0.47479227 0.063774019 0.014194038
0.47482046 0.064700939 0.014188389
0.47400868 0.065704137 0.013632096
0.4740369 0.066632651 0.013626438
0.47406512 0.067561172 0.01362078
0.47409335 0.068489686 0.013615121
0.47412157 0.069418207 0.013609463
0.47414979 0.070346721 0.013603806
0.47333834 0.071361072 0.013047412
0.47336659 0.07229118 0.013041744
0.47339487 0.073221289 0.013036076
0.47258362 0.074242003 0.012479682
0.47177249 0.075265899 0.011923262
0.47180086 0.076199204 0.011917575
0.46931109 0.07741864 0.010259571
0.46682167 0.078647636 0.0086015472
0.46349323 0.079984762 0.0063926466
0.47143981 -0.010510923 0.012826383
0.47146809 -0.0095808152 0.012820716
0.47149634 -0.0086507034 0.012815048
0.47152463 -0.0077205948 0.01280938
0.47155291 -0.0067904862 0.012803712
0.47242388 -0.0058139698 0.013349204
0.4724521 -0.0048854551 0.013343547
0.47248033 -0.003956933 0.013337888
0.47335106 -0.0029867934 0.01388339
0.47337922 -0.0020598688 0.013877742
0.47340742 -0.001132944 0.013872094
0.47427794 -0.00016917178 0.014417632
0.47430608 0.00075615931 0.014411992
0.47433421 0.0016814942 0.014406354
0.47436234 0.0026068252 0.014400715
0.47439045 0.0035321563 0.014395077
0.47441858 0.0044574873 0.014389438
0.47528878 0.0054101115 0.014935044
0.47531688 0.0063338508 0.014929415
0.47534496 0.0072575882 0.014923786
0.47537303 0.008181328 0.014918157
0.4754011 0.0091050686 0.014912527
0.47542918 0.010028808 0.014906898
0.47545725 0.010952547 0.014901269
0.47548532 0.011876289 0.01489564
0.4755134 0.012800028 0.014890011
0.4755415 0.013723767 0.014884382
0.47556958 0.014647506 0.014878754
0.47559765 0.015571248 0.014873125
0.47562572 0.016494986 0.014867496
0.4756538 0.017418724 0.014861866
0.47568187 0.018342465 0.014856237
0.47570994 0.019266203 0.014850608
0.47573802 0.020189945 0.014844979
0.47576612 0.021113683 0.01483935
0.4757942 0.022037422 0.014833721
0.47582227 0.022961162 0.014828092
0.47585034 0.023884902 0.014822464
0.47587842 0.02480864 0.014816835
0.47590649 0.025732381 0.014811205
0.4750936 0.02666546 0.014254108
0.47512174 0.027590793 0.01424847
0.47514987 0.028516125 0.014242831
0.47517797 0.029441457 0.014237192
0.47520611 0.03036679 0.014231553
0.47523424 0.031292122 0.014225915
0.47526237 0.032217454 0.014220276
0.47529048 0.033142786 0.014214638
0.47531861 0.034068119 0.014208999
0.47534674 0.034993451 0.01420336
0.47537488 0.035918783 0.014197721
0.47456256 0.036870975 0.013640508
0.47459072 0.037797898 0.01363486
0.47461891 0.038724825 0.013629211
0.47464707 0.039651748 0.013623563
0.47467524 0.040578675 0.013617914
0.47386324 0.041540422 0.01306064
0.47389147 0.042468939 0.013054982
0.47391969 0.043397456 0.013049323
0.47394791 0.044325974 0.013043665
0.47397614 0.045254491 0.013038008
0.47400436 0.046183009 0.013032349
0.47403258 0.047111526 0.013026691
0.4740608 0.048040044 0.013021033
0.47324917 0.049016126 0.012463642
0.47327742 0.049946237 0.012457974
0.4733057 0.050876345 0.012452306
0.47333398 0.051806457 0.012446638
0.47336224 0.052736569 0.012440971
0.47339052 0.053666677 0.012435303
0.47425836 0.054539666 0.012981426
0.47428659 0.055468183 0.012975768
0.47431481 0.0563967 0.012970109
0.47434303 0.057325218 0.012964452
0.47437125 0.058253735 0.012958794
0.47439948 0.059182249 0.012953135
0.4744277 0.06011077 0.012947477
0.47445592 0.061039288 0.012941819
0.47448415 0.061967805 0.012936161
0.47451237 0.062896319 0.012930503
0.47454059 0.06382484 0.012924844
0.47456881 0.064753354 0.012919187
0.47459704 0.065681875 0.012913529
0.47462526 0.066610388 0.01290787
0.47465348 0.06753891 0.012902212
0.47384286 0.068548441 0.012344617
0.47387111 0.069478549 0.012338949
0.47389939 0.070408657 0.012333281
0.47392768 0.071338773 0.012327614
0.47311735 0.072356261 0.01177
0.47314566 0.073287964 0.011764322
0.47317398 0.074219666 0.011758645
0.47236386 0.075243525 0.011200995
0.4715538 0.076270573 0.010643326
0.46990547 0.077396154 0.0095336102
0.46741909 0.078625031 0.0078718858
0.46409467 0.079962 0.0056580575
0.45909417 0.081511959 0.0023400716
0.47118726 -0.010587624 0.011554267
0.47205743 -0.0096031148 0.012100912
0.47208568 -0.0086730029 0.012095245
0.47211397 -0.0077428943 0.012089577
0.47214225 -0.0068127858 0.012083909
0.47301221 -0.0058362312 0.012630637
0.47304043 -0.0049077165 0.012624979
0.47306865 -0.0039791944 0.01261932
0.47393838 -0.0030090166 0.013166053
0.47396657 -0.002082092 0.013160405
0.47399473 -0.0011551671 0.013154756
0.4740229 -0.0002282424 0.013149108
0.47405109 0.00069868239 0.013143459
0.47492051 0.0016593091 0.01369025
0.47494864 0.0025846404 0.013684612
0.47497678 0.0035099713 0.013678973
0.47500491 0.0044353027 0.013673333
0.47503302 0.0053606355 0.013667695
0.47506115 0.0062859682 0.013662056
0.47508928 0.0072112996 0.013656418
0.47511742 0.008136631 0.013650779
0.47514552 0.0090619652 0.01364514
0.47517365 0.0099872965 0.013639501
0.47520179 0.010912628 0.013633863
0.47607064 0.011854142 0.01418077
0.47609872 0.012777881 0.014175141
0.47612679 0.013701621 0.014169512
0.47615486 0.014625359 0.014163882
0.47618294 0.015549101 0.014158254
0.47621101 0.016472839 0.014152625
0.47623911 0.017396577 0.014146996
0.47626719 0.018320318 0.014141367
0.47545493 0.019240618 0.013583114
0.47548303 0.02016595 0.013577475
0.47551116 0.021091282 0.013571837
0.4755393 0.022016615 0.013566198
0.47556743 0.022941947 0.01356056
0.47559553 0.023867279 0.01355492
0.47562367 0.024792612 0.013549282
0.4756518 0.025717944 0.013543643
0.47567993 0.026643276 0.013538005
0.47570804 0.027568609 0.013532366
0.47573617 0.028493939 0.013526727
0.4757643 0.029419271 0.013521088
0.47579241 0.030344604 0.01351545
0.47582054 0.031269938 0.013509811
0.47500899 0.032214127 0.012951413
0.47503719 0.03314105 0.012945765
0.47506535 0.034067977 0.012940116
0.47509354 0.0349949 0.012934468
0.47512171 0.035921827 0.012928819
0.47514987 0.03684875 0.012923171
0.47517806 0.037775677 0.012917522
0.4743669 0.038732607 0.012359046
0.47439513 0.039661124 0.012353389
0.47442335 0.040589642 0.012347731
0.47445157 0.041518159 0.012342072
0.47364059 0.042483058 0.011783513
0.47366887 0.043413166 0.011777845
0.47369716 0.044343278 0.011772177
0.47372541 0.045273386 0.01176651
0.47375369 0.046203498 0.011760842
0.47378197 0.047133606 0.011755174
0.47381023 0.048063718 0.011749506
0.47299972 0.049041353 0.011190904
0.47302803 0.049973056 0.011185227
0.47305635 0.050904758 0.01117955
0.47308466 0.051836461 0.011173871
0.47395158 0.05271427 0.011721167
0.47397986 0.053644378 0.011715499
0.47400814 0.05457449 0.011709832
0.4740364 0.055504598 0.011704164
0.47406468 0.05643471 0.011698496
0.47409293 0.057364818 0.011692828
0.47412121 0.05829493 0.01168716
0.4741495 0.059225038 0.011681492
0.47417775 0.06015515 0.011675824
0.47420603 0.061085261 0.011670156
0.47423428 0.06201537 0.011664488
0.47426257 0.062945478 0.01165882
0.47429085 0.063875593 0.011653153
0.4743191 0.064805701 0.011647485
0.47434738 0.06573581 0.011641817
0.47437567 0.066665918 0.011636149
0.47440392 0.067596033 0.011630481
0.4744322 0.068526141 0.011624814
0.47446045 0.069456249 0.011619146
0.47365105 0.070470519 0.011060321
0.47367936 0.071402222 0.011054643
0.47370771 0.072333924 0.011048966
0.47373602 0.073265627 0.011043288
0.47292686 0.074287854 0.010484414
0.4729552 0.075221151 0.010478728
0.4713088 0.076341867 0.0093666092
0.46966252 0.077468969 0.0082544172
0.46801651 0.078602426 0.0071422216
0.46385887 0.080037735 0.0043702181
0.45970169 0.081488974 0.0015980884
0.45554504 0.082956128 -0.0011741091
0.42309225 0.12102795 -0.023512159
0.47177762 -0.010609962 0.010833233
0.47180593 -0.0096782595 0.010827555
0.47183424 -0.0087465579 0.010821878
0.47186258 -0.0078148553 0.0108162
0.47273159 -0.0068350853 0.011364108
0.47275984 -0.005904973 0.01135844
0.47278813 -0.0049748649 0.011352772
0.47365698 -0.0040014558 0.01190075
0.4736852 -0.0030729373 0.011895092
0.47371343 -0.0021444226 0.011889434
0.47374165 -0.0012159041 0.011883776
0.47461024 -0.00025046556 0.012431771
0.4746384 0.00067645923 0.012426122
0.4746666 0.0016033839 0.012420474
0.47469476 0.0025303087 0.012414825
0.47472292 0.0034572335 0.012409177
0.47475111 0.0043841582 0.012403528
0.47477928 0.0053110849 0.01239788
0.47480744 0.0062380098 0.012392232
0.47567558 0.0071891146 0.012940314
0.47570372 0.008114446 0.012934675
0.47573185 0.0090397801 0.012929036
0.47575998 0.0099651115 0.012923398
0.47578809 0.010890443 0.012917759
0.47581622 0.011815777 0.012912121
0.47584435 0.012741108 0.012906482
0.47587246 0.01366644 0.012900843
0.47590059 0.014591773 0.012895204
0.47592872 0.015517105 0.012889566
0.47595686 0.016442437 0.012883927
0.47598496 0.017367769 0.012878288
0.47601309 0.018293101 0.012872649
0.47604123 0.019218434 0.01286701
0.47606936 0.020143766 0.012861372
0.47609746 0.021069098 0.012855733
0.4761256 0.021994431 0.012850095
0.47615373 0.022919761 0.012844455
0.47618186 0.023845095 0.012838817
0.47620997 0.024770426 0.012833178
0.4762381 0.025695758 0.01282754
0.47626624 0.02662109 0.012821901
0.47545546 0.02755728 0.012262318
0.47548363 0.028484205 0.01225667
0.47551182 0.02941113 0.012251021
0.47553998 0.030338055 0.012245373
0.47556815 0.031264979 0.012239724
0.47559634 0.032191902 0.012234076
0.4756245 0.033118829 0.012228427
0.47565266 0.034045752 0.012222779
0.47484234 0.034996275 0.011663109
0.47487056 0.035924792 0.01165745
0.47489879 0.03685331 0.011651793
0.47492701 0.037781827 0.011646135
0.47411686 0.038740315 0.011086384
0.47414514 0.039670426 0.011080716
0.4741734 0.040600538 0.011075048
0.47420168 0.041530646 0.01106938
0.47422993 0.042460758 0.011063713
0.47342014 0.043428797 0.010503936
0.47344846 0.0443605 0.010498257
0.47347677 0.045292202 0.01049258
0.47350511 0.046223905 0.010486903
0.47353342 0.047155611 0.010481225
0.47356173 0.048087314 0.010475548
0.47359005 0.049019013 0.01046987
0.47361839 0.049950719 0.010464192
0.4736467 0.050882421 0.010458515
0.47367501 0.051814124 0.010452838
0.47370332 0.052745827 0.01044716
0.47373167 0.053677529 0.010441482
0.47375998 0.054609232 0.010435805
0.47378829 0.055540934 0.010430127
0.4738166 0.05647264 0.01042445
0.47384495 0.057404339 0.010418773
0.47387326 0.058336042 0.010413094
0.47390157 0.059267744 0.010407417
0.47392988 0.060199447 0.01040174
0.47395822 0.061131153 0.010396062
0.47398654 0.062062856 0.010390384
0.47401485 0.062994555 0.010384707
0.47488019 0.063853294 0.010933352
0.47490844 0.064783402 0.010927685
0.47409981 0.06578967 0.010367675
0.47412813 0.066721365 0.010361996
0.47415644 0.067653067 0.010356319
0.47418475 0.06858477 0.010350642
0.47421309 0.06951648 0.010344964
0.47424141 0.070448183 0.010339287
0.47426972 0.071379885 0.010333609
0.47346148 0.072398886 0.0097735217
0.47348982 0.073332183 0.0097678341
0.47351819 0.07426548 0.0097621474
0.47271013 0.075290851 0.0092020212
0.47273856 0.076225743 0.0091963243
0.47025791 0.077446438 0.0075272224
0.46861392 0.078579821 0.0064125597
0.46529758 0.079916485 0.0041888705
0.46198162 0.081265889 0.0019651067
0.45782992 0.082729675 -0.00081323506
0.42528933 0.1165858 -0.023174938
0.42532057 0.11761306 -0.023181198
0.42451715 0.11879133 -0.023742259
0.42454842 0.11982019 -0.023748528
0.42374516 0.12100324 -0.024309613
0.42377648 0.12203368 -0.024315892
0.42464224 0.12290676 -0.023767337
0.42467353 0.12393561 -0.023773607
0.42553914 0.1248039 -0.023225017
0.47152808 -0.01068678 0.0095574157
0.47239628 -0.0097005973 0.010106518
0.47158483 -0.0088201892 0.0095460415
0.47245294 -0.0078371931 0.010095163
0.47248125 -0.0069054915 0.010089486
0.47250956 -0.0059737894 0.010083808
0.47253788 -0.0050420873 0.01007813
0.47340575 -0.0040670489 0.010627298
0.473434 -0.0031369403 0.01062163
0.47346228 -0.0022068319 0.010615962
0.47433001 -0.0012381655 0.011165203
0.47435823 -0.00030964718 0.011159545
0.47438645 0.00061886752 0.011153886
0.47441468 0.0015473859 0.011148228
0.4744429 0.0024759043 0.011142571
0.47447112 0.0034044208 0.011136912
0.47449934 0.0043329373 0.011131254
0.47452757 0.0052614557 0.011125595
0.47539479 0.0062157866 0.011674892
0.47542295 0.0071427091 0.011669244
0.47545114 0.0080696344 0.011663595
0.4754793 0.0089965602 0.011657947
0.47550747 0.0099234851 0.011652298
0.47553566 0.010850408 0.01164665
0.47556382 0.011777335 0.011641001
0.47559199 0.01270426 0.011635353
0.47562018 0.013631185 0.011629704
0.47564834 0.014558109 0.011624056
0.47567651 0.015485036 0.011618407
0.4757047 0.016411958 0.011612759
0.47573286 0.017338883 0.011607111
0.47576106 0.018265808 0.011601462
0.47578922 0.019192733 0.011595814
0.47581738 0.020119658 0.011590165
0.47584558 0.021046583 0.011584517
0.47587374 0.021973507 0.011578868
0.4759019 0.022900432 0.01157322
0.47593009 0.023827357 0.011567572
0.47595826 0.024754282 0.011561924
0.47598645 0.025681207 0.011556275
0.47601461 0.026608132 0.011550627
0.47604278 0.027535057 0.011544978
0.47607097 0.028461982 0.01153933
0.47609913 0.029388906 0.011533681
0.47528955 0.030331427 0.010972826
0.47531778 0.031259947 0.010967168
0.475346 0.03218846 0.01096151
0.47537422 0.033116981 0.010955852
0.47540244 0.034045499 0.010950194
0.47543067 0.034974016 0.010944536
0.47462139 0.035927687 0.010383581
0.47464967 0.036857795 0.010377913
0.47467795 0.037787907 0.010372245
0.4747062 0.038718015 0.010366577
0.47389722 0.03967965 0.0098056085
0.47392553 0.040611353 0.0097999312
0.47395384 0.041543055 0.0097942539
0.47398219 0.042474758 0.0097885756
0.4740105 0.04340646 0.0097828982
0.47403881 0.044338163 0.0097772209
0.47406712 0.045269866 0.0097715436
0.47325853 0.046244241 0.0092104943
0.4732869 0.047177535 0.0092048068
0.47331527 0.048110832 0.0091991201
0.47334364 0.049044125 0.0091934325
0.47337201 0.049977422 0.0091877449
0.47340038 0.050910715 0.0091820583
0.47342873 0.051844012 0.0091763707
0.4734571 0.052777309 0.0091706831
0.47348547 0.053710602 0.0091649964
0.47351384 0.054643899 0.0091593089
0.47354221 0.055577192 0.0091536213
0.47357059 0.056510489 0.0091479346
0.4744353 0.057382002 0.0096977353
0.47446361 0.058313705 0.009692058
0.47449192 0.059245408 0.0096863797
0.47452024 0.06017711 0.0096807024
0.47454855 0.061108816 0.009675025
0.47457689 0.062040515 0.0096693477
0.4746052 0.062972218 0.0096636703
0.47463351 0.06390392 0.0096579921
0.47466183 0.064835623 0.0096523147
0.47469017 0.065767325 0.0096466374
0.47471848 0.066699028 0.00964096
0.47474679 0.067630731 0.0096352827
0.47477511 0.068562433 0.0096296044
0.47480345 0.069494143 0.0096239271
0.4739961 0.070509918 0.0090626255
0.47402447 0.071443215 0.0090569388
0.47405282 0.072376512 0.0090512512
0.47408119 0.073309809 0.0090455636
0.47327408 0.074333549 0.0084842173
0.47330251 0.07526844 0.0084785204
0.47249556 0.076296963 0.0079171406
0.47085333 0.077423908 0.0068000215
0.46921134 0.078557216 0.0056828954
0.46589902 0.079893731 0.0034542757
0.46258712 0.081242979 0.0012255814
0.45927557 0.082604967 -0.0010031933
0.42692983 0.12154173 -0.023445167
0.47044173 -0.010818191 0.0077231289
0.47214782 -0.0097758612 0.0088294642
0.47217619 -0.0088425651 0.0088237775
0.47220457 -0.0079092728 0.00881809
0.47223291 -0.0069759777 0.0088124024
0.47309992 -0.0059961271 0.009362774
0.47312823 -0.0050644251 0.0093570966
0.47315654 -0.0041327192 0.0093514184
0.47402334 -0.0031592399 0.0099018291
0.47405162 -0.0022291315 0.009896161
0.47407991 -0.0012990194 0.009890493
0.47410816 -0.0003689111 0.009884825
0.47413644 0.00056119723 0.0098791579
0.47416469 0.0014913093 0.0098734898
0.47419298 0.0024214215 0.0098678218
0.47505945 0.0033821596 0.010418344
0.47508767 0.0043106764 0.010412687
0.4751159 0.0052391947 0.010407028
0.47514412 0.0061677131 0.01040137
0.47517234 0.0070962296 0.010395712
0.47520056 0.0080247466 0.010390054
0.47522879 0.0089532649 0.010384396
0.47525701 0.0098817833 0.010378738
0.47528523 0.0108103 0.010373079
0.47531345 0.011738818 0.010367421
0.47534168 0.012667335 0.010361763
0.4753699 0.013595851 0.010356105
0.47623566 0.014535886 0.010906719
0.47626385 0.015462813 0.01090107
0.47629201 0.016389735 0.010895422
0.47632021 0.01731666 0.010889773
0.47634837 0.018243585 0.010884125
0.47637653 0.01917051 0.010878476
0.47640473 0.020097435 0.010872828
0.47643289 0.021024359 0.01086718
0.47646105 0.021951284 0.010861532
0.47648925 0.022878209 0.010855883
0.47651741 0.023805134 0.010850235
0.47570854 0.02473806 0.010288208
0.47573677 0.025666578 0.010282549
0.47576499 0.026595095 0.010276891
0.47579321 0.027523613 0.010271233
0.47582144 0.02845213 0.010265575
0.47584966 0.029380647 0.010259917
0.47587788 0.030309167 0.010254258
0.4759061 0.031237684 0.010248601
0.47593433 0.032166202 0.010242943
0.47512591 0.033115055 0.0096807834
0.47515419 0.034045167 0.0096751153
0.47518247 0.034975275 0.0096694473
0.47521073 0.035905387 0.0096637793
0.47523901 0.036835495 0.0096581122
0.47443092 0.037793905 0.0090959296
0.47445926 0.038725607 0.0090902522
0.47448757 0.03965731 0.0090845739
0.47451589 0.040589016 0.0090788966
0.4745442 0.041520718 0.0090732193
0.47457254 0.042452421 0.0090675419
0.47376478 0.043421976 0.0085052913
0.47379315 0.044355273 0.0084996037
0.47382152 0.04528857 0.0084939171
0.47384989 0.046221863 0.0084882295
0.47387826 0.04715516 0.0084825419
0.4730708 0.048134275 0.0079202307
0.47309923 0.049069162 0.0079145338
0.47312763 0.05000405 0.0079088369
0.47315606 0.050938938 0.00790314
0.47318447 0.051873825 0.0078974431
0.4732129 0.052808713 0.0078917462
0.47407684 0.053688228 0.0084427316
0.47410521 0.054621525 0.008437044
0.47413358 0.055554818 0.0084313573
0.47416192 0.056488115 0.0084256697
0.47419029 0.057421412 0.0084199822
0.47421867 0.058354706 0.0084142955
0.47424704 0.059287999 0.0084086079
0.47427541 0.060221296 0.0084029213
0.47430378 0.061154593 0.0083972337
0.47433215 0.062087886 0.0083915461
0.4743605 0.063021183 0.0083858594
0.47438887 0.06395448 0.0083801718
0.47441724 0.064887777 0.0083744843
0.47444561 0.065821066 0.0083687976
0.47447398 0.066754363 0.00836311
0.47450235 0.06768766 0.0083574224
0.47453073 0.068620957 0.0083517358
0.4745591 0.069554247 0.0083460482
0.47458744 0.070487544 0.0083403615
0.47378123 0.071506478 0.0077778068
0.47380963 0.072441362 0.0077721099
0.47383806 0.073376253 0.007766413
0.47386646 0.074311137 0.0077607161
0.47306046 0.075338028 0.0071981163
0.47225451 0.076368116 0.0066354624
0.4706144 0.077496566 0.0055159014
0.46897441 0.078631401 0.0043962668
0.46650046 0.079870969 0.0027196838
0.46319258 0.081220068 0.00048605906
0.45988509 0.082581908 -0.0017476461
0.46935934 -0.010949757 0.0058838762
0.47190136 -0.0098512005 0.0075499439
0.47192979 -0.0089163147 0.007544247
0.4727959 -0.0079316488 0.0080958223
0.47282428 -0.0069983532 0.0080901347
0.47285265 -0.0060650576 0.0080844481
0.47371858 -0.0050867628 0.008636062
0.4737469 -0.004155057 0.0086303847
0.47377524 -0.0032233549 0.0086247073
0.47380355 -0.0022916531 0.0086190291
0.47383186 -0.001359951 0.0086133517
0.47386017 -0.00042824901 0.0086076744
0.47388849 0.00050345674 0.008601997
0.47475404 0.0014690098 0.0091536893
0.47478232 0.0023991219 0.0091480212
0.4748106 0.0033292302 0.0091423532
0.47483885 0.0042593405 0.0091366852
0.47486714 0.0051894505 0.0091310171
0.47489542 0.0061195609 0.00912535
0.47492367 0.0070496709 0.009119682
0.47495195 0.0079797814 0.009114014
0.47498021 0.0089098914 0.009108346
0.47500849 0.0098400014 0.0091026779
0.47503677 0.010770112 0.0090970108
0.47506502 0.011700224 0.0090913428
0.47509331 0.012630332 0.0090856748
0.47595823 0.01357359 0.0096375346
0.47598645 0.014502108 0.0096318768
0.47601467 0.015430626 0.0096262181
0.4760429 0.016359143 0.0096205603
0.47607112 0.01728766 0.0096149016
0.47609934 0.018216178 0.0096092438
0.47612756 0.019144695 0.009603586
0.47615579 0.020073213 0.0095979273
0.47618401 0.02100173 0.0095922695
0.47621223 0.021930248 0.0095866118
0.47624046 0.022858765 0.009580953
0.47626868 0.023787282 0.0095752953
0.4762969 0.0247158 0.0095696365
0.47632512 0.025644317 0.0095639788
0.47635335 0.026572835 0.009558321
0.47554564 0.027512094 0.0089949891
0.4755739 0.028442206 0.008989322
0.47560218 0.029372316 0.008983654
0.47563046 0.030302426 0.0089779859
0.47565871 0.031232536 0.0089723179
0.475687 0.032162648 0.0089666499
0.47571525 0.033092756 0.0089609828
0.47574353 0.034022868 0.0089553148
0.47577181 0.034952976 0.0089496467
0.47496465 0.035908163 0.0083862506
0.47499296 0.036839865 0.0083805732
0.47502127 0.037771568 0.008374895
0.47504959 0.03870327 0.0083692176
0.47507793 0.039634973 0.0083635403
0.47427103 0.040599715 0.0078000855
0.4742994 0.041533012 0.0077943983
0.47432777 0.042466305 0.0077887112
0.47435614 0.043399602 0.0077830236
0.47354952 0.044372305 0.0072195209
0.47357792 0.045307197 0.007213824
0.47360635 0.046242084 0.0072081266
0.47363475 0.047176972 0.0072024297
0.47366318 0.04811186 0.0071967328
0.47369158 0.049046747 0.0071910359
0.47372001 0.049981635 0.007185339
0.47374842 0.050916523 0.0071796421
0.47377685 0.05185141 0.0071739452
0.47380525 0.052786302 0.0071682483
0.47383368 0.053721189 0.0071625514
0.47386208 0.054656077 0.007156854
0.47389051 0.055590961 0.0071511571
0.47391891 0.056525853 0.0071454602
0.47394735 0.05746074 0.0071397633
0.47397575 0.058395628 0.0071340664
0.47400418 0.059330516 0.0071283695
0.47403258 0.060265407 0.0071226726
0.47406101 0.061200295 0.0071169757
0.47492349 0.062065512 0.0076692789
0.47495186 0.062998801 0.0076635918
0.47498024 0.063932106 0.0076579042
0.47500861 0.064865395 0.0076522171
0.47503698 0.065798692 0.0076465299
0.47423151 0.066809617 0.0070827939
0.47425991 0.067744508 0.007077097
0.47428834 0.0686794 0.0070714001
0.47431675 0.069614284 0.0070657032
0.47434518 0.070549175 0.0070600063
0.47437358 0.071484067 0.0070543089
0.47440201 0.07241895 0.007048612
0.47359693 0.073442616 0.0064847986
0.47362539 0.074379101 0.0064790919
0.47365385 0.07531558 0.0064733853
0.47201556 0.076439187 0.005351352
0.47121081 0.077474006 0.0047874702
0.46957284 0.078608759 0.0036653718
0.46710193 0.079848215 0.0019850917
0.46463123 0.08109723 0.00030472138
0.46132773 0.082457326 -0.0019339045
0.46911788 -0.011026882 0.0045982045
0.47165695 -0.0099266162 0.0062679597
0.47252217 -0.0089387288 0.0068207462
0.47255057 -0.0080038393 0.0068150493
0.47341564 -0.0070207291 0.0073678675
0.47344401 -0.0060874335 0.0073621804
0.47347239 -0.005154138 0.0073564933
0.47350076 -0.0042208387 0.0073508057
0.47436556 -0.0032456927 0.0079036728
0.4743939 -0.0023139906 0.0078979954
0.47442222 -0.0013822888 0.0078923181
0.47445053 -0.0004505867 0.0078866407
0.47447884 0.00048111903 0.0078809625
0.47450718 0.001412821 0.0078752851
0.4745355 0.0023445231 0.0078696078
0.47456381 0.0032762268 0.0078639304
0.47459212 0.0042079291 0.0078582522
0.47462046 0.0051396326 0.0078525748
0.47464877 0.0060713347 0.0078468975
0.47467709 0.0070030368 0.0078412201
0.4747054 0.0079347389 0.0078355428
0.47473374 0.0088664442 0.0078298645
0.47476205 0.0097981468 0.0078241872
0.47479036 0.010729848 0.0078185098
0.47565436 0.011677925 0.0083715385
0.47568265 0.012608033 0.0083658714
0.47571093 0.013538143 0.0083602034
0.47573918 0.014468254 0.0083545353
0.47576746 0.015398364 0.0083488673
0.47579572 0.016328475 0.0083431993
0.475824 0.017258584 0.0083375322
0.47585228 0.018188694 0.0083318641
0.47588053 0.019118804 0.0083261961
0.47590882 0.020048914 0.0083205281
0.47593707 0.020979024 0.008314861
0.47596535 0.021909134 0.008309193
0.47599363 0.022839244 0.0083035249
0.47602189 0.023769354 0.0082978569
0.47605017 0.024699464 0.0082921889
0.47607845 0.025629574 0.0082865218
0.4761067 0.026559684 0.0082808537
0.47613499 0.027489794 0.0082751857
0.47616324 0.028419906 0.0082695177
0.47619152 0.029350016 0.0082638497
0.4762198 0.030280126 0.0082581826
0.47541338 0.031227311 0.0076936041
0.47544172 0.032159012 0.0076879263
0.47547004 0.033090718 0.007682249
0.47549835 0.034022421 0.0076765711
0.47552666 0.034954123 0.0076708938
0.475555 0.035885826 0.007665216
0.47558331 0.036817528 0.0076595386
0.47561163 0.037749231 0.0076538613
0.47480565 0.038710747 0.0070891925
0.47483402 0.039644044 0.0070835054
0.4748624 0.040577341 0.0070778183
0.47489077 0.041510634 0.0070721307
0.47408506 0.042480119 0.0065074139
0.47411346 0.043415003 0.006501717
0.4741419 0.044349894 0.0064960201
0.4741703 0.045284782 0.0064903228
0.47419873 0.046219669 0.0064846259
0.47339329 0.047198705 0.0059198537
0.47342175 0.048135187 0.005914147
0.47345021 0.049071666 0.0059084403
0.47347867 0.050008148 0.0059027337
0.47350714 0.05094463 0.005897027
0.4735356 0.051881108 0.0058913203
0.47356406 0.052817591 0.0058856136
0.47359255 0.053754073 0.0058799069
0.47362101 0.054690551 0.0058742003
0.47364947 0.055627033 0.0058684936
0.4745113 0.056503437 0.0064219595
0.4745397 0.057438325 0.0064162626
0.47456813 0.058373213 0.0064105657
0.47459653 0.0593081 0.0064048688
0.47462496 0.060242992 0.0063991719
0.47465336 0.06117788 0.0063934745
0.47468179 0.062112767 0.0063877776
0.4747102 0.063047655 0.0063820807
0.47473863 0.063982546 0.0063763838
0.47476703 0.06491743 0.0063706869
0.47479546 0.065852314 0.00636499
0.47482386 0.066787206 0.0063592931
0.47485229 0.067722097 0.0063535962
0.4748807 0.068656981 0.0063478993
0.47490913 0.069591872 0.0063422024
0.47410491 0.070610724 0.0057771872
0.47413337 0.071547203 0.0057714805
0.47416183 0.072483689 0.0057657738
0.47419029 0.073420167 0.0057600671
0.47338626 0.074446984 0.0051949657
0.47341478 0.075385056 0.0051892498
0.47261095 0.076416656 0.0046241567
0.47097492 0.077546552 0.003499653
0.47017127 0.078586116 0.0029344768
0.46687117 0.079923756 0.00069109147
0.46440357 0.081174247 -0.00099298568
0.46804255 -0.011158715 0.0027503243
0.4705787 -0.010055152 0.0044237571
0.47227877 -0.0090125892 0.0055375188
0.47314295 -0.0080262534 0.0060915514
0.47317135 -0.0070913644 0.0060858545
0.47319978 -0.0061564785 0.0060801576
0.47322819 -0.0052215895 0.0060744602
0.4740921 -0.0042432146 0.0066285385
0.47412047 -0.0033099225 0.0066228514
0.47414884 -0.0023766269 0.0066171638
0.47417721 -0.0014433311 0.0066114767
0.47420558 -0.00051003549 0.0066057895
0.47423396 0.00042326015 0.0066001024
0.47426233 0.0013565558 0.0065944148
0.47429067 0.0022898514 0.0065887277
0.47431904 0.0032231454 0.0065830406
0.47518247 0.0041855914 0.0071372185
0.47521079 0.0051172953 0.0071315407
0.47523913 0.0060489969 0.0071258633
0.47526744 0.006980699 0.007120186
0.47529575 0.0079124011 0.0071145082
0.47532406 0.0088441065 0.0071088308
0.47535241 0.009775809 0.007103153
0.47538072 0.010707511 0.0070974757
0.47540903 0.011639215 0.0070917979
0.47543734 0.012570917 0.0070861205
0.47546569 0.01350262 0.0070804432
0.475494 0.014434323 0.0070747654
0.47552231 0.015366026 0.0070690881
0.47555062 0.016297728 0.0070634102
0.47557896 0.01722943 0.0070577329
0.47560728 0.018161135 0.0070520551
0.47563559 0.019092835 0.0070463778
0.4756639 0.02002454 0.0070407004
0.47652641 0.020956725 0.0075950595
0.47655469 0.021886835 0.0075893919
0.47658297 0.022816945 0.0075837239
0.47661123 0.023747057 0.0075780563
0.47663951 0.024677165 0.0075723883
0.47583383 0.025614755 0.007006635
0.47586215 0.02654646 0.0070009576
0.47589046 0.027478162 0.0069952798
0.47591877 0.028409865 0.0069896025
0.47594711 0.029341567 0.0069839247
0.47597542 0.03027327 0.0069782473
0.47600374 0.031204972 0.0069725695
0.47603205 0.032136675 0.0069668922
0.47606039 0.033068378 0.0069612148
0.4760887 0.03400008 0.006955537
0.47611701 0.034931783 0.0069498597
0.47531193 0.035888486 0.0063839867
0.47534028 0.036821783 0.0063782996
0.47536865 0.037755076 0.0063726124
0.47539702 0.038688373 0.0063669253
0.47542539 0.03962167 0.0063612377
0.47462058 0.040587928 0.0057953098
0.47464901 0.041522816 0.0057896129
0.47467741 0.042457704 0.005783916
0.47470585 0.043392591 0.0057782191
0.47473425 0.044327479 0.0057725222
0.47392973 0.045303293 0.0052065328
0.47395819 0.046239775 0.0052008261
0.47398666 0.047176253 0.0051951194
0.47401512 0.048112735 0.0051894127
0.47404358 0.049049214 0.0051837061
0.47407207 0.049985696 0.0051779994
0.47410053 0.050922178 0.0051722927
0.47412899 0.051858656 0.005166586
0.47415745 0.052795138 0.0051608793
0.47418591 0.05373162 0.0051551731
0.47421438 0.054668099 0.0051494665
0.47424284 0.055604581 0.0051437598
0.4742713 0.056541063 0.0051380531
0.47429979 0.057477541 0.0051323464
0.47432825 0.05841402 0.0051266397
0.47435671 0.059350502 0.0051209331
0.47438517 0.060286984 0.0051152264
0.47441363 0.061223466 0.0051095197
0.47444209 0.062159944 0.005103813
0.47447056 0.063096426 0.0050981063
0.47449902 0.064032905 0.0050923997
0.47452748 0.064969391 0.005086693
0.47455597 0.065905869 0.0050809863
0.47458443 0.066842347 0.0050752796
0.47461289 0.067778826 0.0050695729
0.47464135 0.068715312 0.0050638663
0.47466981 0.06965179 0.0050581596
0.47469828 0.070588268 0.0050524529
0.47472674 0.071524754 0.0050467462
0.47392362 0.072548352 0.0044804341
0.47395214 0.073486425 0.0044747177
0.47398067 0.074424498 0.0044690012
0.47317779 0.075454459 0.0039026851
0.47237501 0.076487616 0.0033363495
0.470741 0.077619031 0.0022093372
0.46993846 0.078660138 0.001642953
0.46747363 0.079900958 -4.4733824e-05
0.46500906 0.081151336 -0.0017325081
0.46780616 -0.01123603 0.0014584892
0.4703393 -0.010130758 0.0031356092
0.47203737 -0.0090865288 0.004251793
0.47290063 -0.0080985585 0.0048070811
0.47292909 -0.0071620797 0.0048013744
0.47295755 -0.0062256004 0.0047956677
0.47382057 -0.0052440036 0.0053509595
0.47384897 -0.0043091141 0.0053452626
0.4738774 -0.003374225 0.0053395657
0.4739058 -0.0024393392 0.0053338688
0.47393423 -0.00150445 0.0053281719
0.47396263 -0.00056956435 0.005322475
0.47482529 0.00040088425 0.0058778347
0.47485366 0.0013341799 0.0058721476
0.47488204 0.0022674755 0.00586646
0.47491041 0.0032007694 0.0058607729
0.47493878 0.004134065 0.0058550858
0.47496715 0.0050673625 0.0058493987
0.47499552 0.0060006562 0.0058437111
0.47502387 0.0069339522 0.005838024
0.47505224 0.0078672459 0.0058323368
0.47508061 0.0088005438 0.0058266497
0.47510898 0.009733839 0.0058209621
0.47513735 0.010667133 0.005815275
0.47516572 0.01160043 0.0058095879
