# .PCD v0.7 - Point Cloud Data file format
VERSION 0.7
FIELDS x y z
SIZE 4 4 4
TYPE F F F
COUNT 1 1 1
WIDTH 1377
HEIGHT 1
VIEWPOINT 0 0 0 1 0 0 0
POINTS 1377
DATA ascii
0.55432457 -0.063602217 0.18302573
0.55434442 -0.062947631 0.18302174
0.55536026 -0.062089823 0.18338671
0.55538011 -0.061436832 0.18338273
0.55539995 -0.060783848 0.18337876
0.55641562 -0.059932392 0.18374377
0.55643547 -0.059280995 0.18373981
0.55645525 -0.058629598 0.18373583
0.55647504 -0.057978202 0.18373187
0.55749047 -0.057134718 0.18409692
0.5575102 -0.056484915 0.18409295
0.55752993 -0.055835113 0.184089
0.55754972 -0.055185311 0.18408504
0.5585649 -0.054349788 0.18445015
0.55858457 -0.053701572 0.1844462
0.5586043 -0.05305336 0.18444225
0.55961925 -0.052224215 0.1848074
0.56063414 -0.051398247 0.18517257
0.56164891 -0.050575461 0.18553776
0.56166852 -0.049932025 0.18553384
0.56168807 -0.049288597 0.18552992
0.56270266 -0.048472181 0.18589514
0.56371713 -0.047658958 0.18626039
0.56572646 -0.046679124 0.18699482
0.57075852 -0.043942854 0.18882915
0.5717724 -0.043150336 0.18919453
0.57179147 -0.042522829 0.1891907
0.57280517 -0.04173509 0.18955611
0.57282424 -0.041109167 0.18955229
0.57284325 -0.040483255 0.18954848
0.57286227 -0.039857343 0.18954466
0.57188684 -0.039385296 0.18917158
0.57190591 -0.038757797 0.18916777
0.57192498 -0.038130291 0.18916394
0.57194406 -0.037502784 0.18916012
0.57196313 -0.036875278 0.18915629
0.5719822 -0.036247775 0.18915246
0.54521996 -0.037505161 0.17916468
0.54424644 -0.036972597 0.17879124
0.54426682 -0.036300495 0.17878714
0.54329342 -0.035763148 0.17841367
0.54331386 -0.035089456 0.17840956
0.54333436 -0.034415763 0.17840546
0.54236108 -0.033872053 0.17803194
0.54238164 -0.033196758 0.17802782
0.54240215 -0.032521479 0.17802371
0.54242265 -0.031846192 0.1780196
0.54244322 -0.031170906 0.17801549
0.54246372 -0.030495619 0.17801136
0.54248422 -0.02982034 0.17800725
0.54250479 -0.029145053 0.17800313
0.54252529 -0.028469764 0.17799902
0.54254586 -0.02779448 0.17799491
0.54157311 -0.027233243 0.17762128
0.54159373 -0.026556369 0.17761716
0.5406211 -0.025990356 0.1772435
0.54064173 -0.025311889 0.17723937
0.54066235 -0.024633415 0.17723523
0.53969002 -0.02406103 0.17686155
0.53971064 -0.023380969 0.1768574
0.53873843 -0.022803806 0.17648368
0.53776628 -0.022223461 0.17610994
0.53778708 -0.021540212 0.17610578
0.53681505 -0.020955089 0.17573203
0.53584313 -0.020366779 0.17535824
0.53586406 -0.019680347 0.17535405
0.53489232 -0.019087259 0.17498022
0.53392065 -0.018490989 0.17460638
0.53294909 -0.017891528 0.17423254
0.53197759 -0.017288884 0.17385866
0.53100628 -0.016683055 0.17348477
0.53102738 -0.015988659 0.17348054
0.53005618 -0.015378051 0.17310663
0.52809274 -0.01484646 0.17236298
0.52712178 -0.014227891 0.17198899
0.52615088 -0.013606135 0.17161502
0.5251801 -0.012981198 0.171241
0.52420944 -0.012353067 0.17086698
0.5242309 -0.01164752 0.17086267
0.5232603 -0.011014619 0.17048861
0.52228987 -0.010378531 0.17011453
0.54515362 -0.086212449 0.17931393
0.545174 -0.085543521 0.17930984
0.54419786 -0.085127272 0.17893587
0.54421824 -0.084456764 0.17893179
0.54423863 -0.083786257 0.17892769
0.54425901 -0.083115749 0.17892361
0.5432831 -0.08269152 0.1785496
0.54330355 -0.082019418 0.1785455
0.54332399 -0.081347309 0.17854141
0.54334444 -0.080675215 0.17853731
0.54436088 -0.079763211 0.17890318
0.54438126 -0.079092711 0.17889909
0.54440165 -0.078422189 0.17889501
0.54541796 -0.077516556 0.17926094
0.54543829 -0.076847643 0.17925686
0.54545861 -0.076178715 0.17925277
0.5464747 -0.075279452 0.17961873
0.54749072 -0.074383371 0.1799847
0.54751098 -0.073717646 0.17998065
0.54852682 -0.072826341 0.18034665
0.54854697 -0.072162203 0.18034261
0.54956275 -0.071275674 0.18070865
0.54958284 -0.070613131 0.18070461
0.55059844 -0.069731385 0.18107067
0.55061853 -0.069070429 0.18106665
0.55163389 -0.068193458 0.18143272
0.55165398 -0.067534111 0.1814287
0.55266923 -0.066661909 0.18179484
0.55268925 -0.066004142 0.18179083
0.55370438 -0.065136723 0.18215697
0.55372429 -0.064480551 0.18215297
0.55374426 -0.063824378 0.18214896
0.5547592 -0.062963329 0.18251516
0.55477911 -0.062308751 0.18251118
0.55579388 -0.061452489 0.18287738
0.55581373 -0.060799506 0.1828734
0.55583358 -0.060146507 0.18286942
0.55585343 -0.059493523 0.18286544
0.55686802 -0.058645215 0.18323173
0.55688781 -0.057993818 0.18322775
0.55690759 -0.057342429 0.18322378
0.55692738 -0.056691024 0.18321981
0.55794168 -0.055850692 0.18358612
0.55796146 -0.05520089 0.18358216
0.55798119 -0.054551087 0.18357819
0.55899531 -0.053717114 0.18394455
0.55901504 -0.053068902 0.1839406
0.55903471 -0.052420694 0.18393666
0.56004864 -0.051593095 0.18430305
0.56106246 -0.050768688 0.18466945
0.56108207 -0.050123658 0.18466552
0.56209576 -0.049304023 0.18503197
0.56310934 -0.04848757 0.18539843
0.5641228 -0.047674309 0.18576491
0.57215089 -0.043792881 0.18871273
0.57316375 -0.043001913 0.18907934
0.57318276 -0.042376 0.18907553
0.57419538 -0.041589815 0.18944217
0.5742144 -0.040965494 0.18943837
0.57423335 -0.040341169 0.18943456
0.57325888 -0.039872348 0.18906027
0.57327789 -0.039246436 0.18905646
0.5732969 -0.03862052 0.18905264
0.57331592 -0.037994608 0.18904883
0.57333499 -0.037368704 0.18904501
0.57335401 -0.036742784 0.1890412
0.57337302 -0.036116876 0.18903738
0.57339203 -0.035490956 0.18903357
0.54367936 -0.037126686 0.17790051
0.5436998 -0.036452994 0.17789641
0.54272741 -0.035914097 0.17752168
0.54274791 -0.03523881 0.17751756
0.54276848 -0.034563523 0.17751345
0.54278898 -0.033888243 0.17750934
0.54280949 -0.033212949 0.17750522
0.54283005 -0.032537669 0.17750111
0.54285055 -0.031862382 0.17749698
0.54287106 -0.031187097 0.17749287
0.54189914 -0.030633865 0.17711806
0.54291213 -0.02983653 0.17748465
0.54194027 -0.029280107 0.17710982
0.5419609 -0.028603228 0.1771057
0.54198146 -0.027926352 0.17710157
0.54200202 -0.02724947 0.17709744
0.54202259 -0.026572598 0.17709331
0.54105103 -0.026006624 0.17671844
0.54107165 -0.025328157 0.1767143
0.54010022 -0.024757398 0.17633939
0.5401209 -0.024077335 0.17633525
0.53914958 -0.02350181 0.1759603
0.53917032 -0.022820149 0.17595614
0.53819925 -0.022239843 0.17558117
0.53722823 -0.021656347 0.1752062
0.53724903 -0.020971511 0.17520203
0.53627813 -0.020383235 0.17482699
0.53629899 -0.019696804 0.17482281
0.53532827 -0.019103754 0.17444777
0.53435761 -0.018507523 0.1740727
0.53338706 -0.017908102 0.17369762
0.53241658 -0.017305495 0.1733225
0.53144622 -0.016699703 0.17294738
0.53146738 -0.016005307 0.17294316
0.53049713 -0.015394738 0.17256799
0.52853578 -0.014863224 0.17182189
0.52756578 -0.014244692 0.17144667
0.52659595 -0.013622974 0.17107145
0.52661729 -0.012920614 0.17106718
0.52465647 -0.012369983 0.17032096
0.52467793 -0.011664435 0.17031665
0.5237084 -0.011031573 0.16994135
0.52273899 -0.010395523 0.16956605
0.52276051 -0.0096867913 0.16956173
0.54555714 -0.086897396 0.17880034
0.54458195 -0.086484365 0.17842515
0.54460233 -0.085813843 0.17842107
0.54462272 -0.085143343 0.17841698
0.54464304 -0.084472843 0.17841288
0.54366815 -0.08405184 0.17803766
0.54368854 -0.083379723 0.17803358
0.54370898 -0.082707636 0.17802948
0.54372942 -0.082035534 0.17802538
0.54374987 -0.081363425 0.17802128
0.54377025 -0.08069133 0.17801718
0.5437907 -0.080019236 0.17801309
0.54381114 -0.079347134 0.17800899
0.54482651 -0.078438267 0.17837612
0.54484689 -0.07776776 0.17837203
0.54486728 -0.077097259 0.17836794
0.54588246 -0.076194756 0.17873512
0.54590279 -0.075525843 0.17873104
0.5469178 -0.074628137 0.17909823
0.5479328 -0.073733605 0.17946546
0.54795301 -0.073067866 0.1794614
0.54896778 -0.072178125 0.17982864
0.54898798 -0.071513996 0.17982459
0.55000263 -0.070629016 0.18019187
0.55002278 -0.069966465 0.18018784
0.55103731 -0.069086276 0.18055514
0.5510574 -0.068425328 0.18055111
0.55207175 -0.067549914 0.18091844
0.55209178 -0.066890553 0.18091442
0.55310601 -0.066019915 0.18128179
0.55312604 -0.065362141 0.18127778
0.553146 -0.064704373 0.18127377
0.55416 -0.063840114 0.18164116
0.55417997 -0.063183941 0.18163717
0.55519384 -0.062324446 0.1820046
0.55521375 -0.06166986 0.18200062
0.55523366 -0.061015286 0.18199663
0.55624735 -0.060162164 0.18236409
0.5562672 -0.05950918 0.18236011
0.55628705 -0.058856189 0.18235613
0.5563069 -0.058203198 0.18235216
0.55732036 -0.057358045 0.18271968
0.55734015 -0.056706641 0.18271571
0.55735993 -0.056055252 0.18271174
0.55837315 -0.055216469 0.18307929
0.55839294 -0.054566663 0.18307532
0.55841267 -0.05391686 0.18307136
0.55942571 -0.053084444 0.18343897
0.55944544 -0.052436233 0.18343502
0.56045836 -0.051608596 0.18380263
0.56147116 -0.050784156 0.18417028
0.56149077 -0.050139125 0.18416634
0.56151038 -0.049494103 0.18416241
0.56252301 -0.048676021 0.18453011
0.57254851 -0.043807924 0.18822712
0.57356036 -0.043016922 0.18859497
0.57457203 -0.042229101 0.18896282
0.57459098 -0.041604783 0.18895902
0.57460999 -0.040980462 0.1889552
0.57462895 -0.040356137 0.1889514
0.5746479 -0.039731823 0.1889476
0.57466692 -0.039107498 0.18894379
0.57468587 -0.038483184 0.18893999
0.57470489 -0.037858859 0.18893619
0.57472384 -0.037234537 0.18893239
0.57375056 -0.03675779 0.18855682
0.57476181 -0.035985898 0.18892477
0.57378864 -0.035505962 0.18854919
0.57380766 -0.03488005 0.18854538
0.54313475 -0.036605574 0.1770032
0.54315525 -0.035930287 0.17699909
0.542184 -0.035388242 0.17662312
0.54220462 -0.034711361 0.17661899
0.54222518 -0.034034479 0.17661487
0.54224575 -0.033357602 0.17661074
0.54226631 -0.032680728 0.17660661
0.54228687 -0.032003846 0.1766025
0.54230744 -0.031326976 0.17659837
0.54232806 -0.030650094 0.17659424
0.54234862 -0.02997322 0.17659011
0.54236919 -0.029296337 0.17658599
0.54238975 -0.028619455 0.17658187
0.54241031 -0.027942579 0.17657775
0.54243088 -0.0272657 0.17657362
0.54146028 -0.026701363 0.17619751
0.5414809 -0.026022889 0.17619339
0.54150152 -0.025344422 0.17618924
0.54053116 -0.024773704 0.17581309
0.54055178 -0.024093639 0.17580895
0.53958154 -0.023518153 0.17543279
0.53960222 -0.022836491 0.17542863
0.53863215 -0.022256223 0.17505242
0.53766215 -0.021672767 0.17467621
0.53768295 -0.02098793 0.17467204
0.53671306 -0.020399693 0.17429577
0.5357433 -0.019808274 0.17391951
0.53576422 -0.01912025 0.17391531
0.53479457 -0.018524056 0.17353901
0.53382504 -0.017924674 0.1731627
0.53285557 -0.017322104 0.17278636
0.53287661 -0.016629299 0.17278214
0.53190732 -0.016021956 0.17240576
0.53093815 -0.015411424 0.17202938
0.52996904 -0.014797712 0.17165296
0.52800983 -0.014261493 0.17090435
0.52704096 -0.013639813 0.17052792
0.5260722 -0.013014954 0.17015143
0.52510357 -0.012386899 0.16977493
0.52512497 -0.011681351 0.16977064
0.52415645 -0.011048527 0.16939411
0.52318805 -0.010412515 0.16901757
0.52320957 -0.0097037833 0.16901326
0.52224129 -0.0090629915 0.16863669
0.54401225 -0.086756349 0.17753391
0.54403269 -0.086084239 0.17752981
0.54405314 -0.085412145 0.17752571
0.54407358 -0.084740043 0.17752163
0.54409397 -0.084067956 0.17751753
0.54411441 -0.083395839 0.17751344
0.54314065 -0.08297009 0.17713694
0.54316109 -0.082296409 0.17713284
0.5431816 -0.081622705 0.17712873
0.54320204 -0.080949016 0.17712463
0.54322255 -0.080275327 0.17712052
0.54423702 -0.079363249 0.17748886
0.5442574 -0.07869114 0.17748477
0.54527169 -0.077783838 0.17785314
0.54529208 -0.077113338 0.17784905
0.54531246 -0.076442815 0.17784497
0.54632664 -0.075541876 0.17821337
0.54734063 -0.074644133 0.1785818
0.54736096 -0.073976815 0.17857774
0.54837483 -0.073083833 0.1789462
0.5483951 -0.072418101 0.17894214
0.54940879 -0.071529917 0.17931062
0.549429 -0.070865773 0.17930658
0.54944921 -0.070201635 0.17930253
0.55046272 -0.069319807 0.17967106
0.55048287 -0.068657264 0.17966703
0.55149627 -0.067780219 0.18003558
0.55250955 -0.066906363 0.18040414
0.55252963 -0.066247001 0.18040013
0.55254966 -0.065587647 0.18039611
0.55356276 -0.064720139 0.18076473
0.55358279 -0.064062387 0.18076073
0.55459571 -0.063199669 0.18112937
0.55461568 -0.062543504 0.18112536
0.55463564 -0.061887324 0.18112136
0.55564839 -0.061030976 0.18149006
0.55566829 -0.060376395 0.18148607
0.5556882 -0.059721816 0.18148208
0.55670077 -0.058871847 0.18185079
0.55672061 -0.058218855 0.18184681
0.55674046 -0.057565872 0.18184283
0.55775285 -0.056722261 0.18221161
0.55777264 -0.056070872 0.18220763
0.55779248 -0.055419475 0.18220367
0.55781227 -0.054768078 0.1821997
0.55882442 -0.05393244 0.18256849
0.55884415 -0.053282637 0.18256454
0.55985618 -0.052451774 0.18293338
0.55987585 -0.051803567 0.18292943
0.56088769 -0.050977483 0.18329829
0.56090736 -0.050330866 0.18329436
0.56191903 -0.049509566 0.18366323
0.5629307 -0.048691448 0.18403216
0.57193524 -0.044617202 0.18737243
0.57294613 -0.04382297 0.18774149
0.57494861 -0.042868398 0.18848348
0.57496762 -0.042244069 0.18847968
0.57498658 -0.041619752 0.18847586
0.57500553 -0.04099543 0.18847206
0.57502455 -0.040371105 0.18846826
0.5750435 -0.039746791 0.18846445
0.57506251 -0.039122466 0.18846065
0.57508147 -0.038498152 0.18845685
0.57510042 -0.037873827 0.18845303
0.57511944 -0.037249506 0.18844923
0.57513839 -0.036625188 0.18844543
0.57416618 -0.03614689 0.18806863
0.57418519 -0.035520967 0.18806481
0.57420427 -0.034895055 0.188061
0.57422328 -0.034269143 0.18805718
0.54257178 -0.036758222 0.17610754
0.54259235 -0.036081351 0.17610341
0.54261291 -0.03540447 0.17609929
0.54263347 -0.034727588 0.17609517
0.54265404 -0.03405071 0.17609105
0.5426746 -0.033373829 0.17608692
0.54269522 -0.032696955 0.17608279
0.54271579 -0.032020073 0.17607866
0.54273635 -0.031343203 0.17607455
0.54275692 -0.030666322 0.17607042
0.54277748 -0.029989449 0.17606629
0.54279804 -0.029312564 0.17606217
0.54281867 -0.028635684 0.17605804
0.54283923 -0.027958807 0.17605391
0.54186958 -0.027396096 0.17567658
0.5418902 -0.026717629 0.17567246
0.54191083 -0.026039155 0.17566831
0.54094136 -0.025470076 0.17529094
0.54096204 -0.024790008 0.1752868
0.53999269 -0.024216145 0.17490941
0.54001343 -0.023534495 0.17490526
0.53904426 -0.022955853 0.17452784
0.53906506 -0.022272605 0.17452367
0.53809607 -0.021689186 0.17414622
0.53712714 -0.021102589 0.17376874
0.537148 -0.02041615 0.17376456
0.53617924 -0.019824769 0.17338707
0.53521055 -0.019230209 0.17300953
0.53523153 -0.018540589 0.17300533
0.53426301 -0.017941244 0.17262778
0.53329456 -0.017338715 0.1722502
0.5333156 -0.01664591 0.17224598
0.53234732 -0.016038604 0.17186838
0.53137916 -0.01542811 0.17149077
0.53041106 -0.014814436 0.17111312
0.52845383 -0.014278294 0.17036204
0.52748603 -0.013656653 0.16998437
0.52651823 -0.01303183 0.16960666
0.52653962 -0.012327873 0.16960236
0.52458298 -0.011772618 0.16885118
0.5246045 -0.011065479 0.16884688
0.52363712 -0.010429507 0.1684691
0.52266979 -0.009790346 0.16809131
0.52269137 -0.0090800216 0.16808698
0.54348558 -0.085681021 0.176632
0.54350609 -0.085007332 0.17662789
0.54352653 -0.084333643 0.17662379
0.54354703 -0.083659939 0.17661968
0.54356748 -0.082986243 0.17661558
0.54358798 -0.082312562 0.17661147
0.54261529 -0.081882074 0.17623371
0.54362893 -0.080965169 0.17660326
0.54364944 -0.08029148 0.17659916
0.54366988 -0.079617791 0.17659505
0.54468328 -0.078707255 0.17696463
0.54470372 -0.078035153 0.17696053
0.54571694 -0.077129416 0.17733014
0.54573733 -0.076458894 0.17732605
0.54675049 -0.075557917 0.17769571
0.54677081 -0.074889004 0.17769162
0.54778379 -0.073992811 0.17806129
0.54780406 -0.073325485 0.17805722
0.54881692 -0.072434068 0.17842694
0.54883713 -0.071768343 0.17842288
0.54984981 -0.070881702 0.17879261
0.54987001 -0.070217557 0.17878856
0.55088258 -0.069335692 0.17915832
0.55090272 -0.068673149 0.17915428
0.55092281 -0.068010613 0.17915024
0.5519352 -0.067135118 0.17952004
0.55195528 -0.066474162 0.179516
0.55296743 -0.06560345 0.17988583
0.55298746 -0.064944088 0.17988183
0.55399954 -0.06407816 0.18025167
0.55401957 -0.063420385 0.18024766
0.55403954 -0.062762618 0.18024366
0.55505139 -0.061903056 0.18061355
0.55507135 -0.061246887 0.18060955
0.55509126 -0.060590707 0.18060555
0.55610299 -0.059737511 0.1809755
0.55612284 -0.059082925 0.1809715
0.55713439 -0.058234509 0.18134147
0.55715424 -0.057581529 0.18133749
0.55717409 -0.056928538 0.18133351
0.55719393 -0.056275554 0.18132953
0.55820519 -0.055435091 0.18169954
0.55822504 -0.054783694 0.18169558
0.55824482 -0.054132298 0.18169162
0.5592559 -0.053298216 0.18206166
0.55927563 -0.052648414 0.18205769
0.56028658 -0.051819108 0.18242778
0.56129742 -0.050992988 0.18279786
0.56131709 -0.050346371 0.18279393
0.56133676 -0.049699754 0.18278998
0.5633384 -0.048706874 0.1835342
0.56533986 -0.047720358 0.18427847
0.57233387 -0.044632286 0.18688558
0.5743345 -0.043672845 0.18763
0.5753442 -0.042883366 0.18800032
0.57536322 -0.042259037 0.18799651
0.57538217 -0.04163472 0.18799271
0.57540113 -0.041010398 0.18798891
0.57542014 -0.040386073 0.18798509
0.5754391 -0.039761759 0.18798129
0.57545805 -0.039137434 0.18797749
0.57547706 -0.03851312 0.18797368
0.57549602 -0.037888795 0.18796988
0.57551503 -0.037264474 0.18796608
0.57553399 -0.036640156 0.18796226
0.57555294 -0.036015835 0.18795846
0.57557195 -0.035391517 0.18795466
0.57460082 -0.03491006 0.18757661
0.57461989 -0.034284148 0.18757279
0.54203135 -0.03623249 0.17520528
0.54205197 -0.035554014 0.17520113
0.54207259 -0.034875542 0.17519701
0.54209322 -0.034197073 0.17519286
0.54211384 -0.033518601 0.17518874
0.54213446 -0.032840133 0.17518459
0.54215509 -0.03216166 0.17518046
0.54316527 -0.03135943 0.1755507
0.54318583 -0.030682551 0.17554659
0.54320639 -0.030005677 0.17554246
0.54322696 -0.029328793 0.17553833
0.54324752 -0.028651912 0.1755342
0.54227883 -0.028090838 0.17515565
0.54229945 -0.027412364 0.17515153
0.54232007 -0.026733898 0.17514738
0.5423407 -0.026055422 0.17514326
0.5413723 -0.02548638 0.17476466
0.54139292 -0.024806313 0.17476052
0.54042464 -0.024232488 0.17438187
0.54044539 -0.023550838 0.17437772
0.53947723 -0.022972234 0.17399907
0.53850919 -0.022390449 0.1736204
0.53852999 -0.021705605 0.17361622
0.53756207 -0.021119047 0.1732375
0.53758293 -0.020432608 0.17323332
0.53661519 -0.019841265 0.17285459
0.53564751 -0.019246742 0.17247583
0.53566849 -0.018557124 0.17247163
0.53470099 -0.017957818 0.17209284
0.53373355 -0.017355325 0.17171404
0.53276622 -0.016749648 0.17133522
0.53278732 -0.016055252 0.17133099
0.53182018 -0.015444797 0.17095213
0.53085303 -0.014831161 0.17057326
0.52988607 -0.014214335 0.17019437
0.52793103 -0.013673492 0.16944081
0.52696431 -0.013048708 0.16906187
0.52599764 -0.012420731 0.1686829
0.5260191 -0.011715182 0.16867861
0.52505255 -0.011082434 0.16829962
0.52408618 -0.010446499 0.16792062
0.52311987 -0.0098073771 0.16754158
0.5231415 -0.0090970518 0.16753726
0.52217531 -0.0084531549 0.1671582
0.54391247 -0.085697167 0.17611064
0.54393291 -0.085023485 0.17610653
0.54296106 -0.08459942 0.17572758
0.54397386 -0.083676092 0.17609832
0.54300213 -0.083248839 0.17571934
0.54302263 -0.082573555 0.17571522
0.5430432 -0.081898265 0.17571111
0.5430637 -0.081222981 0.175707
0.54407626 -0.080307633 0.1760778
0.54409677 -0.079633936 0.17607369
0.54411721 -0.07896024 0.17606959
0.54512954 -0.078051269 0.1764404
0.54514998 -0.077379167 0.17643631
0.54616219 -0.076474965 0.17680717
0.54618257 -0.075804465 0.17680308
0.54719466 -0.074905038 0.17717396
0.54721498 -0.074236132 0.17716989
0.54822689 -0.073341489 0.17754081
0.54824716 -0.072674163 0.17753674
0.54925895 -0.071784303 0.17790768
0.54927921 -0.071118571 0.17790362
0.55029082 -0.070233487 0.17827459
0.55031097 -0.069569342 0.17827055
0.55033118 -0.068905205 0.1782665
0.55134261 -0.068026498 0.17863752
0.55136275 -0.06736394 0.17863348
0.55237406 -0.066490009 0.17900452
0.55239415 -0.065829061 0.1790005
0.55241424 -0.065168098 0.17899646
0.55342531 -0.064300545 0.17936753
0.55344534 -0.063641183 0.17936352
0.55445629 -0.062778391 0.17973463
0.55447632 -0.06212062 0.17973062
0.5554871 -0.061262619 0.18010175
0.55550706 -0.060606439 0.18009774
0.55552697 -0.05995027 0.18009375
0.55653763 -0.05909862 0.18046494
0.55655754 -0.058444034 0.18046094
0.55657738 -0.05778946 0.18045697
0.5575878 -0.056944191 0.18082817
0.55760765 -0.056291208 0.18082419
0.5576275 -0.055638213 0.18082021
0.55764735 -0.054985229 0.18081623
0.55865753 -0.054147914 0.1811875
0.55867738 -0.053496517 0.18118353
0.55968738 -0.052663993 0.18155481
0.55970711 -0.052014191 0.18155086
0.56071705 -0.051186439 0.18192218
0.56073672 -0.050538227 0.18191823
0.56075644 -0.049890019 0.18191428
0.56275606 -0.048895467 0.18266095
0.56574553 -0.04773571 0.18378298
0.57273245 -0.044647366 0.18639873
0.57473111 -0.043687854 0.18714562
0.5757398 -0.042898335 0.18751717
0.57575876 -0.042274006 0.18751337
0.57577777 -0.041649688 0.18750955
0.57579672 -0.041025367 0.18750575
0.57581568 -0.040401042 0.18750195
0.57583469 -0.039776728 0.18749814
0.57585365 -0.039152402 0.18749434
0.5758726 -0.038528088 0.18749054
0.57589161 -0.037903763 0.18748672
0.57591057 -0.037279442 0.18748292
0.57592958 -0.036655124 0.18747912
0.57594854 -0.036030803 0.18747532
0.57596749 -0.035406485 0.18747151
0.57499743 -0.03492507 0.18709221
0.57501644 -0.034299154 0.1870884
0.54246128 -0.036248755 0.1746802
0.5424819 -0.035570282 0.17467608
0.54250252 -0.034891807 0.17467195
0.54252315 -0.034213342 0.17466781
0.54254377 -0.033534866 0.17466368
0.54256439 -0.032856401 0.17465954
0.54258502 -0.032177925 0.17465541
0.54260564 -0.03149946 0.17465127
0.54262626 -0.030820986 0.17464714
0.54264688 -0.03014252 0.17464299
0.54266751 -0.029464046 0.17463887
0.54268813 -0.02878557 0.17463472
0.54270875 -0.028107103 0.1746306
0.54272938 -0.027428629 0.17462647
0.54275 -0.026750162 0.17462233
0.5417825 -0.026182745 0.17424251
0.54180318 -0.025502685 0.17423837
0.54083586 -0.024930492 0.17385851
0.54085654 -0.024248831 0.17385435
0.5398894 -0.023671865 0.17347448
0.53991014 -0.022988616 0.1734703
0.53894311 -0.022406869 0.1730904
0.53797615 -0.021821935 0.17271048
0.53799701 -0.021135503 0.17270629
0.53703022 -0.02054579 0.17232633
0.53705114 -0.019857761 0.17232214
0.53608447 -0.019263277 0.17194214
0.53511792 -0.018665601 0.17156214
0.53513891 -0.017974388 0.17155793
0.53417253 -0.017371936 0.17117788
0.53320622 -0.016766297 0.17079782
0.53322732 -0.016071901 0.17079359
0.53226113 -0.015461483 0.17041352
0.53129506 -0.014847886 0.17003341
0.53032911 -0.014231098 0.1696533
0.52936321 -0.013611129 0.16927314
0.52839744 -0.01298797 0.16889298
0.52644467 -0.012437645 0.16813689
0.52646613 -0.011732098 0.16813259
0.52550066 -0.011099388 0.16775237
0.52453524 -0.010463491 0.16737214
0.52356994 -0.0098244064 0.16699187
0.52359158 -0.009114082 0.16698755
0.52361315 -0.0084037604 0.16698323
0.52264804 -0.0077583087 0.16660291
0.52168304 -0.0071096662 0.1662226
0.54338896 -0.084615611 0.17520498
0.54340947 -0.083940312 0.17520086
0.54343003 -0.083265029 0.17519675
0.54345053 -0.082589746 0.17519264
0.54347104 -0.081914455 0.17518853
0.5434916 -0.081239171 0.1751844
0.54351211 -0.080563888 0.17518029
0.5445236 -0.079650089 0.17555234
0.5445441 -0.078976393 0.17554823
0.54555541 -0.078067385 0.17592028
0.54557586 -0.077395283 0.17591618
0.54658705 -0.076491043 0.17628826
0.54660743 -0.075820535 0.17628418
0.54761851 -0.074921079 0.17665631
0.54763883 -0.074252173 0.17665222
0.54864973 -0.073357485 0.17702436
0.54866999 -0.072690159 0.1770203
0.54968077 -0.071800262 0.17739248
0.54970104 -0.07113453 0.17738841
0.54972124 -0.070468798 0.17738436
0.55073184 -0.069585264 0.17775658
0.55075198 -0.068921126 0.17775252
0.55077219 -0.068256997 0.17774849
0.5507924 -0.067592859 0.17774443
0.55180269 -0.066717289 0.17811671
0.55182284 -0.066054747 0.17811267
0.55283302 -0.065183945 0.17848496
0.55285311 -0.064523004 0.17848094
0.55386311 -0.063656986 0.17885324
0.55388319 -0.062997632 0.17884924
0.55390322 -0.062338274 0.17884521
0.5549131 -0.061478633 0.17921758
0.55493307 -0.060820863 0.17921357
0.55594277 -0.059966002 0.17958595
0.55596268 -0.059309822 0.17958196
0.55598265 -0.058653645 0.17957795
0.55699217 -0.057805154 0.17995039
0.55701208 -0.057150569 0.17994641
0.55703199 -0.056495991 0.17994241
0.55804127 -0.055653866 0.18031487
0.55806112 -0.055000883 0.18031089
0.55808097 -0.054347891 0.18030691
0.55909008 -0.053512134 0.18067943
0.55910987 -0.052860744 0.18067546
0.56011885 -0.05202977 0.18104799
0.56013858 -0.051379964 0.18104403
0.56114745 -0.050553769 0.1814166
0.56116712 -0.049905561 0.18141265
0.56316477 -0.048910931 0.18216178
0.56516224 -0.047922678 0.18291095
0.5721423 -0.044829294 0.18553528
0.57413894 -0.043868102 0.18628463
0.5761354 -0.042913303 0.18703401
0.57615435 -0.042288974 0.1870302
0.57617337 -0.041664656 0.1870264
0.57619232 -0.041040335 0.1870226
0.57621127 -0.04041601 0.18701878
0.57623029 -0.039791696 0.18701498
0.57624924 -0.039167371 0.18701118
0.5762682 -0.038543057 0.18700737
0.57628721 -0.037918732 0.18700357
0.57630616 -0.03729441 0.18699977
0.57632518 -0.036670092 0.18699597
0.57634413 -0.036045771 0.18699215
0.57636309 -0.035421453 0.18698835
0.5763821 -0.034797125 0.18698455
0.57541305 -0.034314163 0.18660401
0.54289114 -0.036265023 0.17415515
0.54291177 -0.035586547 0.17415102
0.54293239 -0.034908075 0.17414688
0.54295301 -0.034229606 0.17414275
0.54297364 -0.033551134 0.17413862
0.54299426 -0.032872666 0.17413448
0.54301488 -0.032194193 0.17413035
0.54303551 -0.031515725 0.17412621
0.54305613 -0.030837251 0.17412208
0.54307675 -0.030158784 0.17411794
0.54309738 -0.02948031 0.17411381
0.543118 -0.028801836 0.17410967
0.54313862 -0.028123369 0.17410554
0.54315925 -0.027444895 0.1741014
0.54219276 -0.026879113 0.17372036
0.54221344 -0.02619905 0.17371622
0.54124701 -0.025628494 0.17333513
0.54126775 -0.024946835 0.17333098
0.5412885 -0.024265174 0.17332682
0.5403223 -0.023688247 0.17294571
0.53935623 -0.023108127 0.17256458
0.53937703 -0.022423288 0.17256041
0.53841108 -0.021838393 0.17217925
0.53843194 -0.021151962 0.17217506
0.53746617 -0.020562286 0.17179388
0.53650045 -0.019969428 0.17141266
0.53652143 -0.01927981 0.17140846
0.5355559 -0.018682173 0.17102721
0.53557688 -0.01799096 0.17102301
0.53461146 -0.017388545 0.17064174
0.53364617 -0.016782945 0.17026044
0.53366727 -0.016088549 0.17025621
0.53270215 -0.01547817 0.16987491
0.53173703 -0.01486461 0.16949357
0.53077209 -0.014247861 0.16911221
0.52980721 -0.013627931 0.16873083
0.52884245 -0.01300481 0.16834943
0.52787775 -0.012378504 0.16796802
0.52691317 -0.011749013 0.16758659
0.5259487 -0.011116342 0.16720513
0.5249843 -0.010480483 0.16682366
0.52500588 -0.0097717512 0.16681933
0.52404165 -0.0091311121 0.16643783
0.52307749 -0.0084872916 0.16605632
0.52309912 -0.0077753766 0.16605198
0.52213514 -0.0071267723 0.16567044
0.5438168 -0.084631801 0.17468239
0.54383737 -0.083956502 0.17467828
0.54385787 -0.083281219 0.17467415
0.54387844 -0.082605936 0.17467004
0.54389894 -0.081930645 0.17466593
0.54391944 -0.081255361 0.17466182
0.54394001 -0.080580078 0.1746577
0.54495049 -0.079666242 0.17503096
0.54497099 -0.078992546 0.17502686
0.54598129 -0.0780835 0.17540015
0.54600173 -0.077411398 0.17539605
0.54701191 -0.076507121 0.17576937
0.5470323 -0.075836614 0.17576528
0.5480423 -0.074937113 0.17613864
0.54806268 -0.074268207 0.17613457
0.54907256 -0.073373482 0.17650795
0.54909283 -0.072706155 0.17650388
0.54911309 -0.072038844 0.17649981
0.55012286 -0.071150489 0.17687324
0.55014306 -0.070484757 0.17686917
0.55016333 -0.069819033 0.17686512
0.55018353 -0.069153301 0.17686106
0.551193 -0.068272918 0.17723452
0.5512132 -0.067608781 0.17723048
0.55123335 -0.066944651 0.17722642
0.55224264 -0.066070631 0.17759994
0.55226278 -0.065408073 0.1775959
0.55327189 -0.064538851 0.17796943
0.55329198 -0.063877888 0.1779654
0.55331206 -0.063216947 0.17796138
0.55432099 -0.06235408 0.17833494
0.55434102 -0.061694723 0.17833093
0.55534983 -0.060836632 0.17870453
0.55536985 -0.060178868 0.17870052
0.55538982 -0.059521094 0.17869651
0.55639839 -0.058669377 0.17907014
0.55641836 -0.058013208 0.17906615
0.55643833 -0.057357036 0.17906216
0.55744672 -0.056511685 0.17943585
0.55746663 -0.055857103 0.17943186
0.55748653 -0.055202525 0.17942786
0.55849469 -0.054363549 0.17980158
0.55851454 -0.053710558 0.1797976
0.55952263 -0.052876364 0.18017136
0.55954242 -0.05222496 0.18016738
0.56055033 -0.051395543 0.18054116
0.56057006 -0.050745741 0.18053719
0.56058985 -0.050095946 0.18053323
0.56258553 -0.049099639 0.18128483
0.56458104 -0.048109714 0.18203646
0.57155412 -0.045011286 0.18466939
0.57354879 -0.044048432 0.1854212
0.57455558 -0.04325565 0.18579519
0.5755623 -0.042466041 0.18616921
0.5765689 -0.041679624 0.18654326
0.57658792 -0.041055303 0.18653944
0.57660687 -0.040430978 0.18653564
0.57662582 -0.039806664 0.18653184
0.57664484 -0.039182339 0.18652803
0.57666379 -0.038558025 0.18652423
0.57668281 -0.0379337 0.18652043
0.57670176 -0.037309378 0.18651661
0.57672071 -0.036685061 0.18651281
0.57673973 -0.036060739 0.18650901
0.57675868 -0.035436422 0.1865052
0.57677764 -0.034812093 0.1865014
0.54332107 -0.036281288 0.17363009
0.5433417 -0.035602815 0.17362596
0.54336232 -0.03492434 0.17362182
0.54338294 -0.034245875 0.17361769
0.54340357 -0.033567399 0.17361356
0.54342419 -0.032888934 0.17360942
0.54344475 -0.032210458 0.17360529
0.54346538 -0.031531993 0.17360115
0.543486 -0.030853517 0.17359702
0.54350662 -0.030175051 0.17359288
0.54352725 -0.029496577 0.17358875
0.54354787 -0.028818103 0.17358461
0.54258227 -0.028255546 0.17320237
0.54260296 -0.027575478 0.17319822
0.54262364 -0.026895419 0.17319407
0.54165822 -0.026326487 0.17281176
0.54167897 -0.025644835 0.1728076
0.54169965 -0.024963178 0.17280345
0.54073447 -0.024387872 0.17242111
0.54075521 -0.023704628 0.17241696
0.53979015 -0.023124546 0.17203459
0.53882515 -0.022541285 0.17165221
0.53884602 -0.02185485 0.17164803
0.5378812 -0.021266809 0.17126562
0.53790212 -0.020578781 0.17126141
0.53693742 -0.019985963 0.17087898
0.53597283 -0.019389957 0.17049652
0.53599387 -0.018698744 0.17049231
0.53502941 -0.018097961 0.17010981
0.53505045 -0.017405156 0.17010559
0.53408617 -0.016799591 0.16972308
0.533122 -0.016190846 0.16934054
0.53314316 -0.015494856 0.16933629
0.53119385 -0.0149638 0.16857539
0.53121513 -0.014264624 0.16857113
0.53025126 -0.013644732 0.16818851
0.52928752 -0.013021649 0.1678059
0.52832377 -0.012395382 0.16742323
0.52736026 -0.011765929 0.16704057
0.52639675 -0.011133295 0.16665788
0.52543336 -0.010497475 0.16627517
0.52447015 -0.0098584667 0.16589245
0.52449173 -0.0091481423 0.16588813
0.52352858 -0.00850436 0.16550536
0.52355021 -0.0077924449 0.16550103
0.52258724 -0.0071438788 0.16511825
0.52260888 -0.0064303703 0.16511391
0.54432684 -0.081946835 0.17414333
0.54434735 -0.081271552 0.17413922
0.54436785 -0.080596268 0.17413509
0.54537737 -0.079682395 0.1745096
0.54539782 -0.079008691 0.17450549
0.54541832 -0.07833501 0.17450139
0.54642761 -0.077427514 0.17487592
0.54743677 -0.076523192 0.17525047
0.5474571 -0.075852685 0.17524637
0.54846621 -0.074953154 0.17562096
0.54848653 -0.074284248 0.17561689
0.5494954 -0.073389485 0.17599149
0.54951566 -0.072722159 0.17598742
0.54953593 -0.072054841 0.17598337
0.54955626 -0.071387522 0.1759793
0.55056489 -0.070500724 0.17635396
0.55058515 -0.069834992 0.17634991
0.55060536 -0.069169261 0.17634584
0.55062562 -0.068503529 0.17634179
0.55163401 -0.067624703 0.17671649
0.55165422 -0.066960573 0.17671245
0.55167437 -0.066296428 0.1767084
0.55268258 -0.065423958 0.17708316
0.55270272 -0.064761423 0.17707913
0.55272287 -0.06409888 0.17707509
0.55373091 -0.063232794 0.17744987
0.55375099 -0.062571838 0.17744584
0.55475885 -0.061710533 0.17782064
0.55477887 -0.061051175 0.17781663
0.5547989 -0.060391817 0.17781261
0.55580664 -0.059536867 0.17818747
0.5558266 -0.0588791 0.17818347
0.55584657 -0.058221336 0.17817946
0.55685407 -0.057372767 0.17855434
0.55687404 -0.056716599 0.17855035
0.55689394 -0.056060418 0.17854635
0.55790126 -0.05521822 0.17892128
0.55792117 -0.054563634 0.1789173
0.55794108 -0.053909052 0.17891331
0.55894816 -0.053073231 0.17928827
0.55896801 -0.05242024 0.17928429
0.55997497 -0.051589187 0.17965929
0.55999476 -0.05093779 0.17965533
0.56001455 -0.050286401 0.17965136
0.56200832 -0.049288426 0.18040541
0.5640018 -0.048296839 0.18115948
0.57296067 -0.044228844 0.18455528
0.5749532 -0.043270692 0.18530956
0.57595891 -0.042481046 0.18568482
0.5769645 -0.041694593 0.18606009
0.57698351 -0.041070271 0.18605629
0.57700247 -0.040445946 0.18605249
0.57702142 -0.039821632 0.18604867
0.57704043 -0.039197307 0.18604487
0.57705939 -0.038572993 0.18604107
0.57707834 -0.037948668 0.18603726
0.57709736 -0.037324347 0.18603346
0.57711631 -0.036700029 0.18602966
0.57713532 -0.036075708 0.18602584
0.57715428 -0.03545139 0.18602204
0.57717323 -0.034827061 0.18601824
0.54373032 -0.036976021 0.17310916
0.54375094 -0.036297556 0.17310503
0.54377156 -0.03561908 0.17310089
0.54379219 -0.034940608 0.17309676
0.54381281 -0.034262139 0.17309262
0.54383343 -0.033583667 0.17308849
0.54385406 -0.032905199 0.17308435
0.54387468 -0.032226726 0.17308022
0.5438953 -0.031548258 0.17307608
0.54391593 -0.030869786 0.17307195
0.54393655 -0.030191317 0.17306781
0.54395717 -0.029512843 0.17306368
0.54299253 -0.028951908 0.1726802
0.54301322 -0.028271852 0.17267606
0.5430339 -0.027591784 0.17267191
0.54206944 -0.027024491 0.17228839
0.54209012 -0.02634283 0.17228423
0.54211086 -0.025661178 0.17228009
0.54114664 -0.025087504 0.17189653
0.54116738 -0.024404254 0.17189236
0.54020327 -0.023825806 0.17150877
0.54022408 -0.023140963 0.1715046
0.53926009 -0.022557741 0.17112099
0.53829628 -0.021971326 0.17073736
0.53831714 -0.021283304 0.17073315
0.53735346 -0.020692114 0.17034948
0.53737438 -0.020002495 0.17034528
0.53641081 -0.019406529 0.16996159
0.5354473 -0.018807378 0.16957787
0.5354684 -0.018114572 0.16957363
0.53450507 -0.017510641 0.1691899
0.53452617 -0.016816242 0.16918567
0.53356302 -0.016207533 0.1688019
0.53259987 -0.015595643 0.16841811
0.53163689 -0.014980563 0.1680343
0.53165817 -0.014281387 0.16803004
0.53069526 -0.013661533 0.16764618
0.52973253 -0.013038488 0.16726233
0.52876985 -0.012412259 0.16687845
0.5278073 -0.011782845 0.16649455
0.5268448 -0.011150248 0.16611063
0.52588248 -0.010514467 0.16572669
0.52492023 -0.0098754968 0.16534275
0.5249418 -0.0091651725 0.16533841
0.52397966 -0.0085214283 0.16495442
0.5240013 -0.0078095132 0.16495009
0.52303934 -0.0071609854 0.16456607
0.52306098 -0.0064474768 0.16456173
0.54786158 -0.076539271 0.17473157
0.54788196 -0.075868763 0.17472748
0.54888999 -0.074969187 0.17510331
0.54891032 -0.074300282 0.17509922
0.5489307 -0.073631361 0.17509516
0.5499385 -0.072738156 0.17547101
0.54995877 -0.072070837 0.17546694
0.54997909 -0.071403518 0.17546287
0.54999936 -0.070736192 0.1754588
0.55001962 -0.070068873 0.17545474
0.55102718 -0.069185227 0.17583065
0.55104744 -0.068519488 0.17582659
0.55106765 -0.067853756 0.17582254
0.55108792 -0.067188032 0.17581849
0.55110812 -0.0665223 0.17581442
0.55211538 -0.065648213 0.17619039
0.55213559 -0.064984083 0.17618635
0.55215573 -0.064319938 0.1761823
0.55316281 -0.063452221 0.17655832
0.55318296 -0.062789671 0.17655428
0.55418986 -0.061926737 0.17693031
0.55420995 -0.061265778 0.17692629
0.55521673 -0.060407624 0.17730235
0.55523676 -0.059748258 0.17729832
0.55525678 -0.059088901 0.17729431
0.55626339 -0.058237109 0.17767042
0.55628335 -0.057579335 0.17766641
0.55630338 -0.056921571 0.1776624
0.55730975 -0.05607615 0.17803855
0.55732965 -0.055419981 0.17803454
0.55734962 -0.054763805 0.17803055
0.55736959 -0.054107625 0.17802656
0.55837572 -0.053270169 0.17840275
0.55839562 -0.052615583 0.17839876
0.55940157 -0.051782914 0.17877498
0.55942142 -0.051129915 0.178771
0.55944127 -0.050476931 0.17876703
0.56243873 -0.048655763 0.17989983
0.57237464 -0.044409316 0.18368691
0.57436514 -0.043449502 0.18444365
0.57635552 -0.042496052 0.18520044
0.57736009 -0.041709561 0.18557693
0.57737905 -0.041085239 0.18557313
0.57739806 -0.040460914 0.18556932
0.57741702 -0.0398366 0.18556552
0.57743603 -0.039212275 0.18556172
0.57745498 -0.038587961 0.1855579
0.57747394 -0.037963636 0.1855541
0.57749295 -0.037339315 0.1855503
0.57751191 -0.036714997 0.18554649
0.57753086 -0.036090676 0.18554269
0.57754987 -0.035466358 0.18553889
0.54416025 -0.036992289 0.1725841
0.54418087 -0.036313821 0.17257996
0.54420149 -0.035635348 0.17257583
0.54422212 -0.034956872 0.1725717
0.54424274 -0.034278408 0.17256756
0.54426336 -0.033599932 0.17256343
0.54428399 -0.032921467 0.17255929
0.54430461 -0.032242991 0.17255516
0.54432517 -0.031564526 0.17255102
0.5443458 -0.03088605 0.17254689
0.54338211 -0.030328345 0.1721622
0.54340279 -0.029648283 0.17215805
0.54342347 -0.028968213 0.17215391
0.5434441 -0.028288156 0.17214976
0.54248059 -0.027722484 0.17176501
0.54250133 -0.027040834 0.17176086
0.54252207 -0.026359173 0.17175671
0.54155874 -0.025787137 0.17137194
0.54157954 -0.025103886 0.17136776
0.54061639 -0.024527065 0.17098296
0.5406372 -0.023842225 0.17097878
0.53967416 -0.023260631 0.17059395
0.53969502 -0.022574199 0.17058976
0.53873223 -0.021987822 0.17020489
0.53776944 -0.021398271 0.16982
0.53779036 -0.020708648 0.16981579
0.5368278 -0.02011431 0.16943088
0.53684878 -0.019423101 0.16942666
0.53588629 -0.018823987 0.16904172
0.53590739 -0.018131182 0.16903749
0.53494507 -0.017527288 0.16865252
0.53398281 -0.016920209 0.16826753
0.53400397 -0.016224219 0.16826329
0.53304189 -0.015612368 0.16787826
0.53207988 -0.014997326 0.16749321
0.53111798 -0.0143791 0.16710815
0.53113931 -0.013678334 0.16710387
0.53017753 -0.013055327 0.16671878
0.52921587 -0.012429137 0.16633368
0.52825433 -0.01179976 0.16594854
0.52729285 -0.011167202 0.16556339
0.52633154 -0.010531458 0.16517822
0.5253703 -0.009892527 0.16479303
0.52539188 -0.0091822026 0.16478871
0.52443075 -0.0085384967 0.16440348
0.52445239 -0.0078265816 0.16439915
0.52349144 -0.0071780919 0.16401389
0.52351308 -0.0064645833 0.16400954
0.54931384 -0.074985228 0.17458564
0.54933417 -0.074316323 0.17458156
0.54935455 -0.073647395 0.17457749
0.54937488 -0.072978482 0.17457341
0.5503816 -0.072086841 0.1749505
0.55040193 -0.071419522 0.17494643
0.55042219 -0.070752196 0.17494237
0.55044246 -0.070084877 0.17493831
0.55046272 -0.069417551 0.17493424
0.55048305 -0.068750232 0.17493017
0.55050331 -0.068082906 0.1749261
0.55052358 -0.067415588 0.17492203
0.5505439 -0.066748261 0.17491797
0.55155021 -0.065872528 0.17529517
0.55157042 -0.065206803 0.17529111
0.55159068 -0.064541072 0.17528705
0.55259675 -0.06367173 0.17566428
0.55261695 -0.063007586 0.17566024
0.5536229 -0.06214302 0.17603751
0.55364305 -0.061480466 0.17603347
0.55464882 -0.06062068 0.17641075
0.5546689 -0.059959721 0.17640673
0.55468899 -0.059298772 0.1764027
0.55569464 -0.058445353 0.17678003
0.55571467 -0.057785995 0.17677601
0.55573469 -0.057126638 0.17677198
0.55575472 -0.056467272 0.17676798
0.55676013 -0.055621814 0.17714535
0.5567801 -0.054964043 0.17714134
0.55680013 -0.05430628 0.17713733
0.5578053 -0.053467188 0.17751475
0.55782521 -0.052811015 0.17751075
0.55883026 -0.051976699 0.1778882
0.55885017 -0.051322117 0.17788421
0.55887008 -0.050667539 0.17788023
0.55987489 -0.049839597 0.17825769
0.56087965 -0.04901484 0.17863521
0.56286913 -0.04802309 0.17939422
0.56485844 -0.047037717 0.18015327
0.57476377 -0.043464586 0.1839568
0.57576752 -0.042673275 0.1843345
0.57677114 -0.041885152 0.18471223
0.57777464 -0.041100208 0.18508998
0.57779366 -0.040475883 0.18508618
0.57781261 -0.039851569 0.18508236
0.57783157 -0.039227244 0.18507856
0.57785058 -0.03860293 0.18507476
0.57786953 -0.037978604 0.18507095
0.57788849 -0.037354283 0.18506715
0.5779075 -0.036729965 0.18506335
0.57792646 -0.036105644 0.18505955
0.54358566 -0.03782535 0.17168149
0.54459012 -0.037008554 0.17205904
0.54362696 -0.03646522 0.17167321
0.54364765 -0.035785154 0.17166907
0.54465199 -0.034973141 0.17204665
0.54467261 -0.034294672 0.1720425
0.54469323 -0.0336162 0.17203838
0.54471385 -0.032937732 0.17203423
0.54473448 -0.032259259 0.17203011
0.54377168 -0.031704776 0.1716442
0.54379237 -0.031024709 0.17164005
0.54381299 -0.030344648 0.17163591
0.54383367 -0.029664589 0.17163177
0.54385436 -0.028984517 0.17162763
0.5428918 -0.028420487 0.17124164
0.54291254 -0.027738826 0.1712375
0.54195017 -0.027170014 0.1708515
0.54197091 -0.026486762 0.17084734
0.54199171 -0.025803518 0.17084317
0.54102951 -0.025228327 0.17045714
0.54105031 -0.024543485 0.17045297
0.5400883 -0.023963522 0.17006689
0.54010916 -0.023277087 0.17006272
0.53914726 -0.022692349 0.16967663
0.53916818 -0.022004317 0.16967243
0.5382064 -0.021414803 0.16928631
0.53724474 -0.020822093 0.16890018
0.53726572 -0.02013088 0.16889596
0.53630424 -0.019533399 0.16850978
0.53632528 -0.018840598 0.16850556
0.53536391 -0.018238336 0.16811937
0.53538501 -0.017543936 0.16811514
0.53442383 -0.016936895 0.16772892
0.5334627 -0.016326671 0.16734266
0.53348386 -0.015629092 0.16733842
0.53252292 -0.015014089 0.16695213
0.53156203 -0.014395901 0.16656584
0.53158331 -0.013695134 0.16656156
0.5306226 -0.013072167 0.16617525
0.52966195 -0.012446014 0.16578889
0.52870142 -0.011816676 0.16540253
0.52774096 -0.011184156 0.16501614
0.52678061 -0.01054845 0.16462974
0.52582037 -0.0099095572 0.16424333
0.5248602 -0.0092674801 0.16385686
0.52488184 -0.008555565 0.16385253
0.52392185 -0.0079087103 0.16346608
0.52394348 -0.007195198 0.16346173
0.52298361 -0.006543566 0.16307522
0.54975802 -0.074332356 0.17406391
0.54977834 -0.073663436 0.17405982
0.54979867 -0.072994523 0.17405576
0.54981905 -0.07232561 0.17405167
0.54983938 -0.071656696 0.17404759
0.5498597 -0.070987776 0.17404352
0.54988003 -0.070318863 0.17403944
0.54990035 -0.069649942 0.17403537
0.54992068 -0.068981029 0.17403129
0.549941 -0.068312123 0.17402722
0.54996133 -0.06764321 0.17402314
0.54998165 -0.06697429 0.17401907
0.55000204 -0.066305369 0.17401499
0.55100727 -0.065429613 0.17439342
0.55102754 -0.064762287 0.17438935
0.55203271 -0.063891307 0.17476781
0.55205297 -0.063225575 0.17476375
0.55305791 -0.062359378 0.17514221
0.55307811 -0.06169524 0.17513818
0.55309832 -0.061031107 0.17513412
0.55410314 -0.060171269 0.17551266
0.55412328 -0.059508719 0.17550862
0.55414343 -0.058846179 0.17550458
0.55514801 -0.057992715 0.17588314
0.55516809 -0.057331771 0.17587911
0.55518818 -0.056670811 0.17587508
0.55619258 -0.055823728 0.17625368
0.5562126 -0.055164363 0.17624967
0.55623263 -0.054505005 0.17624564
0.55625266 -0.053845648 0.17624162
0.55725688 -0.053006515 0.17662029
0.55727684 -0.052348748 0.17661628
0.55828089 -0.051514402 0.17699495
0.55830079 -0.050858229 0.17699096
0.55832076 -0.050202053 0.17698695
0.56032836 -0.04854928 0.1777444
0.56231576 -0.047559042 0.1785059
0.56430298 -0.046575189 0.17926742
0.57818919 -0.040490851 0.18460302
0.57820821 -0.039866537 0.18459922
0.57822716 -0.039242212 0.18459542
0.57824612 -0.038617898 0.18459161
0.57826513 -0.037993573 0.18458781
0.57828408 -0.037369251 0.18458401
0.54399586 -0.038521715 0.17115934
0.54499936 -0.037703294 0.17153811
0.54403722 -0.037161585 0.17115106
0.54405791 -0.036481526 0.17114691
0.54506123 -0.035667881 0.17152572
0.54409921 -0.035121389 0.17113863
0.54411989 -0.03444133 0.17113449
0.54414058 -0.03376127 0.17113033
0.54416126 -0.033081211 0.17112619
0.54418188 -0.032401141 0.17112204
0.54420257 -0.031721082 0.1711179
0.54422325 -0.031041013 0.17111376
0.54424393 -0.030360954 0.17110962
0.54328227 -0.029800141 0.17072242
0.54330301 -0.02911848 0.17071828
0.5433237 -0.02843683 0.17071413
0.54236233 -0.027869642 0.1703269
0.54238307 -0.027186394 0.17032275
0.54240382 -0.026503142 0.17031857
0.54144263 -0.025929591 0.16993134
0.54146343 -0.025244744 0.16992716
0.54050231 -0.024666412 0.16953987
0.54052323 -0.02397998 0.16953568
0.53956228 -0.023396866 0.16914837
0.53958321 -0.022708844 0.16914418
0.53862238 -0.022120953 0.16875683
0.53864336 -0.021431338 0.16875263
0.53768271 -0.020838665 0.16836525
0.53672212 -0.020242816 0.16797785
0.53674322 -0.019550011 0.16797364
0.53578281 -0.01894938 0.16758621
0.53580391 -0.018254984 0.16758198
0.53484368 -0.01764957 0.16719455
0.53486478 -0.01695358 0.1671903
0.53390467 -0.016343396 0.16680281
0.53294468 -0.015730025 0.16641532
0.5329659 -0.015030852 0.16641106
0.53200603 -0.014412702 0.16602352
0.53104627 -0.013791366 0.16563597
0.53106761 -0.013089006 0.1656317
0.53010798 -0.012462892 0.16524412
0.52914846 -0.011833591 0.16485651
0.528189 -0.01120111 0.1644689
0.52722967 -0.010565442 0.16408128
0.52627045 -0.0099265873 0.16369362
0.52531129 -0.0092845475 0.16330594
0.52435225 -0.0086393254 0.16291824
0.52437395 -0.0079258168 0.16291389
0.52341497 -0.0072758091 0.16252616
0.52343673 -0.0065607107 0.16252181
0.54919726 -0.074575983 0.17316262
0.54921764 -0.073905475 0.17315853
0.54923803 -0.073234968 0.17315444
0.55024284 -0.072341643 0.17353401
0.5492788 -0.071893945 0.17314628
0.54929918 -0.071223445 0.17314219
0.54931957 -0.070552938 0.1731381
0.54933995 -0.069882423 0.17313401
0.54936033 -0.069211923 0.17312993
0.54938072 -0.068541408 0.17312585
0.5494011 -0.067870907 0.17312177
0.54942149 -0.0672004 0.17311767
0.54944187 -0.066529885 0.17311358
0.54946226 -0.065859377 0.1731095
0.55046654 -0.064983584 0.17348917
0.55048686 -0.064314671 0.17348509
0.55149096 -0.063443646 0.17386477
0.55151123 -0.062776327 0.1738607
0.55153155 -0.062109008 0.17385663
0.55253547 -0.061244357 0.17423636
0.55255574 -0.060578626 0.1742323
0.55355948 -0.059718747 0.17461206
0.55357969 -0.059054617 0.17460801
0.55359989 -0.058390476 0.17460397
0.55460346 -0.057536975 0.17498377
0.5546236 -0.056874428 0.17497973
0.55464375 -0.056211893 0.17497569
0.5546639 -0.055549338 0.17497166
0.55566722 -0.054703806 0.1753515
0.55568731 -0.054042853 0.17534748
0.5557074 -0.053381901 0.17534344
0.55671054 -0.052542742 0.17572331
0.55673063 -0.051883377 0.17571929
0.55675066 -0.051224019 0.17571528
0.55677068 -0.050564662 0.17571126
0.55679071 -0.049905304 0.17570724
0.55779362 -0.049075693 0.17608719
0.56278676 -0.045625221 0.17799114
0.5444268 -0.03853802 0.17063305
0.54444742 -0.037857961 0.17062891
0.5444681 -0.037177891 0.17062475
0.54448879 -0.036497831 0.17062061
0.54450947 -0.035817765 0.17061646
0.54551178 -0.035005674 0.17099652
0.54455078 -0.034457635 0.17060818
0.54457146 -0.033777576 0.17060404
0.54459214 -0.033097513 0.17059989
0.54461282 -0.032417446 0.17059575
0.54463351 -0.031737387 0.17059161
0.54465413 -0.031057319 0.17058745
0.54369348 -0.03049814 0.17019905
0.54371423 -0.029816486 0.17019489
0.54373491 -0.029134823 0.17019074
0.54277444 -0.028569274 0.16980231
0.54279524 -0.027886022 0.16979815
0.54281598 -0.027202776 0.16979398
0.54185575 -0.026630847 0.16940551
0.54187655 -0.02594601 0.16940133
0.54091644 -0.025369307 0.16901281
0.5409373 -0.024682868 0.16900863
0.53997731 -0.02410139 0.16862009
0.53999823 -0.023413362 0.16861591
0.53903842 -0.022827109 0.16822733
0.53905934 -0.022137487 0.16822313
0.53809965 -0.021546453 0.16783454
0.53812069 -0.020855237 0.16783033
0.53716111 -0.020259425 0.1674417
0.53620172 -0.019660424 0.16705306
0.53622282 -0.018966028 0.16704883
0.53526354 -0.01836225 0.16666014
0.53528464 -0.017666258 0.16665591
0.53432548 -0.017057704 0.1662672
0.53336644 -0.016445961 0.16587849
0.53338772 -0.015746787 0.16587423
0.53242874 -0.01513027 0.16548547
0.53245008 -0.014429503 0.16548119
0.53149134 -0.013808206 0.16509242
0.5305326 -0.013183727 0.16470361
0.52957404 -0.012556055 0.16431481
0.52861559 -0.011925201 0.16392596
0.52765721 -0.011291166 0.1635371
0.52669895 -0.010653943 0.16314822
0.52574074 -0.010013535 0.16275932
0.52478266 -0.0093699405 0.16237041
0.52382463 -0.0087231621 0.16198146
0.52384639 -0.00800806 0.16197711
0.52288854 -0.0073564975 0.16158815
0.54960173 -0.075262569 0.1726478
0.54962212 -0.074592061 0.17264372
0.5496425 -0.073921546 0.17263962
0.54966289 -0.073251039 0.17263554
0.54968327 -0.072580539 0.17263146
0.54970366 -0.071910024 0.17262737
0.54874074 -0.071459174 0.17223841
0.54876113 -0.07078708 0.17223431
0.54878157 -0.070114978 0.17223021
0.54880202 -0.069442876 0.17222612
0.54882246 -0.068770781 0.17222202
0.54884285 -0.068098679 0.17221794
0.54886329 -0.067426577 0.17221384
