# .PCD v0.7 - Point Cloud Data file format
VERSION 0.7
FIELDS x y z
SIZE 4 4 4
TYPE F F F
COUNT 1 1 1
WIDTH 1394
HEIGHT 1
VIEWPOINT 0 0 0 1 0 0 0
POINTS 1394
DATA ascii
0.40242633 0.12715842 0.023985144
0.40245697 0.12816657 0.023979001
0.40160102 0.12934524 0.023482047
0.40074512 0.13052709 0.022985043
0.40077588 0.13153842 0.02297888
0.39992017 0.13272505 0.022481872
0.39906457 0.13391486 0.021984845
0.39820907 0.13510786 0.021487804
0.39823997 0.13612397 0.021481613
0.39738455 0.13732177 0.02098451
0.39652929 0.13852271 0.020487417
0.39656028 0.13954201 0.020481205
0.39570513 0.14074776 0.019984085
0.39485013 0.14195669 0.019486943
0.39488122 0.14297916 0.019480711
0.39402634 0.14419286 0.018983545
0.39405745 0.14521694 0.018977305
0.39320269 0.14643544 0.01848007
0.39323387 0.1474611 0.018473821
0.39237928 0.14868435 0.017976595
0.39241049 0.14971162 0.017970335
0.39155605 0.15093966 0.017473076
0.39158732 0.15196851 0.017466806
0.39161861 0.15299736 0.017460536
0.39076436 0.15423177 0.016963243
0.39079568 0.15526222 0.016956965
0.38994157 0.1565014 0.016459636
0.38997295 0.15753345 0.016453346
0.38911894 0.15877742 0.015955964
0.38826507 0.16002457 0.015458593
0.38741133 0.16127491 0.014961197
0.38744283 0.16231172 0.014954879
0.38658923 0.16356683 0.014457454
0.38573566 0.16482514 0.013959983
0.38488224 0.16608661 0.013462525
0.38137388 0.16802049 0.011491613
0.3743262 0.17086577 0.0075560524
0.40542033 0.087395675 0.025411157
0.40545076 0.088397451 0.025405053
0.40548122 0.089399233 0.025398949
0.40639907 0.090291061 0.025884524
0.40642947 0.091291249 0.025878429
0.40645987 0.09229143 0.025872335
0.40737754 0.093176886 0.026357943
0.40829512 0.094059154 0.026843578
0.40832543 0.095056161 0.026837502
0.4092429 0.095933639 0.02732319
0.40927315 0.096929051 0.027317125
0.41019043 0.097801767 0.027802812
0.41110763 0.098671295 0.028288517
0.41113779 0.099663518 0.028282471
0.41205484 0.10052826 0.028768212
0.41208494 0.10151889 0.028762175
0.41211504 0.10250952 0.028756138
0.41214517 0.10350015 0.028750101
0.41217527 0.10449079 0.028744064
0.41220537 0.10548142 0.028738029
0.41134891 0.10660908 0.028240146
0.41137907 0.10760131 0.0282341
0.41140923 0.10859353 0.028228054
0.41055292 0.10972755 0.027730139
0.41058314 0.11072137 0.027724084
0.40972701 0.11186019 0.027226139
0.40887091 0.11300219 0.026728144
0.40890121 0.1139992 0.026722068
0.40804532 0.11514596 0.026224069
0.40807566 0.11614455 0.026217984
0.40721992 0.11729611 0.025719963
0.40636426 0.11845084 0.025221916
0.40550864 0.11960877 0.024723822
0.40553913 0.12061214 0.024717709
0.40468371 0.12177484 0.024219619
0.40471426 0.12277981 0.024213495
0.40385899 0.12394729 0.023715371
0.4038896 0.12495384 0.023709238
0.40303448 0.1261261 0.02321109
0.40306512 0.12713425 0.023204945
0.40221015 0.12831128 0.022706769
0.40135521 0.12949151 0.02220854
0.40050042 0.1306749 0.021710319
0.4005312 0.13168783 0.021704147
0.39967656 0.13287601 0.021205902
0.39882204 0.13406739 0.020707631
0.39796752 0.13526195 0.020209316
0.39799845 0.13627964 0.020203114
0.39714417 0.13747899 0.0197048
0.39628994 0.1386815 0.019206468
0.39543584 0.1398872 0.018708112
0.39546692 0.14090967 0.018701881
0.39461297 0.14212017 0.018203499
0.39464408 0.14314424 0.018197259
0.39379022 0.1443595 0.017698817
0.39382139 0.14538518 0.017692568
0.39385256 0.14641084 0.017686317
0.39299896 0.14763246 0.017187862
0.39303017 0.14865972 0.017181603
0.39217669 0.14988613 0.016683124
0.39220798 0.15091498 0.016676854
0.39223924 0.15194385 0.016670585
0.39138597 0.15317662 0.016172063
0.39141729 0.15420707 0.016165784
0.39056414 0.15544462 0.015667237
0.3905955 0.15647665 0.015660949
0.38974246 0.157719 0.015162342
0.38888955 0.15896451 0.014663748
0.38892102 0.15999974 0.01465744
0.38806829 0.16125004 0.01415881
0.38721561 0.16250353 0.013660167
0.38724717 0.16354193 0.013653839
0.38639462 0.1648002 0.013155135
0.38465819 0.16628309 0.012164084
0.38115394 0.1682184 0.010188235
0.37588224 0.17061573 0.0072275563
0.36268899 0.17615114 -0.00017137289
0.40516847 0.087476797 0.024142981
0.40608552 0.088373438 0.024629787
0.40611598 0.08937522 0.024623683
0.40703282 0.090267077 0.025110487
0.40706322 0.091267265 0.02510439
0.40797994 0.092154354 0.025591224
0.4080103 0.093152948 0.025585139
0.40804064 0.094151542 0.025579054
0.40895715 0.095032252 0.026065925
0.40987363 0.095909774 0.026552847
0.40990388 0.096905187 0.026546782
0.41082016 0.09777794 0.027033707
0.41173634 0.098647505 0.027520645
0.4117665 0.099639729 0.027514599
0.41179666 0.10063195 0.027508553
0.41182682 0.10162418 0.027502507
0.41185695 0.1026164 0.027496461
0.41188711 0.10360862 0.027490415
0.41191727 0.10460085 0.027484369
0.41194743 0.10559307 0.027478322
0.41197759 0.10658529 0.027472274
0.41200775 0.10757752 0.027466228
0.41115242 0.10870992 0.02696709
0.41029721 0.1098455 0.026467927
0.41032746 0.11084091 0.02646186
0.40947232 0.11198128 0.025962641
0.40950263 0.11297829 0.025956566
0.40864769 0.11412343 0.025457351
0.40779287 0.11527175 0.024958115
0.40782326 0.11627194 0.024952019
0.40696856 0.11742505 0.024452755
0.40611389 0.11858134 0.023953438
0.40614441 0.11958472 0.023947325
0.40528995 0.12074578 0.023448005
0.4053205 0.12175075 0.023441881
0.40446618 0.12291659 0.022942539
0.40449679 0.12392315 0.022936406
0.40364262 0.12509377 0.022437034
0.40367326 0.12610193 0.022430891
0.40281925 0.12727733 0.02193149
0.40196526 0.12845592 0.021432038
0.40111145 0.1296377 0.020932592
0.40114224 0.13065062 0.02092642
0.40028855 0.13183717 0.020426951
0.39943498 0.13302691 0.019927464
0.39858145 0.13421984 0.019427923
0.39772806 0.13541596 0.018928397
0.39775902 0.13643526 0.018922186
0.39690578 0.13763614 0.018422624
0.39605266 0.1388402 0.01792305
0.39608371 0.13986269 0.017916819
0.39523071 0.14107153 0.017417213
0.39526185 0.14209561 0.017410973
0.39440894 0.14330924 0.016911307
0.39444011 0.14433491 0.016905058
0.39358741 0.14555332 0.016405394
0.39361861 0.14658058 0.016399136
0.39364985 0.14760785 0.016392875
0.39279735 0.1488326 0.015893169
0.39282861 0.14986147 0.015886899
0.39285988 0.15089032 0.015880629
0.39200756 0.15212147 0.015380888
0.39203888 0.15315191 0.015374609
0.39118668 0.15438783 0.01487484
0.39033458 0.15562695 0.014375019
0.39036599 0.15666059 0.01436872
0.38951406 0.15790448 0.013868903
0.3895455 0.15893969 0.013862594
0.38869372 0.16018836 0.013362741
0.38784203 0.16144022 0.012862875
0.38699037 0.16269526 0.012362957
0.38702199 0.16373526 0.012356619
0.38528746 0.16521487 0.011363127
0.38531917 0.16625808 0.01135677
0.38181898 0.16819325 0.0093759876
0.37655333 0.17059034 0.0064079147
0.37128824 0.17300653 0.0034397249
0.36602369 0.17544186 0.00047138671
0.35987699 0.17812566 -0.0029906773
0.40580425 0.087452747 0.023366483
0.40583473 0.088456117 0.023360368
0.40675074 0.0893512 0.023848418
0.40678117 0.090352982 0.023842312
0.40769696 0.091243289 0.024330359
0.40772736 0.09224347 0.024324264
0.40775776 0.093243666 0.02431817
0.40867338 0.094127595 0.024806254
0.40958887 0.095008351 0.025294365
0.40961918 0.09600535 0.025288289
0.41053459 0.096881323 0.02577645
0.41144985 0.097754113 0.026264602
0.41148007 0.098747924 0.026258547
0.41239518 0.099615939 0.026746735
0.41242534 0.10060816 0.026740687
0.4124555 0.10160039 0.026734641
0.41248566 0.10259261 0.026728595
0.41251582 0.10358483 0.026722549
0.41254598 0.10457706 0.026716502
0.41257614 0.10556928 0.026710456
0.41172174 0.10669846 0.026210098
0.41175193 0.10769228 0.026204042
0.41089767 0.10882623 0.025703659
0.41092792 0.10982164 0.025697595
0.41007376 0.11096038 0.025197158
0.40921971 0.11210229 0.024696721
0.40925008 0.11310089 0.024690636
0.40839618 0.11424758 0.024190176
0.40842658 0.11524777 0.024184082
0.40757287 0.11639924 0.023683595
0.40671918 0.11755392 0.023183053
0.40586564 0.11871175 0.022682527
0.40589619 0.11971673 0.022676403
0.40504277 0.12087934 0.022175847
0.40507337 0.1218859 0.022169713
0.40422013 0.1230533 0.021669127
0.40425077 0.12406145 0.021662984
0.40339765 0.12523364 0.02116237
0.40254459 0.12640901 0.020661704
0.40257534 0.12742034 0.020655541
0.40172246 0.12860048 0.020154878
0.4008697 0.12978381 0.019654196
0.40001702 0.13097031 0.019153494
0.40004793 0.13198644 0.019147301
0.39919534 0.13317773 0.018646538
0.39834291 0.1343722 0.018145788
0.3983739 0.13539152 0.018139577
0.39752162 0.13659076 0.017638797
0.39666945 0.1377932 0.017137993
0.3967005 0.13881569 0.017131763
0.39584848 0.1400229 0.016630935
0.3958796 0.14104697 0.016624693
0.39502764 0.14225899 0.016123811
0.39505881 0.14328465 0.01611756
0.39420709 0.14450143 0.015616667
0.39423829 0.14552869 0.015610408
0.39426953 0.14655595 0.015604149
0.39341798 0.14777909 0.015103223
0.39344925 0.14880794 0.015096953
0.39348051 0.14983679 0.015090684
0.39262915 0.15106632 0.01458972
0.39266047 0.15209676 0.01458344
0.39180925 0.15333106 0.014082448
0.39095807 0.15456854 0.013581404
0.39098951 0.15560217 0.013575105
0.39013854 0.15684442 0.013074063
0.39016998 0.15787965 0.013067755
0.38931915 0.15912668 0.012566684
0.38846841 0.16037691 0.012065594
0.38761774 0.16163032 0.011564452
0.38764936 0.16267033 0.011558115
0.38679886 0.16392851 0.011056976
0.38594845 0.16518986 0.010555819
0.38509816 0.16645442 0.01005464
0.38248399 0.16816808 0.0085637514
0.37722439 0.17056495 0.0055882786
0.37284723 0.17275476 0.0031075445
0.3675887 0.17518829 0.00013182178
0.36321253 0.17741156 -0.0023491161
0.40643999 0.087428689 0.022589983
0.40647051 0.088432059 0.02258387
0.406501 0.089435436 0.022577755
0.40741593 0.090328962 0.023067042
0.40744638 0.091330744 0.023060936
0.40836111 0.092219494 0.023550225
0.40839151 0.093219683 0.023544131
0.40930611 0.094103657 0.02403345
0.40933648 0.095102251 0.024027364
0.4102509 0.095981449 0.024516713
0.41116533 0.096857458 0.025006112
0.41119558 0.097852863 0.025000045
0.41210976 0.098724097 0.025489442
0.41213998 0.099717915 0.025483385
0.41305405 0.10058437 0.025972812
0.41308421 0.1015766 0.025966763
0.41311437 0.10256882 0.025960717
0.41314453 0.10356104 0.025954671
0.41229102 0.104687 0.025453106
0.41232124 0.10568082 0.02544705
0.41146788 0.10681155 0.024945453
0.41149813 0.10780695 0.024939388
0.41064486 0.10894247 0.024437731
0.41067517 0.10993947 0.024431655
0.40982211 0.11107976 0.023930002
0.40896913 0.11222323 0.023428328
0.40899953 0.11322342 0.023422234
0.40814671 0.11437167 0.022920532
0.40729395 0.11552311 0.022418784
0.40732443 0.11652648 0.022412669
0.40647185 0.1176827 0.021910919
0.4065024 0.11868766 0.021904794
0.40564996 0.11984866 0.021403015
0.40568057 0.12085521 0.021396881
0.40482828 0.12202098 0.020895073
0.40485892 0.12302913 0.020888928
0.40400678 0.12419968 0.020387091
0.40315467 0.12537341 0.019885201
0.4031854 0.12638475 0.019879038
0.4023335 0.12756328 0.019377152
0.40148169 0.12874496 0.018875245
0.40063 0.12992986 0.01837332
0.40066087 0.13094595 0.018367128
0.39980927 0.13213563 0.017865147
0.39895779 0.13332847 0.017363174
0.39898878 0.13434777 0.017356962
0.39813745 0.1355454 0.016854959
0.39728624 0.1367462 0.016352937
0.39731732 0.13776869 0.016346706
0.39646623 0.13897426 0.015844649
0.39649737 0.13999835 0.015838407
0.39564636 0.14120872 0.015336301
0.39567754 0.14223439 0.015330051
0.39482674 0.14344953 0.014827941
0.39485797 0.1444768 0.014821681
0.39488921 0.14550406 0.014815421
0.39403862 0.14672557 0.014313272
0.39406988 0.14775443 0.014307003
0.39321944 0.14898072 0.013804825
0.39325076 0.15001117 0.013798546
0.39240044 0.15124223 0.013296339
0.39243183 0.15227427 0.01329005
0.39158159 0.15351012 0.012787782
0.39161301 0.15454376 0.012781483
0.39076301 0.15578438 0.012279218
0.38991308 0.15702818 0.011776933
0.38994461 0.15806502 0.011770615
0.38909483 0.15931359 0.011268302
0.38824511 0.16056538 0.010765942
0.3882767 0.16160539 0.010759605
0.38742718 0.16286193 0.010257242
0.38657776 0.16412167 0.0097548608
0.38660946 0.16516486 0.0097485045
0.38487917 0.1666507 0.0087500392
0.38226807 0.16836584 0.0072554406
0.37877637 0.17031504 0.0052647102
0.37440422 0.17250308 0.0027778249
0.37003252 0.17470707 0.0002908367
0.36566132 0.17692697 -0.0021962484
0.40622279 0.088514619 0.021310788
0.40625334 0.08951959 0.021304663
0.40716726 0.090414755 0.021795142
0.40808114 0.091306724 0.022285677
0.40811157 0.092308506 0.022279574
0.40902525 0.093195707 0.022770105
0.40993884 0.094079718 0.023260657
0.40996918 0.095078312 0.023254571
0.41088262 0.095957547 0.023745153
0.41091293 0.096954554 0.023739077
0.41182628 0.097828999 0.024229713
0.41185653 0.098824412 0.024223648
0.41276968 0.099694088 0.024714287
0.41279989 0.10068791 0.02470823
0.41283011 0.10168172 0.024702175
0.4128603 0.10267553 0.024696119
0.41200781 0.10380145 0.024193319
0.41203809 0.10479687 0.024187254
0.41206834 0.10579227 0.024181187
0.41121599 0.10692457 0.023678323
0.41124627 0.10792157 0.023672247
0.41039413 0.10905863 0.02316938
0.41042447 0.11005722 0.023163294
0.40957248 0.11119907 0.022660397
0.40960288 0.11219925 0.022654302
0.40875101 0.11334588 0.022151377
0.4078992 0.11449569 0.0216484
0.40792969 0.11549906 0.021642284
0.40707809 0.11665364 0.021139316
0.40622655 0.11781142 0.020636322
0.40625715 0.11881797 0.020630188
0.40540576 0.11998051 0.020127166
0.40543643 0.12098866 0.020121023
0.40546706 0.12199681 0.02011488
0.40461588 0.12316573 0.019611817
0.40376472 0.12433784 0.019108711
0.40291375 0.12551312 0.01860561
0.40294454 0.12652606 0.018599438
0.40209368 0.12770613 0.018096307
0.40124294 0.12888937 0.017593158
0.40039223 0.13007583 0.017089957
0.40042317 0.13109352 0.017083757
0.39957267 0.13228475 0.016580565
0.39960364 0.13330403 0.016574353
0.39875329 0.13450003 0.016071126
0.39790303 0.13569921 0.01556788
0.39705285 0.13690157 0.015064615
0.39708397 0.13792565 0.015058374
0.39711511 0.13894972 0.015052134
0.39626509 0.14015846 0.014548797
0.39629626 0.14118414 0.014542547
0.39544642 0.14239764 0.014039219
0.39547765 0.1434249 0.01403296
0.39550889 0.14445217 0.0140267
0.39465925 0.14567205 0.013523327
0.39469051 0.1467009 0.013517058
0.39384103 0.14792557 0.013013656
0.39387235 0.14895602 0.013007377
0.39302301 0.15018545 0.012503946
0.39305437 0.15121748 0.012497658
0.39220512 0.15245171 0.011994172
0.39223653 0.15348534 0.011987873
0.39138749 0.15472434 0.011484385
0.39053851 0.15596652 0.010980876
0.39057004 0.15700333 0.010974558
0.38972121 0.15825029 0.010471021
0.38887247 0.15950043 0.0099674324
0.38890406 0.16054045 0.0099610947
0.3880555 0.16179538 0.0094575146
0.38720703 0.16305347 0.0089539094
0.38635865 0.16431476 0.0084502846
0.38639042 0.16535954 0.0084439181
0.38466215 0.16684692 0.0074429451
0.38293412 0.16834064 0.0064419713
0.37944645 0.17028968 0.0044463133
0.37595916 0.17225148 0.0024505777
0.37159249 0.17445368 -4.2561627e-05
0.36722627 0.17667179 -0.0025357979
0.40603828 0.090610221 0.02002296
0.40783352 0.091394067 0.02101253
0.407864 0.092397436 0.021006415
0.40877679 0.093286261 0.021498198
0.4096894 0.094171911 0.021989971
0.41060194 0.095054366 0.022481767
0.41063228 0.09605296 0.022475682
0.41154468 0.096930645 0.022967501
0.41157496 0.097927652 0.022961425
0.41248727 0.09880054 0.02345331
0.41251752 0.099795952 0.023447243
0.41254777 0.10079136 0.023441179
0.41257802 0.10178677 0.023435112
0.4126083 0.10278218 0.023429047
0.41263855 0.10377759 0.023422981
0.41178709 0.10490666 0.022918897
0.4118174 0.10590366 0.022912821
0.41184771 0.10690067 0.022906745
0.41099653 0.10803609 0.022402659
0.41102687 0.10903469 0.022396576
0.41017583 0.1101749 0.021892454
0.40932488 0.11131829 0.021388315
0.40935531 0.11232007 0.021382211
0.40850446 0.11346826 0.020878015
0.40853497 0.11447163 0.0208719
0.4076843 0.11562458 0.020367702
0.40683374 0.11678072 0.019863484
0.40686435 0.11778729 0.019857351
0.40601391 0.11894819 0.01935311
0.40604457 0.11995634 0.019346967
0.40519428 0.12112203 0.018842692
0.40522498 0.12213178 0.018836539
0.40437481 0.12330226 0.018332208
0.40352479 0.12447591 0.017827883
0.40355557 0.12548883 0.017821711
0.40270567 0.12666728 0.017317358
0.40185589 0.12784889 0.016812986
0.40100616 0.12903371 0.016308567
0.4010371 0.13005142 0.016302366
0.40018755 0.13124099 0.015797943
0.3993381 0.13243377 0.015293509
0.39848873 0.13362971 0.014789049
0.39851981 0.13465221 0.014782818
0.3985509 0.1356747 0.014776587
0.39770174 0.13687702 0.014272088
0.39773285 0.1379011 0.014265848
0.39688379 0.1391082 0.013761294
0.39691496 0.14013387 0.013755044
0.3960661 0.14134575 0.013250487
0.39609733 0.14237301 0.013244227
0.39612857 0.14340027 0.013237967
0.39527988 0.14461853 0.012733371
0.39531115 0.14564738 0.012727101
0.39446262 0.1468704 0.012222482
0.39449394 0.14790086 0.012216203
0.39364555 0.14912866 0.011711549
0.39367694 0.1501607 0.01170526
0.39282864 0.15139329 0.011200544
0.3919805 0.15262906 0.010695848
0.39201197 0.15366429 0.010689539
0.39116398 0.15490484 0.010184808
0.39119548 0.15594167 0.01017849
0.39034763 0.15718699 0.0096737286
0.38949981 0.15843551 0.009168922
0.38865218 0.15968721 0.0086641219
0.3878046 0.16094208 0.0081593031
0.38783631 0.16198528 0.0081529459
0.38698891 0.16324493 0.0076481034
0.38702065 0.16428971 0.0076417369
0.3861734 0.16555415 0.0071368595
0.38532615 0.16682178 0.0066319364
0.38360015 0.16831543 0.0056284904
0.38011652 0.17026433 0.0036279047
0.37663329 0.17222597 0.0016272359
0.37315044 0.17420036 -0.00037350488
0.36878923 0.17641668 -0.002872898
0.40758798 0.091481328 0.019736951
0.40849978 0.092373386 0.020229923
0.40853027 0.093376756 0.020223808
0.41032314 0.094147928 0.02121594
0.41123468 0.095030427 0.021708969
0.41126502 0.096029021 0.021702884
0.41129538 0.097027615 0.021696799
0.41220668 0.097903743 0.022189865
0.41223699 0.09890075 0.022183789
0.4122673 0.099897742 0.022177713
0.41229761 0.10089475 0.022171639
0.41232792 0.10189175 0.022165563
0.41235822 0.10288875 0.022159487
0.4123885 0.10388575 0.022153413
0.41153818 0.10501637 0.021648116
0.41156855 0.10601497 0.021642031
0.41159889 0.10701356 0.021635946
0.41074875 0.10815054 0.021130612
0.41077918 0.10915074 0.021124518
0.40992919 0.11029249 0.02061916
0.40907922 0.11143746 0.020113751
0.40910971 0.11244083 0.020107636
0.40825999 0.11359056 0.019602224
0.40829054 0.11459552 0.0195961
0.40744093 0.11575002 0.01909066
0.40747154 0.11675659 0.019084526
0.40662205 0.11791588 0.018579062
0.40665272 0.11892402 0.018572917
0.40580341 0.12008809 0.018067418
0.40583408 0.12109783 0.018061265
0.40498486 0.12226668 0.01755571
0.40413579 0.1234387 0.017050164
0.40416658 0.12445163 0.017043991
0.40331766 0.12562843 0.016538419
0.40246883 0.12680842 0.016032822
0.40162006 0.1279916 0.015527181
0.401651 0.12900932 0.01552098
0.4008024 0.13019727 0.015015335
0.39995393 0.1313884 0.014509676
0.39910552 0.13258272 0.014003993
0.3991366 0.1336052 0.013997762
0.39916769 0.13462768 0.013991531
0.39831948 0.13582839 0.013485814
0.39835063 0.13685246 0.013479574
0.39750251 0.13805795 0.01297379
0.39753368 0.13908361 0.01296754
0.39668578 0.14029387 0.012461765
0.39671701 0.14132112 0.012455505
0.39674821 0.14234839 0.012449246
0.39590052 0.143565 0.011943426
0.39593178 0.14459386 0.011937156
0.39596307 0.14562272 0.011930887
0.39511552 0.1468457 0.011425034
0.39426813 0.14807189 0.010919156
0.39429948 0.14910391 0.010912867
0.39345217 0.15033488 0.010406935
0.39260498 0.15156902 0.0099010086
0.39263645 0.15260425 0.0098946998
0.39178941 0.15384316 0.0093887504
0.39094245 0.15508527 0.008882775
0.39009556 0.15633057 0.0083767548
0.39012718 0.15737057 0.0083704172
0.3892805 0.15862064 0.0078643942
0.38843387 0.15987387 0.0073583568
0.38846558 0.16091707 0.0073520001
0.38761914 0.1621751 0.0068459283
0.38677278 0.16343632 0.0063398369
0.38592646 0.16470073 0.0058336998
0.38595831 0.16574869 0.0058273138
0.38423425 0.16723908 0.0048214262
0.38338828 0.16851303 0.0043152571
0.3807866 0.17023899 0.002809502
0.37730739 0.17220046 0.00080390571
0.37382856 0.1741747 -0.0012017683
0.37035015 0.17616168 -0.0032075199
0.40825528 0.092462204 0.018953091
0.40828583 0.093467169 0.018946966
0.40919653 0.094356075 0.019441189
0.4101072 0.095241785 0.019935457
0.41101769 0.096124321 0.020429712
0.41192812 0.097003676 0.020923993
0.41195846 0.09800227 0.020917907
0.41198882 0.099000864 0.020911822
0.41201916 0.099999458 0.020905739
0.41204953 0.10099805 0.020899653
0.41207987 0.10199665 0.020893568
0.41211021 0.10299524 0.020887483
0.41214058 0.10399383 0.020881398
0.41217092 0.10499243 0.020875312
0.4113217 0.1061262 0.020368764
0.4113521 0.10712638 0.02036267
0.41050303 0.10826492 0.019856097
0.41053349 0.1092667 0.019849993
0.40968451 0.11041003 0.019343359
0.409715 0.1114134 0.019337246
0.40886623 0.1125615 0.01883061
0.40889674 0.11356647 0.018824486
0.40804812 0.11471934 0.018317828
0.4080787 0.11572589 0.018311694
0.4072302 0.11688355 0.017805006
0.40726086 0.11789171 0.017798863
0.40641251 0.11905413 0.01729214
0.40644321 0.12006388 0.017285986
0.40559494 0.12123109 0.016779209
0.40474683 0.12240149 0.016272442
0.40477762 0.12341441 0.01626627
0.40392965 0.12458959 0.01575947
0.4030818 0.12576795 0.015252655
0.40223396 0.1269495 0.01474579
0.40226489 0.12796721 0.014739588
0.40141729 0.12915353 0.01423272
0.40056977 0.13034303 0.013725838
0.39972234 0.13153572 0.013218931
0.39975339 0.13255821 0.013212699
0.39978448 0.13358068 0.013206469
0.39893726 0.13477977 0.012699529
0.39896837 0.13580383 0.012693288
0.39899951 0.13682792 0.012687048
0.39815241 0.13803336 0.012180037
0.39730546 0.13924196 0.011673032
0.39733669 0.14026923 0.011666773
0.39736789 0.14129649 0.011660513
0.39652115 0.14251149 0.011153475
0.39655241 0.14354034 0.011147206
0.39658371 0.14456919 0.011140936
0.39573714 0.14579055 0.010633854
0.39489067 0.14701509 0.010126758
0.39404425 0.14824283 0.0096196113
0.39407566 0.14927647 0.0096133128
0.39322945 0.15050898 0.0091061629
0.39238334 0.15174466 0.0085989991
0.39241484 0.15278149 0.008592681
0.39156887 0.15402196 0.0080854828
0.39072293 0.15526563 0.0075782388
0.39075455 0.15630564 0.0075719012
0.38990882 0.15755406 0.0070646601
0.38906318 0.15880568 0.0065573938
0.38821763 0.1600605 0.0060501136
0.3882494 0.16110528 0.0060437471
0.38740399 0.16236486 0.0055364324
0.38655862 0.16362764 0.0050290716
0.38571343 0.16489358 0.0045217238
0.38486832 0.16616273 0.0040143505
0.38402331 0.16743505 0.0035069638
0.38317835 0.16871057 0.0029995258
0.37970296 0.17066233 0.00098908634
0.3771047 0.17240091 -0.00052044645
0.37450671 0.17414904 -0.0020300376
0.40540576 0.093900785 0.016162945
0.40719485 0.094680078 0.017159967
0.40986279 0.095335387 0.018658582
0.41077238 0.096219547 0.019154092
0.41168183 0.097100534 0.019649591
0.41259119 0.097978331 0.020145109
0.41174263 0.09910091 0.019637402
0.4126519 0.099975511 0.020132938
0.41180345 0.10110128 0.019625211
0.41183385 0.10210146 0.019619117
0.41186425 0.10310166 0.019613022
0.41189465 0.10410184 0.019606927
0.41192505 0.10510203 0.019600833
0.41107687 0.10623734 0.019093048
0.41022876 0.10737586 0.018585211
0.41025925 0.10837923 0.018579096
0.41028976 0.1093826 0.018572982
0.40944189 0.11052747 0.018065132
0.40947244 0.11153244 0.018059008
0.40862471 0.11268209 0.017551135
0.40865529 0.11368865 0.017545002
0.40868589 0.11469521 0.017538868
0.40783834 0.11585123 0.017030956
0.40786901 0.11685938 0.017024813
0.40702161 0.11802019 0.016516866
0.40705231 0.11902992 0.016510714
0.406205 0.12019552 0.016002711
0.40535787 0.12136427 0.015494722
0.40538865 0.1223772 0.01548855
0.40454164 0.12355074 0.014980531
0.40369475 0.12472747 0.014472488
0.40284789 0.12590739 0.013964399
0.40287882 0.1269251 0.013958197
0.40203214 0.1281098 0.01345011
0.40118557 0.12929767 0.012942005
0.40033913 0.13048874 0.012433874
0.40037018 0.13151121 0.012427644
0.39952385 0.13270704 0.011919489
0.399555 0.13373113 0.011913249
0.39958611 0.13475521 0.011907008
0.39873993 0.13595743 0.011398783
0.39877111 0.1369831 0.011392533
0.39792514 0.13819008 0.010884311
0.39795634 0.13921733 0.010878051
0.39798757 0.1402446 0.010871791
0.39714178 0.14145796 0.01036353
0.39717305 0.14248681 0.010357261
0.39632741 0.14370495 0.0098489644
0.39635873 0.1447354 0.0098426854
0.39551324 0.14595832 0.0093343668
0.39466777 0.14718442 0.008825996
0.39382246 0.1484137 0.0083176373
0.39385393 0.14944893 0.0083113294
0.39300877 0.150683 0.0078029362
0.3930403 0.15171981 0.0077966182
0.39219525 0.15295866 0.0072882022
0.3913503 0.1542007 0.006779734
0.39050546 0.1554459 0.0062712794
0.38966075 0.15669429 0.0057627992
0.38969246 0.15773748 0.005756442
0.38884786 0.15899067 0.0052479384
0.38887963 0.16003545 0.0052415719
0.38803518 0.16129339 0.0047330391
0.38719079 0.16255455 0.004224455
0.38634655 0.16381887 0.0037158777
0.3855024 0.16508637 0.0032072866
0.38465837 0.16635706 0.0026986764
0.38381436 0.16763096 0.0021900143
0.38209459 0.16913074 0.0011791352
0.38037503 0.17063691 0.00016822283
0.37777981 0.17237537 -0.0013450099
0.37518486 0.17412338 -0.0028583009
0.37342319 0.093827933 -0.0031974281
0.40519917 0.095003858 0.014871309
0.4078643 0.095664054 0.016373619
0.40965101 0.09643387 0.017373135
0.4114376 0.097197309 0.018372716
0.41234598 0.098076738 0.018869458
0.41237637 0.099076927 0.018863363
0.41152894 0.10020265 0.018354403
0.4115594 0.10120443 0.018348299
0.41158983 0.10220621 0.018342193
0.41162029 0.10320798 0.018336089
0.41077304 0.10434168 0.017827049
0.41080353 0.10534506 0.017820934
0.41083404 0.10634843 0.017814821
0.41086453 0.1073518 0.017808706
0.41001758 0.10849345 0.017299648
0.41004813 0.10949841 0.017293524
0.40920129 0.11064485 0.016784437
0.4092319 0.1116514 0.016778303
0.40926248 0.11265796 0.01677217
0.40841585 0.11381076 0.016263038
0.40844652 0.11481891 0.016256895
0.40847716 0.11582705 0.016250752
0.40763071 0.11698623 0.015741587
0.40766141 0.11799598 0.015735434
0.40681508 0.11915993 0.015226209
0.40684581 0.12017127 0.015220046
0.40599969 0.12133998 0.014710824
0.40515363 0.1225119 0.014201581
0.40430769 0.12368699 0.01369232
0.40433857 0.12470312 0.013686128
0.40349272 0.125883 0.013176806
0.40264702 0.12706605 0.012667496
0.40180141 0.1282523 0.012158167
0.40183246 0.12927319 0.012151945
0.400987 0.13046421 0.011642582
0.40014163 0.13165842 0.011133203
0.40017274 0.1326825 0.011126963
0.40020388 0.13370657 0.011120723
0.39935866 0.13490716 0.010611274
0.39938983 0.13593283 0.010605024
0.39854482 0.13713819 0.010095578
0.39857602 0.13816546 0.010089318
0.39860725 0.13919272 0.010083059
0.39776242 0.14040445 0.0095735742
0.39779371 0.1414333 0.0095673045
0.39694902 0.1426498 0.00905779
0.39610443 0.14386949 0.0085482579
0.39613578 0.14490153 0.0085419687
0.3952913 0.14612602 0.0080323741
0.39444694 0.14735366 0.0075227926
0.39447841 0.14838889 0.0075164842
0.3936342 0.14962131 0.0070068734
0.39279011 0.15085694 0.0064972374
0.39194605 0.15209575 0.0059875618
0.39197767 0.15313575 0.0059812241
0.39113379 0.15437934 0.0054715397
0.39029002 0.1556261 0.0049618413
0.39032173 0.15666929 0.0049554845
0.38947812 0.15792082 0.0044457573
0.38863459 0.15917556 0.0039360109
0.3877911 0.16043349 0.0034262126
0.38782296 0.16148145 0.0034198265
0.38697967 0.16274415 0.0029100315
0.3861365 0.16401002 0.0024002169
0.38529342 0.16527908 0.0018903771
0.38445038 0.16655134 0.0013804975
0.38360748 0.16782677 0.00087061897
0.38188979 0.16932808 -0.00014273095
0.37929738 0.17106004 -0.001659619
0.37758014 0.17257568 -0.002673062
0.40411764 0.096227571 0.013073137
0.40677962 0.0968863 0.014579131
0.41031834 0.097414747 0.016589275
0.41122583 0.098297395 0.017087229
0.41125631 0.099300765 0.017081115
0.4112868 0.10030413 0.017075
0.41131732 0.1013075 0.017068887
0.41134781 0.10231088 0.017062772
0.41137829 0.10331425 0.017056659
0.41053215 0.1044495 0.016546406
0.41056269 0.10545447 0.016540281
0.41059324 0.10645943 0.016534159
0.41062379 0.1074644 0.016528035
0.40977788 0.1086076 0.016017733
0.40980849 0.10961416 0.016011599
0.40983909 0.11062071 0.016005466
0.40899336 0.11177029 0.015495127
0.40902403 0.11277843 0.015488983
0.40905467 0.11378659 0.01548284
0.40820915 0.11494254 0.014972461
0.40823984 0.11595228 0.014966309
0.40739441 0.11711301 0.014455875
0.40742514 0.11812435 0.014449712
0.40745589 0.11913569 0.014443549
0.40661073 0.12030278 0.013933097
0.40576562 0.12147305 0.013422632
0.40492064 0.12264653 0.012912147
0.40495154 0.12366263 0.012905955
0.40410665 0.12484089 0.012395415
0.4032619 0.12602231 0.011884881
0.40329286 0.12704161 0.01187867
0.4024483 0.12822783 0.011368107
0.40160379 0.12941721 0.010857525
0.40163487 0.1304397 0.010851295
0.40079051 0.13163386 0.010340678
0.40082163 0.13265795 0.010334437
0.39997739 0.13385689 0.0098237703
0.39913327 0.13505904 0.0093131112
0.3991645 0.1360863 0.0093068508
0.3991957 0.13711356 0.0093005914
0.39922693 0.13814083 0.0092943311
0.39838305 0.13935092 0.0087836226
0.39841434 0.14037977 0.0087773539
0.39757061 0.14159465 0.0082666166
0.39672697 0.14281271 0.0077558593
0.39675835 0.14384474 0.0077495705
0.39591482 0.1450676 0.0072387527
0.39507142 0.14629363 0.0067279474
0.39510289 0.14732884 0.0067216391
0.39425966 0.14855964 0.0062108045
0.39341649 0.14979362 0.0056999507
0.39257342 0.15103082 0.0051890453
0.39260504 0.15207081 0.0051827081
0.39176211 0.15331277 0.0046718055
0.39091933 0.1545579 0.0041608838
0.39007661 0.15580621 0.003649943
0.39010835 0.15685101 0.0036435763
0.38926581 0.15810409 0.0031326062
0.38842329 0.15936039 0.0026215843
0.3875809 0.16061985 0.0021105753
0.38673863 0.16188252 0.0015995469
0.38677058 0.16293368 0.0015931414
0.38505432 0.16441739 0.00057739957
0.38508639 0.16547172 0.00057097478
0.38337046 0.16696499 -0.0004447932
0.38252866 0.16824357 -0.00095591875
0.38168699 0.16952534 -0.0014670637
0.3799715 0.17103454 -0.0024829607
0.38101068 0.09619835 -0.0013366798
0.40745115 0.09787339 0.013790308
0.41010973 0.098517887 0.015300111
0.4110162 0.09940058 0.015799299
0.41104674 0.10040554 0.015793176
0.41107729 0.10141051 0.015787052
0.41110784 0.10241547 0.015780928
0.41113839 0.10342044 0.015774803
0.41116893 0.10442541 0.015768679
0.41032389 0.10556379 0.015257175
0.4103545 0.10657036 0.015251041
0.41038507 0.10757691 0.015244908
0.41041568 0.10858347 0.015238774
0.40957087 0.10972981 0.014727221
0.40960151 0.11073796 0.014721077
0.40963215 0.11174612 0.014714934
0.40966281 0.11275426 0.01470879
0.40881824 0.11390858 0.014197188
0.40884894 0.11491833 0.014191035
0.40800446 0.11607742 0.013679379
0.40803522 0.11708876 0.013673215
0.40719095 0.11825264 0.013161555
0.40722173 0.11926556 0.013155383
0.40637761 0.12043422 0.012643694
0.40553358 0.12160605 0.012131985
0.40556449 0.12262216 0.012125793
0.40472054 0.12379878 0.011614029
0.40387675 0.12497858 0.011102272
0.40390775 0.12599787 0.01109606
0.4030641 0.12718245 0.010584274
0.40222058 0.12837023 0.010072469
0.40225166 0.1293927 0.010066238
0.40140826 0.13058524 0.0095544029
0.4014394 0.13160931 0.009548163
0.40059608 0.13280664 0.0090362672
0.39975294 0.13400714 0.0085243834
0.39978415 0.13503441 0.008518124
0.39981538 0.13606167 0.0085118636
0.39897242 0.13726854 0.0079999473
0.39900368 0.13829739 0.0079936776
0.39816087 0.13950905 0.0074817268
0.3981922 0.1405395 0.0074754474
0.39734954 0.14175592 0.0069634672
0.39738092 0.14278796 0.0069571785
0.39653832 0.14400917 0.0064451369
0.39569589 0.14523357 0.0059331078
0.39485359 0.14646116 0.0054210597
0.39488509 0.14749797 0.0054147416
0.39404291 0.14873032 0.0049026641
0.39320076 0.14996587 0.004390541
0.39235878 0.1512046 0.0038784249
0.39151689 0.15244651 0.0033662892
0.3915486 0.15348971 0.0033599325
0.39070684 0.1547364 0.0028477677
0.38986519 0.15598626 0.0023355836
0.38989699 0.15703264 0.002329207
0.38905543 0.1582873 0.0018169676
0.38821402 0.15954514 0.001304735
0.38737273 0.16080616 0.00079248287
0.3865315 0.16207038 0.00028021133
0.38569033 0.16333778 -0.00023211166
0.38484931 0.16460834 -0.00074442191
0.38400838 0.16588211 -0.0012567516
0.38316756 0.16715905 -0.001769095
0.38232681 0.16843919 -0.0022814635
0.40459207 0.098331727 0.010981471
0.40812272 0.09886048 0.01300148
0.40990323 0.099624142 0.014008456
0.41080868 0.10050687 0.014508878
0.41083929 0.10151343 0.014502744
0.4108699 0.10251998 0.01449661
0.41090047 0.10352654 0.014490477
0.41093108 0.1045331 0.014484343
0.41096166 0.10553966 0.014478209
0.41099226 0.10654622 0.014472076
0.41014838 0.10768934 0.013959309
0.41017902 0.1086975 0.013953165
0.41020966 0.10970564 0.013947022
0.41024032 0.11071379 0.013940878
0.40939668 0.11186489 0.013428063
0.40942734 0.11287463 0.01342191
0.40858382 0.11403051 0.012909039
0.40861455 0.11504185 0.012902875
0.40864527 0.11605318 0.012896713
0.40780199 0.11721542 0.012383829
0.40783277 0.11822836 0.012377657
0.4069896 0.11939537 0.011864744
0.40614656 0.12056557 0.011351817
0.40617743 0.12158169 0.011345626
0.40533447 0.12275668 0.010832632
0.40536541 0.12377438 0.01082643
0.40452263 0.12495414 0.01031344
0.40367994 0.12613709 0.009800436
0.40283737 0.12732321 0.0092874067
0.40286845 0.1283457 0.0092811761
0.40202603 0.12953661 0.008768118
0.40205714 0.1305607 0.0087618772
0.40121481 0.13175638 0.0082487632
0.40037262 0.13295525 0.0077356566
0.40040383 0.13398251 0.0077293967
0.39956179 0.13518617 0.0072162608
0.39959306 0.13621502 0.0072099911
0.39962435 0.13724388 0.0072037214
0.39878249 0.1384539 0.0066905469
0.39794073 0.13966709 0.0061773583
0.39797211 0.14069915 0.0061710691
0.39713043 0.14191714 0.005657814
0.39628893 0.1431383 0.005144571
0.3963204 0.14417352 0.0051382626
0.39547902 0.14539947 0.0046249968
0.39551052 0.1464363 0.0046186787
0.39466932 0.14766702 0.0041053775
0.39382812 0.14890094 0.003592025
0.3929871 0.15013804 0.003078691
0.39214617 0.15137832 0.0025653318
0.39217788 0.15242149 0.002558975
0.3913371 0.15366656 0.0020455865
0.3904964 0.15491481 0.0015321788
0.38965577 0.15616624 0.0010187253
0.3896876 0.15721421 0.0010123393
0.38797486 0.15867865 -8.1872113e-06
0.38800681 0.15972981 -1.4592643e-05
0.38716656 0.16099238 -0.00052808772
0.38632634 0.16225816 -0.0010416285
0.38548627 0.1635271 -0.0015551625
0.38464633 0.16479924 -0.0020687159
0.38380644 0.16607457 -0.0025822828
0.38296667 0.16735306 -0.003095875
0.40614179 0.099202827 0.010695488
0.40879425 0.09984757 0.012212658
0.41057268 0.10060813 0.01322212
0.41060331 0.10161627 0.013215976
0.41063395 0.10262442 0.013209833
0.41066459 0.10363258 0.013203689
0.41069523 0.10464072 0.013197546
0.41072589 0.10564888 0.013191403
0.41075653 0.10665703 0.013185259
0.41078717 0.10766517 0.013179116
0.4108178 0.10867333 0.013172972
0.40997508 0.10982119 0.012658948
0.41000578 0.11083093 0.012652796
0.40916312 0.11198359 0.012138705
0.40919387 0.11299492 0.012132541
0.4092246 0.11400627 0.012126379
0.40838221 0.11516528 0.011612287
0.40841299 0.11617821 0.011606115
0.40757075 0.117342 0.011091988
0.40760159 0.11835653 0.011085805
0.4067595 0.1195251 0.01057165
0.40679038 0.12054121 0.010565458
0.40594837 0.12171457 0.010051247
0.40510651 0.12289111 0.0095370421
0.40513751 0.1239104 0.0095308311
0.40429577 0.12509172 0.0090166032
0.40345415 0.12627621 0.0085023502
0.40348524 0.1272987 0.0084961196
0.40264377 0.12848799 0.0079818433
0.40267488 0.12951206 0.0079756035
0.4018335 0.13070613 0.0074612601
0.40099227 0.13190337 0.0069469353
0.40102351 0.13293064 0.0069406754
0.40018243 0.13413264 0.0064263158
0.40021369 0.1351615 0.0064200461
0.39937276 0.1363683 0.0059056575
0.39940408 0.13739875 0.0058993781
0.3985633 0.13861032 0.0053849663
0.39859465 0.13964236 0.005378677
0.39775395 0.14085872 0.0048641982
0.39691341 0.14207825 0.0043497374
0.39694485 0.14311348 0.0043434291
0.39610445 0.14433779 0.0038289337
0.39526415 0.1455653 0.0033144187
0.39442387 0.146796 0.0027998581
0.39445549 0.147836 0.0027935207
0.39361542 0.14907147 0.0022789571
0.39277545 0.15031011 0.0017643801
0.39193559 0.15155195 0.0012497779
0.39196733 0.15259673 0.0012434113
0.39112759 0.15384334 0.00072878564
0.39028791 0.15509316 0.00021410277
0.38944837 0.15634613 -0.0003005616
0.38860893 0.15760231 -0.00081525126
0.38776961 0.15886165 -0.0013299602
0.38693032 0.16012421 -0.001844715
0.38696235 0.16117854 -0.0018511397
0.38525209 0.16265884 -0.0028742242
0.38528425 0.16371638 -0.0028806685
0.40768936 0.10007083 0.010411954
0.41033864 0.1007093 0.011932895
0.4112421 0.1015921 0.012435777
0.41127273 0.10260025 0.012429634
0.41130337 0.10360841 0.01242349
0.41133404 0.10461655 0.012417347
0.41136467 0.10562471 0.012411204
0.41139531 0.10663286 0.01240506
0.41055349 0.1077775 0.011889823
0.41058418 0.10878725 0.01188367
0.41061488 0.10979699 0.011877516
0.4097732 0.11094801 0.011362202
0.40980396 0.11195935 0.011356039
0.40983468 0.11297067 0.011349876
0.40899324 0.11412807 0.010834561
0.40902403 0.115141 0.010828389
0.40818274 0.11630316 0.010313038
0.40734157 0.11746851 0.0097976746
0.40737244 0.11848463 0.0097914822
0.40653136 0.11965476 0.0092760567
0.4065623 0.12067247 0.009269855
0.4057214 0.12184737 0.0087544275
0.40575236 0.12286668 0.0087482166
0.40491161 0.12404636 0.0082327649
0.40407094 0.12522922 0.0077172886
0.40410203 0.1262517 0.0077110576
0.40326151 0.12743935 0.0071955579
0.40329266 0.12846343 0.0071893176
0.40245223 0.12965585 0.0066737505
0.40161195 0.13085148 0.0061582024
0.40164319 0.13187873 0.0061519425
0.40080306 0.13307913 0.0056363591
0.40083435 0.13410798 0.0056300899
0.39999434 0.13531314 0.0051144832
0.39915448 0.1365215 0.0045988513
0.39918584 0.13755353 0.0045925626
0.39834607 0.13876668 0.0040768753
0.39750642 0.13998298 0.0035612008
0.39753789 0.14101821 0.0035548923
0.39669839 0.1422393 0.0030391829
0.39672989 0.14327613 0.0030328648
0.39589053 0.14450198 0.0025171321
0.39505124 0.14573106 0.002001348
0.3942121 0.1469633 0.0014855706
0.39424375 0.14800489 0.0014792234
0.39340472 0.14924191 0.00096342264
0.39256582 0.15048212 0.0004475968
0.39259759 0.1515269 0.00044123019
0.3917588 0.15277188 -7.4618983e-05
0.3909201 0.15402006 -0.00059052551
0.39008152 0.15527141 -0.0011064135
0.38924304 0.15652594 -0.0016223267
0.38840464 0.15778367 -0.0021382535
0.3875663 0.15904459 -0.0026542319
0.38672814 0.16030869 -0.0031702034
0.40923482 0.10093571 0.01013091
0.41013736 0.10182174 0.010635014
0.41103983 0.10270458 0.011139162
0.41107053 0.10371432 0.011133009
0.41110122 0.10472406 0.011126855
0.41113192 0.1057338 0.011120702
0.41116259 0.10674355 0.01111455
0.41032177 0.10788976 0.010598036
0.41035253 0.10890109 0.010591874
0.41038325 0.10991243 0.010585711
0.40954271 0.11106499 0.010069186
0.4095735 0.11207792 0.010063013
0.40960428 0.11309086 0.01005684
0.40876392 0.1142498 0.0095402822
0.40879473 0.11526431 0.0095341001
0.40795451 0.11642803 0.0090175122
0.40798539 0.11744415 0.0090113208
0.40714526 0.11861265 0.0084946714
0.4071762 0.11963036 0.0084884698
0.40633625 0.12080364 0.0079718186
0.40636724 0.12182293 0.0079656076
0.40552744 0.12300099 0.0074489322
0.40468776 0.12418222 0.0069322321
0.40471882 0.1252047 0.0069260015
0.40387928 0.12639073 0.0064092781
0.4039104 0.12741481 0.0064030373
0.40307096 0.1286056 0.005886253
0.40223163 0.12979957 0.0053694812
0.40226287 0.13082685 0.0053632213
0.40142369 0.1320256 0.0048464141
0.40145496 0.13305445 0.0048401449
0.40061596 0.13425799 0.0043233144
0.39977702 0.13546471 0.0038064648
0.39980841 0.13649675 0.0038001759
0.39896956 0.13770826 0.0032832653
0.39813089 0.13892294 0.0027663612
0.39729232 0.14014082 0.0022494437
0.39732382 0.14117762 0.0022431256
0.39648539 0.14240028 0.0017261732
0.39564699 0.14362612 0.0012091751
0.39567861 0.14466612 0.0012028377
0.39484042 0.14589673 0.00068584247
0.39400232 0.14713053 0.00016882786
0.39403403 0.1481737 0.00016247098
0.39319608 0.14941229 -0.00035457851
0.39322782 0.15045707 -0.00036094509
0.39239001 0.15170042 -0.00087801798
0.39155224 0.15294696 -0.0013951422
0.39071465 0.15419669 -0.0019122596
0.38987711 0.1554496 -0.0024293908
0.3890397 0.15670569 -0.0029465412
0.40287909 0.10088794 0.0052612475
0.40726423 0.10128725 0.0078125009
0.4090367 0.10205122 0.0088293366
0.40993822 0.10293728 0.0093346732
0.41083965 0.10382017 0.0098400228
0.41087037 0.10483149 0.0098338593
0.41090113 0.10584284 0.0098276967
0.41093186 0.10685418 0.0098215342
0.41096261 0.10786551 0.0098153716
0.41012293 0.10901485 0.0092976373
0.41015372 0.11002778 0.0092914654
0.4101845 0.11104071 0.0092852926
0.40934506 0.11219643 0.0087675145
0.40937591 0.11321095 0.0087613324
0.40853658 0.11437145 0.008243531
0.40856746 0.11538756 0.0082373386
0.40772825 0.11655284 0.0077194762
0.40775916 0.11757055 0.0077132746
0.40692014 0.1187406 0.007195415
0.40695113 0.11975989 0.0071892035
0.40611225 0.12093473 0.0066713146
0.40614328 0.12195562 0.0066650938
0.40530455 0.12313523 0.006147176
0.40533561 0.1241577 0.006140945
0.40449703 0.1253421 0.0056229923
0.40452817 0.12636617 0.005616752
0.40368965 0.12755534 0.0050987438
0.40285131 0.1287477 0.0045807483
0.40288255 0.12977494 0.0045744884
0.40204433 0.13097209 0.0040564635
0.40120623 0.13217239 0.0035384195
0.40036821 0.13337588 0.0030203501
0.4003996 0.13440792 0.0030140611
0.39956167 0.13561621 0.0024959366
0.3987239 0.13682768 0.0019778244
0.39875537 0.13786289 0.0019715161
0.39791775 0.13907914 0.001453375
0.39794928 0.14011595 0.0014470569
0.39711177 0.14133696 0.00092888664
0.39627436 0.14256117 0.00041066494
0.39630598 0.14360118 0.00040432738
0.39546874 0.14483015 -0.00011389134
0.39463159 0.14606233 -0.00063213537
0.3946633 0.14710552 -0.00063849229
0.39382631 0.14834246 -0.0011567596
0.39298943 0.14958259 -0.0016750463
0.39302123 0.15062895 -0.0016814226
0.39218441 0.15187387 -0.0021997704
0.39134777 0.15312196 -0.0027181057
0.40004972 0.10135791 0.0024166212
0.40529975 0.10163855 0.0054867286
0.40707028 0.10240738 0.0065059699
0.40884069 0.10316984 0.0075252824
0.40974119 0.10405594 0.008031846
0.41064161 0.10493886 0.0085384287
0.4106724 0.10595179 0.0085322568
0.41070318 0.10696472 0.008526084
0.41073397 0.10797764 0.0085199112
0.40989536 0.10912855 0.0080009345
0.40992621 0.11014307 0.0079947524
0.40908775 0.11129874 0.0074757473
0.40911865 0.11231486 0.0074695554
0.40914953 0.11333097 0.0074633635
0.40831122 0.11449303 0.0069442866
0.40834215 0.11551074 0.006938085
0.40750405 0.11667756 0.0064190114
0.40753502 0.11769686 0.0064127999
0.40756601 0.11871617 0.0064065889
0.40672809 0.11988936 0.0058874763
0.40589026 0.12106574 0.0053683445
0.40592134 0.12208822 0.0053621139
0.40508366 0.12326939 0.0048429472
0.4051148 0.12429346 0.0048367069
0.40427721 0.12547942 0.0043174904
0.40430838 0.12650508 0.0043112403
0.40347099 0.1276958 0.003792021
0.4026337 0.12888971 0.0032727765
0.40266499 0.12991856 0.0032665071
0.40182784 0.13111724 0.0027472393
0.40099078 0.13231911 0.0022279522
0.40102217 0.13335115 0.0022216632
0.4001852 0.13455778 0.0017023151
0.39934838 0.13576762 0.0011829793
0.39851168 0.13698064 0.00066362426
0.39854321 0.13801746 0.00065730623
0.39770663 0.13923526 0.00013792202
0.39687011 0.14045624 -0.00038151362
0.39690173 0.14149624 -0.00038785112
0.39606538 0.142722 -0.0009072838
0.39522916 0.14395094 -0.0014267359
0.39526087 0.14499412 -0.0014330928
0.3944248 0.14622784 -0.001952574
0.39445657 0.14727263 -0.0019589406
0.39362061 0.14851113 -0.002478451
0.39278474 0.14975283 -0.0029980128
0.39281657 0.15080078 -0.0030043989
0.40247253 0.10211481 0.0026395705
0.40511 0.1027633 0.0041752416
0.40774712 0.10340223 0.0057109385
0.40864673 0.10429157 0.006218716
0.40954629 0.1051777 0.0067265392
0.40957716 0.10619382 0.0067203469
0.40960807 0.10720994 0.006714155
0.40963894 0.10822605 0.0067079631
0.40966982 0.10924216 0.0067017712
0.40970072 0.11025827 0.0066955793
0.40886325 0.11141551 0.0061753043
0.40889418 0.11243322 0.0061691031
0.40892512 0.11345092 0.0061629014
0.40808794 0.11461452 0.0056426139
0.4081189 0.11563383 0.0056364024
0.40728185 0.11680221 0.005116086
0.40731287 0.1178231 0.0051098648
0.40647596 0.11899626 0.004589519
0.40650705 0.12001874 0.0045832884
0.40653813 0.12104123 0.0045770574
0.4057014 0.12222075 0.004056673
0.40573254 0.12324484 0.0040504327
0.40489593 0.12442915 0.0035299868
0.40405944 0.12561665 0.0030095538
0.40409067 0.12664391 0.0030032939
0.40325433 0.12783618 0.0024828317
0.40328562 0.12886503 0.002476562
0.40244943 0.13006207 0.0019560708
0.40161332 0.13126233 0.0014355601
0.40164471 0.13229436 0.0014292711
0.40080872 0.13349938 0.00090870494
0.39997286 0.13470758 0.00038814571
0.39913711 0.13591896 -0.00013243296
0.39916864 0.13695578 -0.00013875109
0.39833301 0.13817194 -0.00065935886
0.39749748 0.1393913 -0.0011800182
0.39666206 0.14061384 -0.0017006646
0.39669371 0.14165543 -0.001707012
0.39585847 0.14288273 -0.0022276875
0.39589015 0.14392594 -0.0022340445
0.39505506 0.14515801 -0.0027547493
0.3950868 0.14620279 -0.002761116
0.40315571 0.103119 0.0018370808
0.40579 0.10376283 0.0033764748
0.40755635 0.10452703 0.0044006789
0.4093225 0.10528487 0.0054249158
0.40935344 0.10630258 0.0054187141
0.40938437 0.10732029 0.0054125125
0.4094153 0.10833799 0.0054063108
0.40944624 0.1093557 0.0054001091
0.40947717 0.11037341 0.0053939074
0.40864083 0.1115322 0.0048724157
0.40867183 0.1125515 0.0048662042
0.40870279 0.11357079 0.0048599932
0.40786666 0.11473595 0.0043384684
0.40789768 0.11575685 0.0043322472
0.4070617 0.11692677 0.0038106877
0.40709278 0.11794925 0.0038044569
0.40625691 0.11912398 0.0032828681
0.40628803 0.12014805 0.0032766277
0.40631917 0.12117213 0.0032703872
0.40548345 0.12235322 0.0027487276
0.40464789 0.1235375 0.0022270863
0.40467912 0.12456475 0.0022208267
0.40471035 0.12559202 0.0022145668
0.40387496 0.12678266 0.001692881
0.40303969 0.12797648 0.0011711757
0.40307102 0.12900694 0.0011648964
0.4022359 0.13020554 0.00064316212
0.4014008 0.13140734 0.00012138204
0.40056589 0.1326123 -0.00040039106
0.40059733 0.13364753 -0.00040669949
0.39976257 0.13485728 -0.00092850171
0.39892787 0.13607024 -0.0014503235
0.39809322 0.13728637 -0.0019721908
0.39812484 0.13832636 -0.0019785282
0.39729038 0.13954727 -0.0025003986
0.39645603 0.14077134 -0.0030222882
0.39648774 0.14181454 -0.0030286452
0.39857581 0.10281619 -0.0020514429
0.40383887 0.10412319 0.0010345967
0.40647 0.10476235 0.0025777197
0.40736771 0.10565493 0.0030879388
0.40826526 0.10654435 0.0035981829
0.40916276 0.10743056 0.0041084467
0.40919375 0.10844986 0.0041022352
0.40922472 0.10946916 0.0040960237
0.40838939 0.11062791 0.0035732987
0.40842041 0.1116488 0.0035670777
0.40845147 0.11266969 0.0035608567
0.40761632 0.11383481 0.003038093
0.4076474 0.11485729 0.0030318622
0.40767848 0.11587978 0.0030256314
0.40684354 0.11705127 0.0025028344
0.40687466 0.11807535 0.0024965941
0.4069058 0.11909943 0.0024903535
0.40607101 0.12027729 0.0019674802
0.40610218 0.12130297 0.0019612298
0.40526757 0.1224856 0.0014383594
0.4052988 0.12351287 0.0014320995
0.40446433 0.12470029 0.00090920553
0.4044956 0.12572914 0.00090293598
0.40366131 0.12692133 0.00038000714
0.40282708 0.12811671 -0.00014294113
0.40285847 0.12914877 -0.00014923012
0.40202433 0.13034892 -0.00067223376
0.40119037 0.13155226 -0.0011952305
0.40035647 0.1327588 -0.0017182409
0.400388 0.13379562 -0.001724559
0.39955425 0.13500692 -0.0022476043
0.39872059 0.13622142 -0.002770701
0.40013105 0.10370304 -0.0023437215
0.40452206 0.10512737 0.0002321011
0.40628442 0.10589334 0.0012612228
0.40718114 0.10678595 0.0017727128
0.40807772 0.10767539 0.0022841846
0.4089742 0.10856165 0.0027956814
0.40813988 0.10972036 0.002271723
0.40817097 0.11074284 0.0022654922
0.40820205 0.11176533 0.0022592614
0.40823311 0.11278781 0.0022530309
0.40739903 0.11395449 0.0017290297
0.40743017 0.11497857 0.0017227893
0.40746129 0.11600264 0.0017165488
0.40749243 0.11702671 0.0017103085
0.40665853 0.11820137 0.0011862209
0.4066897 0.11922704 0.0011799708
0.40585601 0.12040645 0.00065589207
0.40588725 0.12143372 0.00064963219
0.4050537 0.1226179 0.00012551861
0.40508497 0.12364677 0.00011924899
0.40425158 0.12483574 -0.00040488795
0.4042829 0.12586619 -0.00041116722
0.40344965 0.12705992 -0.00093533902
0.40261644 0.12825687 -0.0014595566
0.40264785 0.12929051 -0.0014658553
0.40181485 0.13049223 -0.0019900757
0.40098193 0.13169712 -0.0025143097
0.40101343 0.13273393 -0.0025206278
0.40018067 0.13394362 -0.0030448968
0.40520525 0.10613156 -0.00057038298
