# .PCD v0.7 - Point Cloud Data file format
VERSION 0.7
FIELDS x y z
SIZE 4 4 4
TYPE F F F
COUNT 1 1 1
WIDTH 1378
HEIGHT 1
VIEWPOINT 0 0 0 1 0 0 0
POINTS 1378
DATA ascii
0.52951187 0.06044535 0.057776786
0.52868873 0.061338957 0.057231024
0.52786559 0.06223575 0.056685243
0.52644038 0.0262063 0.055729568
0.52731436 0.027015278 0.056266222
0.52733928 0.027833901 0.056261234
0.52736413 0.028652526 0.056256246
0.52738905 0.02947115 0.056251258
0.52826267 0.030272165 0.056787923
0.5291363 0.031069996 0.057324614
0.53000975 0.031864639 0.057861321
0.53173184 0.032633711 0.058939766
0.53260511 0.033420391 0.059476521
0.53347826 0.034203887 0.060013298
0.53519988 0.034957033 0.06109184
0.53607279 0.035732567 0.061628666
0.53779399 0.036474563 0.062707245
0.53866667 0.037242133 0.063244112
0.53869092 0.038040053 0.063239254
0.53871518 0.038837973 0.063234389
0.53873938 0.039635893 0.063229531
0.53876364 0.040433813 0.063224666
0.5387879 0.041231733 0.063219801
0.53881216 0.042029653 0.063214943
0.53798842 0.042870663 0.062668264
0.53801268 0.043670174 0.062663399
0.53718907 0.044515964 0.06211669
0.53721344 0.045317069 0.06211181
0.53638995 0.046167638 0.061565079
0.53641433 0.046970334 0.061560187
0.53559101 0.047825679 0.061013423
0.53476775 0.048684213 0.060466606
0.53394461 0.049545929 0.059919808
0.5339691 0.050353404 0.059914887
0.53314614 0.051219895 0.059368055
0.5331707 0.052028965 0.059363127
0.53234786 0.052900236 0.058816269
0.53152508 0.053774696 0.058269355
0.53154975 0.054586951 0.058264408
0.53157443 0.055399206 0.058259457
0.53075188 0.056280032 0.05771254
0.53077662 0.057093877 0.057707578
0.5299542 0.057979483 0.057160635
0.52997899 0.058794923 0.057155665
0.52915674 0.059685305 0.056608688
0.52918154 0.060502335 0.056603711
0.52835941 0.061397497 0.056056708
0.52753735 0.062295847 0.055509649
0.52756226 0.063116066 0.05550465
0.52696013 0.026186634 0.055094812
0.5278331 0.026995651 0.055632699
0.52785796 0.027814275 0.055627711
0.52788281 0.0286329 0.055622723
0.52790773 0.029451523 0.055617735
0.5287804 0.030252578 0.056155633
0.52965295 0.031050446 0.056693554
0.53052545 0.031845126 0.057231493
0.53224552 0.032614276 0.058312405
0.53311777 0.033400994 0.058850393
0.5357095 0.034937751 0.060469408
0.53742886 0.0356846 0.061550424
0.53830057 0.036455393 0.062088508
0.53917223 0.037223004 0.062626615
0.53919649 0.038020924 0.06262175
0.53922075 0.038818844 0.062616892
0.53924501 0.039616764 0.062612027
0.53926927 0.04041468 0.062607169
0.53929353 0.041212603 0.062602304
0.53847069 0.042051982 0.062054403
0.538495 0.042851496 0.06204953
0.53767234 0.043695651 0.061501607
0.53769666 0.04449676 0.061496723
0.53687418 0.045345694 0.06094877
0.53689855 0.046148393 0.060943879
0.53607619 0.047002107 0.060395893
0.53525388 0.047859009 0.059847854
0.53527838 0.04866489 0.059842944
0.53445619 0.049526569 0.059294913
0.53363419 0.050391432 0.058746856
0.53281224 0.051259477 0.058198787
0.53283691 0.052070141 0.058193848
0.53201503 0.052942969 0.057645712
0.53203976 0.053755224 0.057640765
0.53121811 0.054632828 0.057092629
0.53124285 0.055446673 0.057087671
0.53126758 0.056260519 0.057082713
0.53044611 0.057144493 0.056534544
0.53047091 0.057959933 0.056529574
0.52964956 0.058848687 0.055981379
0.52967441 0.059665717 0.055976398
0.52885324 0.060559247 0.055428173
0.52803212 0.061455965 0.054879889
0.5280571 0.062276185 0.054874893
0.52723616 0.063177675 0.054326616
0.52641535 0.064082354 0.053778324
0.52559459 0.064990222 0.053230006
0.52747983 0.02616697 0.054460056
0.52835178 0.026976025 0.054999173
0.52837664 0.027794648 0.054994185
0.52840155 0.028613273 0.054989196
0.52842641 0.029431896 0.054984208
0.52929807 0.030232988 0.05552334
0.53016967 0.031030895 0.056062493
0.53188783 0.031804897 0.057145808
0.53275919 0.032594841 0.057685044
0.53363037 0.033381596 0.058224265
0.53621912 0.034918468 0.059846979
0.53793645 0.035665393 0.060930457
0.53880715 0.036436226 0.061469775
0.5396778 0.037203871 0.062009115
0.53970206 0.038001791 0.06200425
0.53972632 0.038799711 0.061999388
0.53975058 0.039597631 0.061994527
0.53977484 0.04039555 0.061989665
0.53895301 0.041233301 0.061440542
0.53897727 0.042032812 0.061435673
0.53815556 0.042875342 0.060886521
0.53817993 0.043676447 0.060881641
0.53820425 0.044477552 0.060876761
0.53738278 0.045326449 0.060327571
0.53656137 0.046178531 0.059778363
0.53574002 0.047033805 0.059229102
0.53576446 0.047839686 0.059224192
0.53494334 0.048699733 0.058674935
0.53412223 0.049562965 0.05812566
0.53414685 0.050372034 0.058120731
0.53332591 0.051240042 0.057571426
0.53250504 0.052111242 0.057022069
0.53252971 0.052923497 0.057017118
0.53170902 0.053799469 0.056467764
0.53173375 0.054613315 0.056462806
0.53091323 0.055494066 0.055913422
0.53093803 0.056309506 0.055908453
0.53011763 0.057195034 0.055359043
0.53014243 0.058012065 0.055354062
0.52932221 0.058902372 0.054804623
0.52934706 0.059720997 0.054799635
0.5285269 0.060616083 0.054250132
0.52855188 0.061436299 0.054245133
0.5277319 0.062336165 0.053695634
0.52691203 0.063239209 0.053146116
0.52609223 0.064145446 0.05259658
0.52527255 0.065054864 0.052046988
0.52884561 0.026137773 0.054370634
0.52887046 0.026956398 0.054365646
0.52889538 0.027775021 0.054360658
0.52892023 0.028593646 0.05435567
0.52979094 0.029396368 0.054896027
0.52981579 0.030213401 0.054891046
0.53153205 0.030992256 0.055976797
0.53240246 0.031785425 0.056517214
0.53327286 0.032575402 0.057057679
0.53498864 0.033338334 0.058143526
0.53585869 0.034120351 0.05868401
0.53672874 0.034899183 0.059224542
0.53844404 0.035646189 0.06031049
0.53931379 0.036417056 0.060851038
0.53933805 0.03721657 0.060846165
0.53936237 0.038016081 0.060841292
0.53938669 0.038815595 0.060836423
0.53941095 0.03961511 0.060831551
0.53943527 0.04041462 0.060826678
0.53945959 0.041214135 0.060821805
0.53863883 0.042055029 0.060271434
0.53866321 0.042856134 0.060266554
0.53868753 0.04365724 0.060261671
0.53786701 0.044504505 0.059711259
0.53704655 0.045354959 0.059160829
0.53707099 0.046159249 0.059155926
0.53625059 0.047014482 0.058605436
0.53543043 0.047872897 0.058054954
0.53545493 0.048680373 0.058050036
0.53463489 0.049543567 0.057499528
0.53381491 0.050409947 0.056949001
0.53299499 0.051279515 0.056398422
0.53301966 0.052091766 0.056393471
0.53219998 0.05296611 0.055842895
0.53222471 0.053779956 0.055837933
0.53140509 0.054659076 0.055287331
0.53142989 0.055474516 0.055282362
0.53061044 0.056358412 0.054731727
0.5306353 0.057175443 0.05472675
0.52981603 0.058064122 0.054176085
0.52984089 0.058882747 0.054171097
0.52902168 0.059776206 0.053620372
0.52820265 0.060672842 0.053069659
0.52822763 0.061494652 0.053064648
0.52740872 0.062396068 0.052513912
0.52658993 0.063300669 0.051963151
0.52577114 0.064208463 0.051412337
0.52495253 0.065119438 0.050861537
0.52413404 0.066033594 0.05031072
0.52331561 0.06695094 0.04975988
0.52936429 0.026118146 0.053737111
0.5293892 0.026936771 0.053732123
0.52941406 0.027755395 0.053727135
0.53028381 0.028559748 0.054268714
0.53030866 0.029376781 0.054263733
0.53117824 0.030176355 0.054805342
0.53204775 0.030972745 0.05534697
0.53291714 0.031765949 0.055888619
0.53463113 0.032533735 0.056976933
0.53550029 0.033318974 0.057518627
0.53636932 0.034101032 0.058060344
0.53808284 0.034852888 0.059148759
0.53895164 0.035626981 0.05969052
0.53982037 0.036397889 0.060232304
0.53984463 0.0371974 0.060227435
0.53986895 0.037996914 0.060222562
0.53989327 0.038796429 0.06021769
0.53991759 0.039595939 0.060212817
0.53994185 0.04039545 0.060207944
0.5391221 0.041234717 0.059656348
0.53914642 0.042035822 0.059651468
0.5391708 0.042836927 0.059646584
0.53835118 0.043682564 0.059094954
0.53837562 0.04448526 0.059090063
0.53755617 0.045335677 0.058538396
0.53673673 0.046189278 0.057986684
0.53591752 0.047046062 0.05743498
0.53594208 0.047853537 0.057430059
0.53512293 0.048715103 0.056878328
0.53430396 0.049579848 0.056326579
0.533485 0.050447784 0.055774778
0.53350967 0.051260039 0.055769827
0.53269088 0.052132752 0.055218026
0.53271562 0.052946597 0.055213068
0.53189701 0.053824086 0.05466124
0.5319218 0.054639526 0.054656271
0.53110331 0.055521794 0.054104414
0.53112817 0.056338824 0.054099433
0.53030986 0.057225868 0.05354755
0.52949154 0.058116104 0.052995611
0.52951646 0.058936324 0.052990612
0.52869838 0.059831329 0.05243868
0.52872336 0.060653139 0.05243367
0.5279054 0.061552923 0.051881704
0.52708757 0.062455896 0.051329724
0.52626979 0.063362062 0.050777685
0.52629489 0.064188644 0.050772648
0.5246346 0.065183923 0.049673624
0.52465981 0.066013701 0.049668565
0.52299976 0.067018539 0.048569482
0.52988303 0.02609852 0.053103589
0.53075182 0.026906095 0.053646378
0.53077668 0.027723128 0.053641401
0.53080148 0.028540159 0.053636421
0.53167015 0.029341366 0.054179251
0.53253865 0.030139387 0.054722104
0.53340709 0.030934222 0.055264972
0.53427553 0.031725872 0.055807896
0.53598738 0.032492138 0.056898654
0.53685546 0.033275828 0.057441592
0.53772354 0.034056328 0.057984583
0.53859144 0.034833644 0.058527559
0.53945923 0.035607774 0.059070554
0.54032695 0.036378719 0.059613571
0.54035127 0.037178233 0.059608698
0.54037553 0.037977744 0.059603825
0.54039985 0.038777258 0.059598953
0.539581 0.039613299 0.059046146
0.53960532 0.040414404 0.059041265
0.5396297 0.041215513 0.059036382
0.53965402 0.042016614 0.059031501
0.53883541 0.042860623 0.058478646
0.53885978 0.043663319 0.058473755
0.53804129 0.044512104 0.057920869
0.53722286 0.045364074 0.057367928
0.53724736 0.046169959 0.057363018
0.53642917 0.047026705 0.056810085
0.53561097 0.047886636 0.056257129
0.53479296 0.048749752 0.055704158
0.53481758 0.049560413 0.055699218
0.53399962 0.050428312 0.05514618
0.53318185 0.051299393 0.054593161
0.53320658 0.052113239 0.054588199
0.53238893 0.052989099 0.05403515
0.53241372 0.053804535 0.05403018
0.53159618 0.054685172 0.053477101
0.53162104 0.055502206 0.053472124
0.53080362 0.056387618 0.052919015
0.52998632 0.057276223 0.052365851
0.53001124 0.058096439 0.052360851
0.52919412 0.058989815 0.051807698
0.52921909 0.059811626 0.051802687
0.52840215 0.060709782 0.0512495
0.52758527 0.06161112 0.050696295
0.5276103 0.062436119 0.050691269
0.52595174 0.063423365 0.04958979
0.5259769 0.064251542 0.049584746
0.52516037 0.06516403 0.04903147
0.52434391 0.066079706 0.048478179
0.52352756 0.066998564 0.047924865
0.52271122 0.067920618 0.047371499
0.52105355 0.068936527 0.046269882
0.53126955 0.026886508 0.053014088
0.53213727 0.027690938 0.05355813
0.53216201 0.028506376 0.053553164
0.53302962 0.029306028 0.054097235
0.5338971 0.030102495 0.054641329
0.53392178 0.030914748 0.054636378
0.53563184 0.03168587 0.055729605
0.53649902 0.032472782 0.056273758
0.53736609 0.033256505 0.056817926
0.53823316 0.034037046 0.05736215
0.53910005 0.034814399 0.057906359
0.53996682 0.03558857 0.058450591
0.5399912 0.036389675 0.058445707
0.54001552 0.037190776 0.058440827
0.5400399 0.037991885 0.058435943
0.54006422 0.03879299 0.058431063
0.54008859 0.039594095 0.058426179
0.54011291 0.0403952 0.058421299
0.54013729 0.041196305 0.058416419
0.53931963 0.042038679 0.057862338
0.53934401 0.042841379 0.057857446
0.53852648 0.043688528 0.057303336
0.53855091 0.044492818 0.057298437
0.5377335 0.045344751 0.056744266
0.53691626 0.046199869 0.056190107
0.53609908 0.047058169 0.055635933
0.53612363 0.047867239 0.055631001
0.53530663 0.048730318 0.055076797
0.53448963 0.049596585 0.054522537
0.53367275 0.050466035 0.053968292
0.53369749 0.05127988 0.053963333
0.53288078 0.052154109 0.053409059
0.53290558 0.052969549 0.053404089
0.53208905 0.053848553 0.052849788
0.53127259 0.054730743 0.052295465
0.53129745 0.055549368 0.052290477
0.5304811 0.056436341 0.051736094
0.53050601 0.057256557 0.051731095
0.52968985 0.058148302 0.051176712
0.52971488 0.058970112 0.051171705
0.52889884 0.059866637 0.050617296
0.52808291 0.060766347 0.050062869
0.52726704 0.061669245 0.049508385
0.52729213 0.062495835 0.049503349
0.5264765 0.06340351 0.048948873
0.52566087 0.064314365 0.048394378
0.52484542 0.06522841 0.047839861
0.52403003 0.066145636 0.047285326
0.52321464 0.067066059 0.046730738
0.52239949 0.067989655 0.046176162
0.52158439 0.06891644 0.045621566
0.51992887 0.069938645 0.044517446
0.51911396 0.070873402 0.043962769
0.53262913 0.026855947 0.052932039
0.53349578 0.027658824 0.053477328
0.53352052 0.028472669 0.05347237
0.53438705 0.029270766 0.054017685
0.53441173 0.030083021 0.054012734
0.5352782 0.030876338 0.054558113
0.53614444 0.031666473 0.055103477
0.53701061 0.032453422 0.05564886
0.53787673 0.033237185 0.056194264
0.53874278 0.03401776 0.056739721
0.53960866 0.034795154 0.05728516
0.54047441 0.035569362 0.057830624
0.54049879 0.036370467 0.05782574
0.54052311 0.037171572 0.05782086
0.54054749 0.037972677 0.05781598
0.54057181 0.038773783 0.057811096
0.54059619 0.039574888 0.057806216
0.54062051 0.040375993 0.057801332
0.5398038 0.041216739 0.057246029
0.53982824 0.042019434 0.057241138
0.53901166 0.042864956 0.056685809
0.5390361 0.043669246 0.056680907
0.53821963 0.044519547 0.056125514
0.53740335 0.045373034 0.055570133
0.53742784 0.046180509 0.055565212
0.53661168 0.047038771 0.055009801
0.53579563 0.047900219 0.054454375
0.53497958 0.048764858 0.053898893
0.53500426 0.04957711 0.053893946
0.53418845 0.050446521 0.053338468
0.5333727 0.051319119 0.052782968
0.5333975 0.052134559 0.052777998
0.53258193 0.053011931 0.052222475
0.53176641 0.05389249 0.05166693
0.53179127 0.054711115 0.051661942
0.53097588 0.05559646 0.051106334
0.53100079 0.056416675 0.051101334
0.53018564 0.057306793 0.050545733
0.53021061 0.058128599 0.050540727
0.52939552 0.059023496 0.049985092
0.52858055 0.059921574 0.049429439
0.52860564 0.060746569 0.049424414
0.52779078 0.061649431 0.048868697
0.52697605 0.062555477 0.048312999
0.52616143 0.063464701 0.047757279
0.52618665 0.064294472 0.047752224
0.5245325 0.065292709 0.046645783
0.52455777 0.066125669 0.046640705
0.52374345 0.067046046 0.046084885
0.52208972 0.068058617 0.044978358
0.52127564 0.06898696 0.044422522
0.52046174 0.069918483 0.043866664
0.51964784 0.070853204 0.043310758
0.51883405 0.071791098 0.042754862
0.51885974 0.072635204 0.042749722
0.53304666 0.023574643 0.05232086
0.53307146 0.024390081 0.052315891
0.53309625 0.025205519 0.052310921
0.53396201 0.026011618 0.052857421
0.53398675 0.026825465 0.052852463
0.53401148 0.027639311 0.052847501
0.53487706 0.028439039 0.053394038
0.53490174 0.029251292 0.053389091
0.5357672 0.030046241 0.053935692
0.53663248 0.030838007 0.054482277
0.5374977 0.031626586 0.055028886
0.53752226 0.032434061 0.055023964
0.53838736 0.033217862 0.055570599
0.5392524 0.033998478 0.056117289
0.54011726 0.034775909 0.056663964
0.54014164 0.035578609 0.056659069
0.54100639 0.03635126 0.057205778
0.5410307 0.037152365 0.057200894
0.54105508 0.03795347 0.057196014
0.54107946 0.038754575 0.05719113
0.54026365 0.039592095 0.056634612
0.54028803 0.040394794 0.056629721
0.54031241 0.041197494 0.05662483
0.53949684 0.042041384 0.056068279
0.53952128 0.042845674 0.056063376
0.53870577 0.043694343 0.055506758
0.53789043 0.044546198 0.054950155
0.53791499 0.045353673 0.054945238
0.53709978 0.046210308 0.054388601
0.53628463 0.047070123 0.053831954
0.53546959 0.047933128 0.053275246
0.53549427 0.048745383 0.053270299
0.53467935 0.049613163 0.052713599
0.53386462 0.050484128 0.05215688
0.53388941 0.051299568 0.052151911
0.53307474 0.052175313 0.051595163
0.53226024 0.053054243 0.051038396
0.53228509 0.053872865 0.051033407
0.53147066 0.054756574 0.050476577
0.53149557 0.055576794 0.050471578
0.53068137 0.056465279 0.049914751
0.52986723 0.05735695 0.049357906
0.52989221 0.058180351 0.049352892
0.52907825 0.059076801 0.048796013
0.52910328 0.059901796 0.048790988
0.52828938 0.060803022 0.048234053
0.52747566 0.061707433 0.047677126
0.52666199 0.06261503 0.047120184
0.52584839 0.063525818 0.046563223
0.52587366 0.064357184 0.046558157
0.52506024 0.065272741 0.046001166
0.52424687 0.066191494 0.04544412
0.52343363 0.067113422 0.044887092
0.5226205 0.068038538 0.044330042
0.52180749 0.068966836 0.043772973
0.52015603 0.069990486 0.04266388
0.52018166 0.070833005 0.042658746
0.51936895 0.071770862 0.042101618
0.5185563 0.0727119 0.041544475
0.53356338 0.023555093 0.0516898
0.53358817 0.024370531 0.05168483
0.53445292 0.025178259 0.052232552
0.53447765 0.025992107 0.052227594
0.53450239 0.026805952 0.052222636
0.53536701 0.027607311 0.052770395
0.53539169 0.028419565 0.052765448
0.53625619 0.029216146 0.05331327
0.53628087 0.030026807 0.05330833
0.53714514 0.03081861 0.053856149
0.53800935 0.031607226 0.054403991
0.53887349 0.032392658 0.054951847
0.53889799 0.033198543 0.054946937
0.53976202 0.033979196 0.055494856
0.54062587 0.034756664 0.056042764
0.54065025 0.035559364 0.056037873
0.54067469 0.036362059 0.056032982
0.54069906 0.037164759 0.05602809
0.54072344 0.037967455 0.056023199
0.54074788 0.038770154 0.056018308
0.54077226 0.03957285 0.056013413
0.54079664 0.040375549 0.056008521
0.53998202 0.041217808 0.055450745
0.54000646 0.042022098 0.055445846
0.5391919 0.042869139 0.054888006
0.5392164 0.043675024 0.054883096
0.53840208 0.044526838 0.05432526
0.53758782 0.04538184 0.053767405
0.53677362 0.046240028 0.053209532
0.5367983 0.047050688 0.053204592
0.53598422 0.047913656 0.052646656
0.53517032 0.048779804 0.052088734
0.53435647 0.049649142 0.05153079
0.53438127 0.050464578 0.05152582
0.53356761 0.051338691 0.05096785
0.53275406 0.052215993 0.050409861
0.53277892 0.053034615 0.050404873
0.53196543 0.053916696 0.049846817
0.53199035 0.054736912 0.049841817
0.5311771 0.055623766 0.049283769
0.53036392 0.056513805 0.048725702
0.53038895 0.05733721 0.048720684
0.52957588 0.058232024 0.048162587
0.52960098 0.05905702 0.048157558
0.52878803 0.059956621 0.047599401
0.5279752 0.060859401 0.047041256
0.52800041 0.061687578 0.047036208
0.52718776 0.062595136 0.046478029
0.52637517 0.063505881 0.045919836
0.5255627 0.064419813 0.045361623
0.52475029 0.065336928 0.044803359
0.52393806 0.066257231 0.044245105
0.52396345 0.067093372 0.044240009
0.52231377 0.068107389 0.043128543
0.52150184 0.069037244 0.042570233
0.5206899 0.069970287 0.042011868
0.51987809 0.070906512 0.041453518
0.51990378 0.071750626 0.041448373
0.51909214 0.072691627 0.040889993
0.51828057 0.073635817 0.040331598
0.53408003 0.023535542 0.051058739
0.53494388 0.024344902 0.051607687
0.53496861 0.025158748 0.051602729
0.53499335 0.025972594 0.051597767
0.53501809 0.026786441 0.051592808
0.5358817 0.027587838 0.052141804
0.53590637 0.028400091 0.052136853
0.53676987 0.029196709 0.052685909
0.53763318 0.029990144 0.053234953
0.5376578 0.030799212 0.053230021
0.53852099 0.031587869 0.053779092
0.53938413 0.032373339 0.054328181
0.53940862 0.03317922 0.054323271
0.54027158 0.033959914 0.054872427
0.54113448 0.034737419 0.055421565
0.54115885 0.035540119 0.055416673
0.54118329 0.036342815 0.055411782
0.54120767 0.037145514 0.055406891
0.54123205 0.03794821 0.055402
0.54125649 0.038750909 0.055397108
0.54044271 0.039589945 0.054838117
0.5404672 0.040394235 0.054833218
0.54049164 0.041198526 0.054828316
0.53967804 0.042043936 0.05426925
0.53886461 0.042892527 0.053710207
0.53888917 0.043700002 0.053705286
0.53807586 0.044553377 0.053146206
0.53726268 0.045409929 0.052587111
0.53728729 0.046220593 0.052582171
0.53647423 0.047081929 0.052023012
0.53566128 0.047946446 0.051463865
0.53568602 0.048760295 0.051458906
0.53487319 0.049629591 0.050899729
0.53406048 0.050502073 0.050340537
0.53324789 0.05137774 0.049781326
0.53327274 0.052196365 0.049776334
0.53246021 0.053076815 0.049217056
0.53248519 0.053897031 0.049212061
0.53167284 0.054782253 0.04865279
0.5308606 0.055670664 0.048093498
0.53088564 0.056494065 0.04808848
0.53007358 0.057387251 0.047529161
0.53009862 0.058212247 0.047524132
0.52928662 0.059110217 0.04696475
0.52847481 0.060011365 0.046405382
0.52849996 0.060839545 0.046400335
0.52768826 0.061745472 0.045840938
0.52687669 0.062654585 0.045281518
0.52606517 0.063566886 0.044722084
0.52525371 0.064482369 0.044162594
0.5252791 0.065316923 0.044157509
0.52446783 0.066237181 0.043598026
0.52365667 0.067160629 0.043038521
0.52284563 0.068087265 0.042478994
0.52203465 0.069017082 0.041919451
0.52122372 0.069950089 0.041359857
0.52041298 0.070886277 0.040800273
0.52043861 0.071730383 0.040795129
0.51962799 0.072671346 0.040235516
0.51881742 0.073615499 0.039675884
0.53543484 0.023511544 0.050982818
0.53545958 0.024325389 0.050977856
0.53548431 0.025139235 0.050972898
0.53550905 0.025953082 0.050967939
0.53637165 0.02675611 0.051518153
0.53639632 0.027568363 0.051513202
0.53725886 0.028366612 0.052063484
0.53728354 0.029177275 0.052058544
0.53814584 0.029970746 0.052608818
0.53817046 0.030779814 0.052603889
0.53903264 0.031568509 0.053154193
0.53989476 0.032354016 0.053704515
0.53991926 0.0331599 0.053699605
0.54078126 0.033940628 0.054249991
0.5408057 0.034744918 0.054245092
0.54166746 0.035520874 0.05479547
0.5416919 0.03632357 0.054790579
0.54171628 0.037126269 0.054785687
0.54090345 0.037962083 0.054225486
0.54092789 0.038766373 0.054220583
0.54095238 0.039570663 0.054215685
0.54013968 0.040412847 0.053655408
0.54016417 0.041218732 0.053650498
0.5393517 0.042065691 0.053090226
0.53937626 0.04287317 0.053085305
0.53856391 0.043724909 0.052525006
0.53858852 0.044533979 0.052520074
0.53777635 0.045390494 0.051959746
0.53696418 0.046250202 0.051399361
0.53698885 0.047062453 0.05139441
0.53617692 0.047926936 0.050834037
0.5353651 0.048794601 0.050273638
0.53455335 0.049665451 0.04971322
0.53457814 0.050482482 0.049708243
0.53376657 0.051358111 0.049147796
0.53295499 0.052236933 0.048587296
0.53297997 0.053057149 0.048582297
0.53216857 0.053940739 0.048021805
0.53135729 0.054827519 0.04746129
0.53138232 0.05565092 0.047456272
0.53057122 0.056542475 0.046895731
0.53059632 0.05736747 0.046890702
0.52978528 0.058263808 0.046330098
0.52897441 0.059163328 0.045769505
0.52899957 0.059991509 0.045764457
0.52818882 0.060895804 0.045203838
0.5273782 0.061803285 0.044643197
0.52656764 0.062713958 0.044082541
0.52659297 0.063546911 0.044077463
0.52578253 0.064462364 0.04351674
0.52497226 0.065380991 0.042956032
0.52416205 0.066302806 0.042395305
0.52335191 0.067227811 0.041834559
0.52254194 0.068155997 0.041273795
0.52173197 0.069087371 0.040712975
0.52092212 0.070021927 0.04015217
0.52094781 0.070866041 0.040147025
0.52013814 0.071805373 0.03958619
0.52016383 0.072651073 0.039581038
0.51935434 0.073595189 0.039020173
0.53597522 0.024305878 0.050348032
0.53599995 0.025119724 0.05034307
0.53686166 0.025924383 0.05089451
0.53604943 0.026747417 0.050333153
0.53691101 0.027548891 0.050884612
0.53693569 0.028361144 0.050879661
0.53779715 0.029157838 0.051431183
0.5386585 0.029951349 0.05198269
0.53868312 0.030760417 0.051977761
0.53954428 0.031549148 0.052529294
0.54040533 0.032334697 0.053080853
0.54042983 0.033140577 0.053075943
0.54129082 0.033921346 0.053627558
0.54131532 0.034725636 0.053622659
0.54133976 0.035529926 0.053617757
0.54136419 0.036334217 0.053612854
0.54138863 0.037138507 0.053607956
0.54141307 0.037942797 0.053603053
0.54143751 0.038747087 0.053598154
0.54062581 0.039587643 0.053036656
0.54065031 0.040393528 0.053031746
0.53983879 0.041238859 0.052470248
0.53986335 0.042046335 0.052465327
0.53905195 0.042896442 0.051903807
0.53907657 0.043705512 0.051898874
0.53826535 0.044560399 0.051337324
0.53745419 0.045418471 0.050775718
0.53747886 0.046230726 0.050770767
0.53666788 0.047093574 0.050209168
0.53585696 0.047959611 0.049647547
0.53504622 0.048828833 0.049085908
0.53507102 0.049645863 0.049080927
0.53426039 0.050519861 0.048519261
0.53344977 0.051397048 0.04795754
0.53347474 0.052217267 0.04795254
0.5326643 0.05309923 0.047390822
0.53185403 0.053984374 0.046829086
0.53187907 0.054807775 0.046824068
0.53106886 0.055697702 0.046262305
0.53025877 0.056590814 0.045700483
0.53028387 0.057417404 0.045695446
0.52947396 0.058315292 0.045133635
0.52949917 0.059143472 0.045128588
0.52868938 0.060046136 0.044566743
0.52787971 0.060951989 0.04400488
0.52707011 0.061861027 0.043442998
0.52709544 0.062693983 0.043437921
0.52628595 0.063607804 0.042875975
0.52547663 0.0645248 0.042314045
0.52466738 0.065444991 0.041752096
0.52469283 0.066282727 0.041746993
0.52388376 0.067207687 0.04118501
0.52307475 0.068135835 0.040623013
0.52226579 0.069067173 0.04006096
0.52145702 0.070001692 0.039498921
0.5206483 0.070939399 0.038936868
0.52067399 0.0717851 0.038931713
0.51986545 0.072727576 0.03836963
0.51905692 0.073673256 0.037807487
0.46418789 0.011487897 0.0018440851
0.53649092 0.024286365 0.049718205
0.53651565 0.025100211 0.049713247
0.53737628 0.025904909 0.050265916
0.53656512 0.026727904 0.049703326
0.5374257 0.027529417 0.050256018
0.53828621 0.028327741 0.050808761
0.53831083 0.029138403 0.050803822
0.53917116 0.029931951 0.051356561
0.53919572 0.030741019 0.051351629
0.54005593 0.031529788 0.051904399
0.54008049 0.032337267 0.051899478
0.54094046 0.033121258 0.052452277
0.54096496 0.033927143 0.052447367
0.54098946 0.034733023 0.052442454
0.54184937 0.035510644 0.052995328
0.54187381 0.036314934 0.052990425
0.54189825 0.037119225 0.052985527
0.54108745 0.037956558 0.052422814
0.54111195 0.038762439 0.0524179
0.54113644 0.039568324 0.05241299
0.54032588 0.040412024 0.051850274
0.54035044 0.041219499 0.051845353
0.53954005 0.042067979 0.051282607
0.53872973 0.042919639 0.050719842
0.53875434 0.0437303 0.050714903
0.53794414 0.044586744 0.050152075
0.53796881 0.045398999 0.050147124
0.53715879 0.046260219 0.049584303
0.53634888 0.047124621 0.049021456
0.53553903 0.047992211 0.048458595
0.53556389 0.048809245 0.048453618
0.53475422 0.049681611 0.047890726
0.53394455 0.050557166 0.047327779
0.53396952 0.051377382 0.04732278
0.53316003 0.052257717 0.04675984
0.53235072 0.053141229 0.046196882
0.53237575 0.053964633 0.046191864
0.53156656 0.054852929 0.045628875
0.53075737 0.055744413 0.045065835
0.53078252 0.056570999 0.045060799
0.52997357 0.057467256 0.044497762
0.52999872 0.058295436 0.044492714
0.52918994 0.059196472 0.043929648
0.52838123 0.06010069 0.043366563
0.5284065 0.060932059 0.043361496
0.5275979 0.061841056 0.042798381
0.52678937 0.062753245 0.042235214
0.52598101 0.063668616 0.041672058
0.5260064 0.064504758 0.041666966
0.52519816 0.065424904 0.041103784
0.52439004 0.066348232 0.04054058
0.52358204 0.067274749 0.039977357
0.52277404 0.068204463 0.039414082
0.52196616 0.06913735 0.038850822
0.52115846 0.070073418 0.038287543
0.52118415 0.070919126 0.038282387
0.52037656 0.071859978 0.037719078
0.52040231 0.072707266 0.037713915
0.4622542 0.010460394 -0.00056207483
0.46479034 0.011465102 0.0011082598
0.53700656 0.024266854 0.049088378
0.53703129 0.025080699 0.049083419
0.53705603 0.025894545 0.049078457
0.53708076 0.026708392 0.049073499
0.53794032 0.027509943 0.049627423
0.537965 0.028322196 0.049622472
0.5388245 0.029118966 0.05017646
0.53968382 0.029912554 0.05073043
0.53970838 0.030721622 0.050725501
0.54056758 0.031510431 0.051279504
0.54059207 0.032317907 0.051274583
0.54061663 0.033125382 0.051269662
0.54147559 0.03390782 0.051823705
0.54150009 0.034713704 0.051818792
0.54152459 0.035519585 0.051813882
0.54154909 0.03632547 0.051808972
0.54157358 0.03713135 0.051804062
0.54159808 0.037937235 0.051799148
0.54078847 0.038777713 0.051235218
0.54081297 0.039585188 0.051230296
0.54083753 0.040392663 0.051225379
0.5400281 0.041239511 0.050661407
0.54005265 0.042048581 0.050656479
0.53924334 0.042900205 0.050092481
0.53843409 0.043755017 0.049528427
0.53845882 0.044567272 0.04952348
0.53764975 0.04542686 0.048959434
0.5368408 0.046289634 0.048395369
0.5360319 0.047155593 0.047831282
0.53605676 0.047972623 0.047826301
0.53524804 0.048843361 0.047262192
0.53443933 0.049717285 0.046698019
0.5344643 0.050537501 0.046693023
0.53365582 0.051416203 0.046128862
0.5328474 0.052298088 0.045564678
0.53287244 0.053121489 0.04555966
0.5320642 0.054008152 0.044995449
0.53125602 0.054898005 0.044431183
0.53128111 0.055724595 0.044426147
0.53047311 0.056619219 0.043861885
0.53049833 0.0574474 0.043856841
0.52969044 0.058346804 0.043292552
0.52888268 0.059249394 0.042728242
0.52890795 0.060080759 0.042723179
0.52810037 0.060988124 0.042158838
0.52729279 0.061898682 0.041594449
0.52648538 0.062812425 0.041030072
0.52651083 0.063648567 0.041024975
0.52570355 0.064567082 0.040460572
0.52489638 0.065488786 0.039896145
0.52408928 0.066413671 0.039331701
0.52411485 0.067254588 0.039326578
0.52330786 0.068184257 0.03876207
0.52250105 0.069117114 0.038197577
0.5216943 0.070053145 0.037633065
0.52088767 0.070992365 0.037068535
0.52091342 0.07183966 0.037063371
0.46369442 0.010455486 -0.00074166694
0.46539283 0.011442306 0.00037243444
0.53752226 0.024247341 0.04845855
0.53754699 0.025061188 0.048453592
0.53757173 0.025875034 0.048448633
0.53759646 0.026688879 0.048443671
0.53845501 0.027490469 0.048998829
0.53847969 0.028302722 0.048993878
0.53933811 0.029099531 0.049549099
0.53936279 0.029910192 0.049544159
0.54022104 0.030702224 0.050099373
0.54107916 0.031491071 0.050654609
0.54110372 0.032298546 0.050649688
0.54112828 0.033106022 0.050644767
0.54115283 0.033913497 0.050639845
0.54201072 0.034694381 0.051195126
0.54203522 0.035500266 0.051190216
0.54205972 0.036306147 0.051185306
0.541251 0.037143402 0.050620165
0.54127556 0.037950877 0.050615244
0.54130006 0.038758352 0.050610323
0.54049152 0.039601978 0.05004514
0.54051614 0.040411044 0.050040212
0.54054075 0.041220114 0.050035283
0.5397324 0.042070106 0.04947006
0.5389241 0.04292329 0.048904784
0.53894877 0.043735541 0.048899837
0.53814065 0.044593502 0.048334569
0.53733265 0.045454644 0.047769278
0.53735745 0.046270084 0.047764309
0.53654963 0.047136005 0.047198992
0.53574187 0.048005112 0.046633653
0.5349341 0.048877403 0.046068266
0.53495908 0.049697619 0.046063267
0.53415155 0.05057469 0.045497879
0.53334409 0.051454943 0.044932473
0.53336912 0.052278347 0.044927459
0.53256184 0.053163379 0.04436202
0.53175461 0.0540516 0.043796536
0.53177977 0.054878186 0.043791499
0.53097272 0.055771187 0.043226015
0.53016579 0.056667365 0.042660512
0.530191 0.057497136 0.042655457
0.5293842 0.058398094 0.042089924
0.52940947 0.059229463 0.042084858
0.52860284 0.060135201 0.041519299
0.52779621 0.061044127 0.040953685
0.5278216 0.061878674 0.0409486
0.52701521 0.062792376 0.040382989
0.52620888 0.063709259 0.039817363
0.52540267 0.064629331 0.039251715
0.52542818 0.065468661 0.0392466
0.52462214 0.06639351 0.038680922
0.52381611 0.067321546 0.038115192
0.52301025 0.068252765 0.037549477
0.52220446 0.069187172 0.036983743
0.52139878 0.07012476 0.036417987
0.52142453 0.070972055 0.036412824
0.52061892 0.071914427 0.035847008
0.52064472 0.072763316 0.035841834
0.46346518 0.010414573 -0.0020411196
0.46599528 0.01141951 -0.00036338798
0.53720492 0.024233678 0.047267415
0.53722972 0.025049118 0.047262445
0.53808737 0.025855521 0.047818806
0.53811216 0.026669368 0.047813848
0.5389697 0.027470995 0.048370235
0.53899437 0.028283248 0.048365284
0.53901905 0.029095503 0.048360337
0.53987646 0.029890757 0.048916798
0.5407337 0.030682826 0.049473245
0.54075825 0.031491894 0.049468316
0.54161537 0.032279186 0.050024793
0.54163992 0.033086661 0.050019871
0.54166448 0.03389414 0.05001495
0.54168898 0.034701616 0.050010029
0.54171354 0.035509091 0.050005108
0.54173809 0.036316566 0.050000187
0.54176265 0.037124041 0.049995266
0.54178715 0.037931517 0.049990349
0.54097962 0.038773511 0.049423944
0.54100418 0.03958258 0.049419012
0.54019678 0.04042935 0.048852578
0.54022139 0.04124001 0.048847638
0.53941405 0.04209156 0.048281141
0.53943878 0.042903814 0.048276193
0.53863162 0.043760143 0.0477097
0.53782457 0.044619653 0.047143187
0.53784937 0.045435093 0.047138222
0.53704244 0.046299383 0.046571676
0.53623563 0.047166858 0.046005119
0.53542888 0.048037522 0.045438506
0.53545386 0.048857737 0.045433506
0.53464729 0.049733177 0.044866897
0.53384084 0.050611801 0.044300269
0.53386587 0.051435202 0.044295251
0.53305954 0.052318607 0.043728594
0.53225327 0.053205196 0.043161884
0.53227836 0.054031782 0.043156847
0.53147233 0.054923147 0.042590141
0.53066635 0.055817701 0.042023417
0.53069156 0.056647472 0.042018361
0.52988571 0.057546798 0.041451607
0.52907997 0.058449313 0.040884834
0.52910531 0.059282269 0.040879756
0.52829969 0.060189568 0.04031292
0.52749419 0.061100043 0.039746098
0.52751958 0.061936185 0.039741002
0.52671421 0.062851444 0.039174154
0.52590901 0.063769884 0.038607284
0.52593452 0.064609207 0.03860217
0.52512938 0.065532424 0.038035266
0.5243243 0.066458836 0.037468314
0.5235194 0.067388423 0.036901377
0.52271461 0.068321198 0.036334418
0.52190989 0.069257155 0.03576744
0.52193564 0.070104443 0.035762277
0.52113104 0.07104519 0.035195239
0.52032655 0.071989112 0.034628209
0.52035236 0.072839588 0.034623027
0.51954806 0.073788293 0.034055974
0.46659774 0.011396714 -0.0010992133
0.53686482 0.023402909 0.046078794
0.53772163 0.024214128 0.046636354
0.53774643 0.025029568 0.046631388
0.53777117 0.025845006 0.046626419
0.5386278 0.026649857 0.04718402
0.53865254 0.027463702 0.047179062
0.539509 0.028263774 0.047736693
0.53953373 0.029076029 0.047731742
0.54039007 0.02987132 0.048289437
0.54041475 0.030681981 0.048284497
0.54127091 0.031472497 0.048842184
0.54129553 0.032281566 0.048837256
0.54215157 0.033067305 0.049394973
0.54217607 0.03387478 0.049390055
0.54220062 0.034682255 0.049385134
0.54222518 0.035489731 0.049380213
0.54224974 0.036297206 0.049375292
0.5422743 0.037104681 0.049370371
0.54146767 0.037945043 0.048802745
0.54149222 0.038754113 0.048797812
0.54068577 0.039599255 0.048230156
0.54071039 0.040409915 0.048225217
0.53990406 0.041259833 0.047657497
0.53992873 0.042072088 0.04765255
0.53912252 0.042926785 0.047084834
0.53914732 0.04374063 0.047079872
0.53834128 0.044600103 0.046512131
0.53753531 0.045462765 0.045944367
0.53672945 0.046328608 0.045376584
0.53675437 0.047147233 0.045371592
0.53594863 0.048017859 0.04480375
0.53514302 0.048891667 0.044235919
0.53433752 0.049768656 0.043668065
0.53436255 0.050592061 0.043663047
0.53355718 0.05147383 0.043095168
0.53275186 0.052358791 0.042527232
0.53277701 0.053185377 0.042522196
0.53197187 0.054075111 0.041954271
0.53116685 0.054968029 0.041386321
0.53119212 0.055797804 0.041381266
0.53038722 0.056695502 0.04081329
0.52958244 0.057596382 0.040245291
0.52960777 0.058429342 0.040240217
0.52880311 0.059335008 0.039672159
0.52799857 0.060243852 0.039104111
0.52802396 0.061079998 0.039099019
0.52721959 0.061993618 0.038530942
0.52641529 0.06291043 0.03796285
0.5264408 0.06374976 0.037957735
0.52563667 0.064671345 0.037389614
0.52483255 0.065596119 0.036821436
0.52485818 0.066438638 0.036816303
0.52405429 0.067368187 0.036248133
0.52325046 0.068300918 0.03567994
0.52244675 0.069236845 0.035111729
0.5216431 0.070175953 0.034543466
0.52166891 0.071024835 0.034538295
0.52086544 0.071968719 0.033970036
0.52089125 0.072819203 0.033964854
0.53738248 0.023383321 0.0454465
0.53740734 0.024200352 0.045441519
0.53826308 0.025010018 0.046000328
0.53828788 0.025825456 0.045995358
0.5391435 0.026630344 0.046554193
0.53916824 0.027444189 0.046549235
0.54002368 0.0282443 0.047108095
0.54004836 0.029056555 0.047103148
0.54090375 0.029851886 0.047662072
0.54092836 0.030662546 0.047657132
0.54178357 0.031453099 0.048216056
0.54180813 0.032262169 0.048211128
0.54183275 0.033071235 0.048206195
0.54185736 0.033880305 0.048201267
0.54188192 0.034689374 0.048196334
0.54190654 0.03549844 0.048191406
0.54193109 0.03630751 0.048186474
0.54195571 0.03711658 0.048181545
0.54115015 0.037958495 0.047612675
0.54117477 0.038769156 0.047607735
0.54119945 0.039579816 0.047602795
0.54039401 0.040428106 0.04703385
0.54041868 0.041240361 0.047028903
0.53961349 0.042093426 0.046459965
0.53963822 0.042907272 0.046455007
0.53883314 0.043765113 0.04588604
0.53802818 0.044626143 0.04531705
0.53805304 0.045443173 0.045312073
0.53724819 0.046308979 0.044743057
0.53644341 0.047177974 0.044173989
0.53563875 0.048050154 0.043604936
0.53566372 0.048871964 0.043599926
0.53485924 0.049748916 0.043030843
0.53405488 0.050629057 0.042461742
0.53325051 0.051512387 0.041892588
0.5332756 0.052338973 0.041887548
0.53247148 0.053227074 0.041318398
0.53166741 0.054118365 0.040749226
0.53169262 0.054948136 0.040744167
0.53088874 0.055844206 0.040174972
0.53008491 0.056743454 0.039605752
0.52928114 0.057645895 0.039036479
0.52930653 0.058480445 0.039031394
0.52850294 0.059387665 0.038462125
0.52852833 0.060223807 0.038457029
0.52772492 0.061135799 0.037887733
0.52692157 0.062050976 0.037318416
0.52694714 0.062890306 0.037313301
0.52614391 0.063810259 0.036743958
0.5253408 0.064733408 0.036174558
0.52536643 0.06557592 0.036169425
0.52456343 0.066503838 0.035600029
0.52376062 0.067434944 0.035030615
0.52295786 0.068369232 0.034461185
0.52298361 0.069216527 0.034456022
0.52218097 0.070155598 0.033886526
0.52137846 0.071097851 0.033317044
0.52140433 0.071948335 0.033311862
0.52060193 0.072895363 0.032742351
0.52062786 0.073747434 0.032737158
0.51982564 0.074699238 0.032167621
0.51985157 0.075552903 0.032162417
0.5361653 0.020911366 0.043699171
0.53619027 0.021731583 0.043694176
0.5370453 0.022549249 0.044254199
0.53707016 0.023367874 0.044249211
0.537925 0.024180762 0.044809226
0.53794986 0.024997795 0.044804249
0.53880453 0.025805905 0.045364294
0.53965914 0.026610833 0.045924366
0.53968388 0.027424678 0.045919403
0.54053837 0.028224826 0.046479501
0.54056305 0.029037081 0.04647455
0.54058772 0.029849334 0.046469603
0.54144204 0.030643109 0.047029771
0.54146671 0.03145377 0.047024831
0.54232079 0.032242771 0.047584992
0.5423454 0.033051837 0.047580063
0.54236996 0.033860907 0.047575135
0.54239458 0.034669977 0.047570202
0.5424192 0.035479043 0.047565274
0.54244375 0.036288112 0.047560342
0.54163915 0.037128396 0.046990249
0.54166383 0.03793906 0.04698531
0.54168844 0.038749721 0.04698037
0.54088402 0.039596379 0.046410207
0.54090869 0.040408634 0.046405256
0.54010445 0.041260067 0.045835096
0.54012918 0.042073913 0.045830138
0.53932506 0.042930126 0.045259945
0.53934985 0.043745562 0.045254976
0.53854585 0.044606555 0.044684757
0.53774202 0.045470729 0.044114519
0.53693819 0.046338093 0.043544229
0.53696311 0.047158312 0.04353923
0.53615946 0.048030451 0.042968944
0.53535593 0.048905771 0.042398635
0.53455251 0.04978428 0.041828312
0.53457761 0.050609276 0.041823287
0.53377426 0.051492568 0.041252896
0.53297108 0.052379042 0.040682521
0.53216797 0.053268697 0.040112127
0.53219318 0.054098468 0.040107071
0.53139025 0.054992907 0.039536651
0.53058738 0.055890527 0.038966205
0.52978456 0.056791335 0.03839571
0.52980995 0.057625886 0.038390625
0.52900732 0.058531471 0.037820134
0.5282048 0.05944024 0.037249625
0.52823025 0.060277976 0.037244521
0.52742791 0.061191525 0.036673982
0.52745342 0.062030852 0.036668867
0.5266512 0.062949181 0.036098298
0.52584904 0.063870698 0.035527676
0.525047 0.06479539 0.03495707
0.52507263 0.065639496 0.034951925
0.52427077 0.066568971 0.034381289
0.52346897 0.067501627 0.033810634
0.52349472 0.068348922 0.033805471
0.52269304 0.069286361 0.033234753
0.52271885 0.070135243 0.033229578
0.52191734 0.071077466 0.032658868
0.52111596 0.072022863 0.032088134
0.52114183 0.072874933 0.032082941
0.52034056 0.073825113 0.031512178
0.52036655 0.074678771 0.031506974
0.52039248 0.075532436 0.031501774
0.52041841 0.076386102 0.031496573
0.53668505 0.0208917 0.043064415
0.53670996 0.021711918 0.043059416
0.53756398 0.022529623 0.043620672
0.53758889 0.023348248 0.043615684
0.53844273 0.024161175 0.044176932
0.53846753 0.024978206 0.044171955
0.53932124 0.025786355 0.044733234
0.53934604 0.026601795 0.044728268
0.54019958 0.027405165 0.045289576
0.541053 0.028205352 0.045850907
0.54107773 0.029017607 0.045845959
0.54110241 0.02982986 0.045841008
0.54195571 0.030623674 0.046402406
0.54198033 0.031434335 0.046397466
0.542005 0.032244995 0.046392526
0.54202962 0.033055656 0.046387587
0.54205424 0.03386632 0.046382647
0.54207891 0.03467698 0.046377707
0.54210353 0.035487641 0.046372768
0.54212821 0.036298301 0.046367828
0.54215282 0.037108961 0.046362888
0.54217744 0.037919626 0.046357948
0.54137397 0.038764652 0.045786563
0.54139864 0.039576907 0.045781612
0.54059535 0.040426709 0.045210227
0.54062009 0.041240554 0.045205265
0.54064482 0.0420544 0.045200307
0.53984171 0.042910576 0.044628885
0.53903872 0.043769933 0.044057444
0.53823584 0.04463248 0.043485984
0.5382607 0.045451105 0.043480996
0.53745788 0.04631843 0.042909473
0.53665525 0.047188938 0.042337961
0.53585267 0.04806263 0.041766435
0.5358777 0.048886031 0.041761417
0.53507525 0.049764503 0.041189857
0.53427285 0.050646164 0.040618245
0.53347063 0.051531002 0.040046651
0.53266853 0.052419033 0.039475031
0.53269374 0.053248804 0.039469976
0.53189176 0.054141607 0.03889833
0.53108984 0.055037595 0.038326666
0.53028798 0.055936776 0.037754949
0.53031337 0.056771327 0.03774986
0.52951169 0.05767528 0.037178148
0.52871019 0.058582418 0.036606416
0.52873564 0.059420157 0.036601312
0.52793419 0.060332075 0.036029551
0.52713293 0.061247174 0.035457768
0.52715844 0.062088095 0.035452645
0.52635723 0.063007981 0.034880798
0.52638286 0.063850492 0.034875665
0.52558184 0.064775154 0.034303825
0.52478093 0.06570299 0.033731967
0.52398008 0.066634022 0.033160087
0.52400583 0.067481317 0.033154923
0.5232051 0.068417124 0.032582983
0.52240449 0.069356121 0.032011054
0.52243036 0.07020659 0.032005873
0.52162993 0.071150362 0.031433918
0.52165586 0.072002441 0.031428725
0.52168173 0.072854504 0.031423531
0.52088147 0.073804647 0.030851537
0.5209074 0.074658304 0.030846337
0.52010733 0.075613223 0.030274313
0.53720474 0.020872036 0.04242966
0.53722966 0.021692254 0.04242466
0.53808272 0.022509996 0.042987149
0.53810757 0.023328621 0.042982161
0.5389604 0.024141585 0.043544643
0.53898525 0.024958618 0.043539666
0.5398379 0.025766805 0.044102177
0.53986269 0.026582245 0.044097211
0.54071522 0.027385654 0.044659749
0.54073995 0.028199499 0.04465479
0.54159236 0.028998133 0.045217361
0.54161704 0.029810386 0.04521241
0.54164177 0.030622639 0.045207463
0.542494 0.0314149 0.045770109
0.54251862 0.03222556 0.045765169
0.54254329 0.033036221 0.045760229
0.54256791 0.033846881 0.045755289
0.54259259 0.034657545 0.045750346
0.5426172 0.035468206 0.045745406
0.54264182 0.036278866 0.045740467
0.54183924 0.03712067 0.045167863
0.54186398 0.037932925 0.045162916
0.54188865 0.038745176 0.045157965
0.54108632 0.03959335 0.044585358
0.54111105 0.040407196 0.0445804
0.54113579 0.041221041 0.044575442
0.54033363 0.042075586 0.044002797
0.53953159 0.042933315 0.043430131
0.53955644 0.043750346 0.043425154
0.53875452 0.044612851 0.042852458
0.53795266 0.045478545 0.042279713
0.53797758 0.046298765 0.042274714
0.53717595 0.047169235 0.041701972
0.53637439 0.04804289 0.041129209
0.53557289 0.04891973 0.040556427
0.5347715 0.049799759 0.039983597
0.53397024 0.050682966 0.039410774
0.53399539 0.051511146 0.03940573
0.5331943 0.052399136 0.038832881
0.53239322 0.053290311 0.038260013
0.53159231 0.054184671 0.037687127
0.5307914 0.055082217 0.037114181
0.53081679 0.055916768 0.037109096
0.53001612 0.056819092 0.036536161
0.52921551 0.057724599 0.035963207
0.52841502 0.05863329 0.035390232
0.52844054 0.05947262 0.035385117
0.52764016 0.060386091 0.034812111
0.52766573 0.061227012 0.034806985
0.52686548 0.062145267 0.03423392
0.52689111 0.062987782 0.034228787
0.52609104 0.063910805 0.033655725
0.52529109 0.064837024 0.033082642
0.52531677 0.065682717 0.03307749
0.52451694 0.066613711 0.032504376
0.52371716 0.067547888 0.031931214
0.52374297 0.068396777 0.03192604
0.52294338 0.069335729 0.031352881
0.5221439 0.07027787 0.030779701
0.52216983 0.07112994 0.03077451
0.5221957 0.071982011 0.030769316
0.52139646 0.072930515 0.0301961
0.52142239 0.07378418 0.0301909
0.52062327 0.074737467 0.029617652
0.52064925 0.075592719 0.029612441
0.52067524 0.076447971 0.029607229
0.5386014 0.022490369 0.042353623
0.53862625 0.023308994 0.042348634
0.53947812 0.024121998 0.042912349
0.53950292 0.024939029 0.042907372
0.53952777 0.025756061 0.042902391
0.54037941 0.026562694 0.043466151
0.54123092 0.027366141 0.044029921
0.54125565 0.028179988 0.044024963
0.54210705 0.028978659 0.044588767
0.54213172 0.029790912 0.04458382
0.5421564 0.030603165 0.044578869
0.54218107 0.031415418 0.044573918
0.54303229 0.032206126 0.045137804
0.54305691 0.033016786 0.045132864
0.54225516 0.033852182 0.044559069
0.54227984 0.034664433 0.044554122
0.54230458 0.035476688 0.044549171
0.54232925 0.036288943 0.04454422
0.54235393 0.037101194 0.044539273
0.5423786 0.037913449 0.044534322
0.54157722 0.038759992 0.043960493
0.54160196 0.039573837 0.043955531
0.54080075 0.040425159 0.043381676
0.54082555 0.041240595 0.043376707
0.54085034 0.042056035 0.043371737
0.54004925 0.042913727 0.042797837
0.53924835 0.043774601 0.042223923
0.53844744 0.044638664 0.041649956
0.53847235 0.045458883 0.041644957
0.53767169 0.046327721 0.04107099
0.53687108 0.047199745 0.040497009
0.53607059 0.048074953 0.039923001
0.53527009 0.048953351 0.039348945
0.53529525 0.04977994 0.039343908
0.534495 0.05066311 0.038769856
0.5336948 0.051549468 0.038195785
0.53289473 0.052439012 0.037621692
0.53209478 0.05333174 0.037047584
0.53129488 0.054227658 0.03647342
0.53132021 0.055062208 0.036468334
0.5305205 0.055962902 0.035894174
0.52972084 0.056866776 0.035319995
0.52892131 0.05777384 0.034745798
0.52894682 0.05861317 0.034740683
0.52814746 0.059525009 0.034166459
0.52817303 0.06036593 0.034161333
0.52737373 0.061282553 0.033587042
0.52657455 0.062202357 0.033012766
0.52660024 0.063046463 0.033007622
0.52580124 0.063971043 0.03243332
0.52582693 0.064816743 0.032428168
0.52502805 0.065746106 0.031853832
0.52422923 0.066678651 0.031279445
0.52425504 0.06752754 0.03127427
0.52345645 0.06846486 0.030699888
0.52348226 0.069315337 0.030694705
0.5226838 0.07025744 0.030120295
0.52270973 0.071109511 0.030115103
0.52191138 0.072056383 0.029540662
0.52193731 0.072910048 0.029535459
0.52113914 0.073861703 0.028960992
0.52116513 0.074716963 0.02895578
0.52119118 0.075572215 0.028950568
0.52039313 0.076530248 0.028376026
0.5382691 0.021652924 0.041155148
0.53912008 0.022470742 0.0417201
0.53914499 0.023289368 0.041715112
0.53999579 0.02410241 0.042280059
0.54002064 0.024919441 0.042275082
0.54004544 0.025736472 0.042270102
0.54089606 0.026543144 0.04283509
0.54174662 0.02734663 0.043400098
0.54177135 0.028160475 0.043395136
0.54262167 0.028959185 0.043960176
0.54264641 0.029771438 0.043955225
0.54267108 0.030583693 0.043950275
0.54269576 0.031395946 0.043945327
0.54272044 0.032208201 0.043940376
0.54274517 0.033020452 0.043935426
0.54276985 0.033832707 0.043930478
0.54279453 0.034644961 0.043925527
0.5428192 0.035457216 0.043920577
0.54284388 0.036269467 0.043915629
0.54286861 0.037081722 0.043910678
0.54206818 0.037926633 0.043335624
0.54209292 0.038740478 0.043330666
0.54129267 0.039590169 0.042755585
0.5413174 0.040405609 0.042750616
0.54051733 0.041260075 0.042175505
0.54054213 0.042077105 0.042170528
0.53974217 0.042936351 0.041595388
0.53894222 0.043798782 0.041020196
0.53896713 0.044619001 0.041015197
0.53816742 0.045486208 0.040440008
0.53736776 0.0463566 0.039864801
0.5373928 0.047180004 0.039859783
0.53659332 0.048055176 0.03928455
0.53579384 0.048933536 0.038709257
0.53499454 0.049815077 0.038133983
0.53419536 0.0506998 0.03755869
0.53422058 0.051529575 0.037553634
0.53342152 0.052419081 0.036978308
0.53262258 0.053311773 0.036402967
0.53182364 0.054207649 0.03582757
0.53102487 0.055106711 0.035252187
0.53022623 0.056008957 0.034676787
0.52942765 0.056914389 0.034101367
0.52945316 0.057753716 0.034096252
0.52865469 0.058663923 0.033520799
0.52785635 0.059577327 0.032945298
0.52788192 0.060419839 0.032940164
0.52708375 0.061338011 0.032364666
0.52710938 0.062182117 0.032359522
0.52631134 0.063105069 0.031783994
0.52551341 0.064031206 0.031208448
0.52553916 0.064878494 0.031203285
0.52474135 0.065809414 0.030627675
0.5247671 0.066658303 0.030622503
0.52396947 0.067593992 0.030046895
