# .PCD v0.7 - Point Cloud Data file format
VERSION 0.7
FIELDS x y z
SIZE 4 4 4
TYPE F F F
COUNT 1 1 1
WIDTH 1437
HEIGHT 1
VIEWPOINT 0 0 0 1 0 0 0
POINTS 1437
DATA ascii
0.51035446 0.0771534 0.17792355
0.51037627 0.077871688 0.17791916
0.50939304 0.078717142 0.17756723
0.50941491 0.079437017 0.17756285
0.50843179 0.080287248 0.17721088
0.50845373 0.081008717 0.17720649
0.50847566 0.081730194 0.17720209
0.50749272 0.082586795 0.1768501
0.50751466 0.083309859 0.17684568
0.50753665 0.084032923 0.17684127
0.50755864 0.084755987 0.17683688
0.50858533 0.085337557 0.17718011
0.50860721 0.086059026 0.17717572
0.5106383 0.08649113 0.17786664
0.51166469 0.087063141 0.17820995
0.51369542 0.087484092 0.17890093
0.51673037 0.08774922 0.17993964
0.51876068 0.088155843 0.18063073
0.52079082 0.088556089 0.18132186
0.52181643 0.089104213 0.18166529
0.52995527 0.091310427 0.18442607
0.53098017 0.091834657 0.18476966
0.53200501 0.092355698 0.18511327
0.5340336 0.092706583 0.18580468
0.53405428 0.093388237 0.18580052
0.53507882 0.093899719 0.1861442
0.53610325 0.094408035 0.18648788
0.53712755 0.094913147 0.18683158
0.53714818 0.095590025 0.18682745
0.53716874 0.096266896 0.18682334
0.53819287 0.09676566 0.18716706
0.53821337 0.097440936 0.18716295
0.53923738 0.097934902 0.18750672
0.53925788 0.098608606 0.18750261
0.54028165 0.099097796 0.18784641
0.5403021 0.09976989 0.18784231
0.54132581 0.1002543 0.18818614
0.54134619 0.10092482 0.18818206
0.54136658 0.10159532 0.18817797
0.54239005 0.10207336 0.18852185
0.54241037 0.10274228 0.18851776
0.54343373 0.10321555 0.18886165
0.54345405 0.10388287 0.18885759
0.54347432 0.10455019 0.18885352
0.54449749 0.10501709 0.18919747
0.54451776 0.10568281 0.18919341
0.54453796 0.10634854 0.18918934
0.54455823 0.10701427 0.18918529
0.5455811 0.10747321 0.18952927
0.54560131 0.10813735 0.18952522
0.54562151 0.10880148 0.18952116
0.54564166 0.10946562 0.18951713
0.54566187 0.11012976 0.18951307
0.54568207 0.1107939 0.18950903
0.54570222 0.11145803 0.18950498
0.54472005 0.11234011 0.18915284
0.54474032 0.11300584 0.18914878
0.54476053 0.11367157 0.18914473
0.54478079 0.1143373 0.18914066
0.54379886 0.11522735 0.18878846
0.54381913 0.11589468 0.18878439
0.5438394 0.11656199 0.18878032
0.54285771 0.1174584 0.18842809
0.54287803 0.11812732 0.18842401
0.54289836 0.11879624 0.18841994
0.54291868 0.11946516 0.18841586
0.54193717 0.12036953 0.18806356
0.54195756 0.12104005 0.18805948
0.54197794 0.12171055 0.1880554
0.54199833 0.12238106 0.18805131
0.54201871 0.12305157 0.18804722
0.5420391 0.12372207 0.18804313
0.54205948 0.12439258 0.18803905
0.54207987 0.12506309 0.18803497
0.51642549 0.062926635 0.17954233
0.51644701 0.063635364 0.17953801
0.51546353 0.064440966 0.17918509
0.51548511 0.065151289 0.17918077
0.51651162 0.065761566 0.17952505
0.51552832 0.066571936 0.17917211
0.5155499 0.067282259 0.17916779
0.51557148 0.067992583 0.17916346
0.51559311 0.068702906 0.17915913
0.51561469 0.06941323 0.1791548
0.51463163 0.070233166 0.17880179
0.51465327 0.070945077 0.17879745
0.51367038 0.071769789 0.17844442
0.51369208 0.072483301 0.17844006
0.51270932 0.073312789 0.178087
0.51273102 0.074027888 0.17808263
0.51174843 0.074862152 0.17772953
0.51177025 0.075578846 0.17772517
0.51078779 0.076417893 0.17737204
0.5108096 0.077136181 0.17736766
0.50982726 0.077980004 0.17701451
0.50984919 0.078699879 0.17701013
0.50886703 0.079548478 0.17665695
0.50888896 0.080269948 0.17665255
0.50891089 0.080991425 0.17664815
0.50893283 0.081712894 0.17664376
0.50795084 0.082569458 0.17629053
0.50797284 0.083292522 0.17628612
0.50799483 0.084015593 0.17628171
0.50801677 0.084738657 0.17627731
0.50904244 0.085320257 0.17662178
0.510068 0.085898675 0.17696626
0.51109344 0.086473912 0.17731076
0.51211876 0.087045953 0.17765529
0.51414752 0.087466992 0.17834875
0.51617604 0.087881647 0.17904226
0.51820433 0.088289946 0.17973578
0.51922917 0.088844471 0.18008041
0.52125716 0.089241609 0.18077403
0.52228177 0.089788184 0.1811187
0.5243094 0.090174176 0.18181238
0.53041214 0.091981955 0.18388943
0.53143597 0.092504628 0.18423426
0.53346258 0.092857182 0.18492813
0.53348339 0.093540423 0.18492396
0.53450692 0.094053552 0.18526885
0.53553039 0.094563484 0.18561377
0.53655374 0.095070235 0.18595868
0.53757703 0.095573798 0.18630362
0.5375976 0.096250668 0.1862995
0.53862071 0.09674947 0.18664446
0.53864127 0.097424746 0.18664035
0.53866178 0.098100029 0.18663624
0.53968471 0.098592453 0.18698126
0.53970522 0.099266142 0.18697715
0.54072797 0.099753782 0.18732218
0.54074842 0.10042588 0.1873181
0.54177099 0.10090875 0.18766317
0.54179138 0.10157924 0.18765907
0.54181176 0.10224976 0.18765499
0.54283422 0.10272624 0.1880001
0.54285461 0.10339516 0.18799601
0.54287493 0.10406407 0.18799195
0.54389715 0.10453419 0.18833709
0.54391742 0.10520152 0.18833302
0.54393774 0.10586884 0.18832895
0.54495978 0.10633259 0.18867415
0.54498005 0.10699831 0.18867008
0.54500026 0.10766404 0.18866603
0.54502052 0.10832977 0.18866198
0.54504073 0.1089955 0.18865792
0.54506099 0.10966123 0.18865386
0.5450812 0.11032695 0.1886498
0.5451014 0.11099269 0.18864575
0.54512167 0.11165842 0.1886417
0.54514188 0.11232415 0.18863764
0.54516214 0.11298988 0.18863358
0.54418111 0.1138767 0.18828015
0.54420137 0.11454403 0.1882761
0.5442217 0.11521135 0.18827203
0.5432409 0.11610454 0.18791857
0.54326123 0.11677345 0.18791449
0.54328156 0.11744237 0.18791042
0.54230088 0.11834194 0.18755694
0.54232126 0.11901245 0.18755284
0.54234165 0.11968295 0.18754876
0.54236203 0.12035346 0.18754467
0.54238242 0.12102398 0.18754059
0.5424028 0.12169447 0.18753651
0.54142255 0.12260518 0.18718293
0.54144299 0.12327728 0.18717885
0.54146338 0.12394939 0.18717475
0.54148382 0.12462149 0.18717065
0.51587045 0.063003287 0.17864403
0.51589203 0.06371361 0.17863971
0.51591361 0.064423934 0.17863537
0.51593524 0.065134257 0.17863105
0.51595682 0.065844581 0.17862672
0.5159784 0.066554904 0.17862239
0.51599997 0.067265227 0.17861806
0.51602161 0.067975551 0.17861374
0.51604319 0.068685874 0.1786094
0.51506108 0.069504179 0.17825517
0.51508272 0.070216097 0.17825083
0.51510435 0.070928007 0.17824648
0.51412249 0.071752682 0.17789222
0.51414418 0.072466195 0.17788787
0.51316243 0.073295645 0.17753358
0.51318413 0.074010745 0.17752922
0.51220256 0.074844971 0.1771749
0.51222438 0.075561665 0.17717053
0.51224613 0.076278359 0.17716616
0.51126474 0.077118956 0.17681178
0.51128656 0.077837244 0.1768074
0.51030529 0.078682624 0.17645301
0.51032722 0.079402499 0.17644863
0.50934607 0.080252647 0.1760942
0.509368 0.080974124 0.17608981
0.50845295 0.083998255 0.17572214
0.50847495 0.084721319 0.17571773
0.50949961 0.085302956 0.17606343
0.5115267 0.085738406 0.17675926
0.51762849 0.087715238 0.17884269
0.51865244 0.088272996 0.17918852
0.51967621 0.088827558 0.17953439
0.52170223 0.089224771 0.18023047
0.52272576 0.089771383 0.18057637
0.52374923 0.090314798 0.18092231
0.52477258 0.090855032 0.18126826
0.52679795 0.091231547 0.18196446
0.52782106 0.091763817 0.18231046
0.53086901 0.092653483 0.18335277
0.53189176 0.093174607 0.18369885
0.53291446 0.093692541 0.18404494
0.5339371 0.094207294 0.18439105
0.53495955 0.094718866 0.18473716
0.53598195 0.095227242 0.18508331
0.53700429 0.095732443 0.18542948
0.53702492 0.096410908 0.18542534
0.53804708 0.096911319 0.18577155
0.53806764 0.097588204 0.18576743
0.53908968 0.098083839 0.18611364
0.53911018 0.09875913 0.18610953
0.54013205 0.099249989 0.18645579
0.54015255 0.099923678 0.18645167
0.54117423 0.10040977 0.18679796
0.54119468 0.10108186 0.18679386
0.54121512 0.10175397 0.18678977
0.54223663 0.10223368 0.18713608
0.54225701 0.10290419 0.18713199
0.5432784 0.10337912 0.18747835
0.54329878 0.10404804 0.18747427
0.54331911 0.10471695 0.1874702
0.54333943 0.10538587 0.18746611
0.54436058 0.10585283 0.18781252
0.54438084 0.10652016 0.18780845
0.54440111 0.10718748 0.18780439
0.54542208 0.10764808 0.18815084
0.54544234 0.10831381 0.18814677
0.54546255 0.10897954 0.18814272
0.54548281 0.10964527 0.18813866
0.54550302 0.11031099 0.18813461
0.54552329 0.11097673 0.18813054
0.54454309 0.11185874 0.18777592
0.54456341 0.11252606 0.18777186
0.54458368 0.11319339 0.18776779
0.54460394 0.1138607 0.18776372
0.54362404 0.11475068 0.18740906
0.54364437 0.11541959 0.18740498
0.54366475 0.11608851 0.18740091
0.54268503 0.11698484 0.18704619
0.54270542 0.11765535 0.1870421
0.54272574 0.11832586 0.18703802
0.54274613 0.11899637 0.18703394
0.54276651 0.11966687 0.18702984
0.54178715 0.12057277 0.18667509
0.54180753 0.12124487 0.18667099
0.54182798 0.12191697 0.18666691
0.54184842 0.12258907 0.18666281
0.54186881 0.12326117 0.18665871
0.54188925 0.12393327 0.18665461
0.51632053 0.062986255 0.17809431
0.5163421 0.063696578 0.17808999
0.51636374 0.064406902 0.17808565
0.51638532 0.065117225 0.17808133
0.51640689 0.065827549 0.17807701
0.51642847 0.066537879 0.17807268
0.51645005 0.067248203 0.17806835
0.51647168 0.067958519 0.17806402
0.51549053 0.068775192 0.17770855
0.51551217 0.06948711 0.17770422
0.5155338 0.070199028 0.17769988
0.51455289 0.071022063 0.1773444
0.51457459 0.071735576 0.17734005
0.51459628 0.072449088 0.17733571
0.51461798 0.073162593 0.17733136
0.51363724 0.073993601 0.1769758
0.513659 0.0747087 0.17697145
0.51267844 0.075544484 0.17661589
0.51270026 0.076261178 0.17661153
0.51171982 0.077101737 0.17625591
0.5117417 0.077820025 0.17625153
0.51076144 0.078665361 0.17589591
0.51705462 0.087137267 0.17794715
0.51907897 0.087548897 0.17864558
0.52010185 0.088105097 0.17899269
0.5211246 0.088658109 0.1793398
0.52214724 0.089207932 0.17968692
0.52316982 0.089754581 0.18003406
0.52319109 0.090455346 0.18002979
0.52521461 0.090838306 0.18072842
0.52523583 0.091535896 0.18072417
0.52725905 0.091909289 0.18142284
0.52828109 0.092440017 0.18177009
0.52930313 0.09296754 0.18211734
0.53336924 0.094360963 0.18351077
0.53439075 0.094874166 0.18385813
0.53541219 0.095384173 0.18420549
0.53643358 0.095891006 0.18455288
0.53745478 0.096394643 0.18490028
0.53747541 0.097073115 0.18489616
0.53849655 0.097571976 0.18524359
0.53851712 0.098248854 0.18523946
0.53953809 0.09874294 0.18558693
0.53955859 0.099418223 0.18558282
0.54057944 0.099907525 0.18593031
0.54059988 0.10058122 0.18592621
0.54062039 0.10125492 0.1859221
0.541641 0.10173785 0.18626963
0.54166138 0.10240996 0.18626553
0.54168183 0.10308205 0.18626145
0.54270226 0.10355861 0.18660901
0.54272264 0.10422913 0.18660493
0.5437429 0.10470091 0.18695253
0.54376328 0.10536983 0.18694846
0.54378361 0.10603874 0.18694438
0.54480368 0.10650416 0.18729201
0.54482394 0.10717148 0.18728796
0.54484421 0.10783881 0.18728389
0.54486454 0.10850614 0.18727982
0.5448848 0.10917345 0.18727575
0.54490507 0.10984078 0.18727168
0.54492539 0.1105081 0.18726762
0.54494566 0.11117543 0.18726355
0.54496592 0.11184274 0.18725948
0.54398692 0.1127279 0.18690363
0.54400724 0.11339681 0.18689954
0.54402757 0.11406572 0.18689547
0.54404789 0.11473463 0.18689139
0.54306906 0.11562775 0.18653546
0.54308945 0.11629827 0.18653138
0.54310983 0.11696877 0.1865273
0.54213125 0.11786826 0.18617134
0.54215169 0.11854035 0.18616724
0.54217213 0.11921246 0.18616314
0.54219258 0.11988456 0.18615904
0.54221296 0.12055666 0.18615496
0.54223341 0.12122875 0.18615086
0.54225385 0.12190086 0.18614677
0.5422743 0.12257296 0.18614267
0.54229468 0.12324505 0.18613857
0.54231513 0.12391715 0.18613447
0.51576853 0.063062795 0.17719233
0.51579016 0.063774712 0.17718799
0.5158118 0.06448663 0.17718366
0.51683539 0.065100193 0.17753163
0.51585507 0.065910459 0.17717497
0.51587671 0.066622376 0.17717063
0.51589835 0.067334294 0.1771663
0.51591998 0.068046212 0.17716196
0.51594162 0.068758123 0.17715763
0.51596326 0.069470041 0.17715329
0.51598489 0.070181958 0.17714895
0.51500499 0.071004957 0.17679222
0.51502669 0.071718469 0.17678787
0.51504838 0.072431982 0.17678352
0.51507008 0.073145486 0.17677918
0.51409036 0.073976457 0.1764224
0.51411211 0.074691556 0.17641805
0.51313257 0.075527303 0.17606124
0.51315439 0.076243989 0.17605688
0.51217496 0.077084512 0.17570004
0.51219678 0.077802807 0.17569566
0.51121759 0.078648105 0.1753388
0.52050602 0.086677089 0.17845526
0.52152783 0.087233327 0.17880359
0.52254957 0.087786376 0.17915194
0.52357119 0.088336244 0.17950028
0.52359253 0.089037009 0.17949602
0.52361381 0.08973778 0.17949174
0.52463526 0.09028127 0.17984015
0.52465653 0.090980448 0.1798359
0.5256778 0.09151917 0.1801843
0.52669907 0.092054687 0.18053277
0.52872008 0.092423402 0.18123393
0.52974105 0.09295097 0.18158244
0.53076196 0.093475357 0.18193094
0.53380316 0.094344549 0.18298078
0.53482366 0.094857782 0.18332936
0.53584409 0.095367834 0.18367796
0.53686446 0.095874697 0.18402658
0.53688514 0.096554764 0.18402244
0.53790534 0.097056851 0.1843711
0.5379259 0.097735316 0.18436696
0.53794652 0.098413795 0.18436283
0.5389666 0.098909505 0.18471152
0.53998643 0.099402033 0.18506022
0.540007 0.10007732 0.18505611
0.5400275 0.1007526 0.18505199
0.54104722 0.10123876 0.18540075
0.54106772 0.10191245 0.18539664
0.54108816 0.10258615 0.18539254
0.5421077 0.10306594 0.18574132
0.54212815 0.10373804 0.18573722
0.54314744 0.10421306 0.18608603
0.54316783 0.10488356 0.18608195
0.54318821 0.10555407 0.18607786
0.54420745 0.10602271 0.18642671
0.54422778 0.10669162 0.18642265
0.5442481 0.10736053 0.18641856
0.54426843 0.10802945 0.18641448
0.54528737 0.10849013 0.18676339
0.54530764 0.10915745 0.18675932
0.5453279 0.10982478 0.18675525
0.54434973 0.11070511 0.18639818
0.54437011 0.11137403 0.18639411
0.54439044 0.11204293 0.18639003
0.54441077 0.11271185 0.18638596
0.54343277 0.11360016 0.18602884
0.54345316 0.11427066 0.18602476
0.5424754 0.11516374 0.18566759
0.54249585 0.11583584 0.18566349
0.54251629 0.11650795 0.18565941
0.54253668 0.11718004 0.18565531
0.54255712 0.11785214 0.18565121
0.54257756 0.11852424 0.18564712
0.54259801 0.11919635 0.18564302
0.54261839 0.11986844 0.18563892
0.54263884 0.12054054 0.18563484
0.54265928 0.12121265 0.18563074
0.54267967 0.12188474 0.18562664
0.54270011 0.12255684 0.18562254
0.51621962 0.063045725 0.17664139
0.51624125 0.063757643 0.17663704
0.51626289 0.064469561 0.1766327
0.51628453 0.065181471 0.17662837
0.51630616 0.065893397 0.17662403
0.5163278 0.066605307 0.17661969
0.51634943 0.067317225 0.17661536
0.51637107 0.068029143 0.17661102
0.51639271 0.068741053 0.17660667
0.51641434 0.069452979 0.17660233
0.51643598 0.070164889 0.176598
0.51545709 0.07098785 0.17624006
0.51547879 0.071701363 0.17623571
0.51550049 0.072414875 0.17623135
0.51552212 0.07312838 0.176227
0.51454347 0.073959313 0.17586899
0.51456523 0.074674413 0.17586464
0.5135867 0.075510114 0.17550661
0.51360846 0.076226808 0.17550224
0.51363027 0.076943502 0.17549787
0.51265192 0.077785581 0.17513978
0.52395135 0.086217135 0.17897078
0.52497202 0.086768627 0.17932038
0.5249933 0.087467805 0.17931612
0.52601379 0.088014528 0.17966571
0.5250358 0.088866159 0.17930759
0.52505702 0.089565329 0.17930333
0.5250783 0.090264507 0.17929907
0.52609861 0.09080486 0.17964871
0.52611983 0.091502443 0.17964447
0.52714002 0.092038006 0.17999415
0.52816015 0.092570394 0.18034384
0.52918011 0.093099594 0.18069357
0.53119892 0.093458816 0.18139726
0.53221869 0.093980052 0.18174702
0.53323835 0.094498105 0.18209681
0.53425789 0.09501297 0.18244663
0.53527737 0.095524646 0.18279645
0.53629673 0.096033148 0.18314628
0.53631747 0.096714802 0.18314213
0.53733671 0.097218513 0.183492
0.53835583 0.097719051 0.1838419
0.53837645 0.098397523 0.18383777
0.53839707 0.099076003 0.18383363
0.53941602 0.099570155 0.18418357
0.53943658 0.10024703 0.18417944
0.5394572 0.1009239 0.18417531
0.5404759 0.10141171 0.18452528
0.54049641 0.10208698 0.18452117
0.54151505 0.10257 0.18487117
0.54153556 0.10324368 0.18486707
0.541556 0.10391738 0.18486296
0.54257441 0.10439403 0.185213
0.54259485 0.10506613 0.1852089
0.54261523 0.10573823 0.1852048
0.54363346 0.1062085 0.18555488
0.54365385 0.10687901 0.18555079
0.54367423 0.10754951 0.18554671
0.54469228 0.10801341 0.18589683
0.5447126 0.10868233 0.18589275
0.54473293 0.10935124 0.18588868
0.54475325 0.11002015 0.18588459
0.54377615 0.11090206 0.18552628
0.54379648 0.11157256 0.18552218
0.54381686 0.11224306 0.1855181
0.54284 0.11313133 0.18515976
0.54286039 0.11380343 0.18515566
0.54288083 0.11447553 0.18515156
0.54190415 0.11537016 0.18479317
0.5419246 0.11604385 0.18478906
0.5419451 0.11671755 0.18478496
0.54196554 0.11739124 0.18478085
0.54198605 0.11806493 0.18477675
0.54200649 0.11873861 0.18477264
0.542027 0.11941232 0.18476854
0.54204744 0.12008601 0.18476443
0.54206795 0.1207597 0.18476033
0.54208845 0.1214334 0.18475622
0.54310554 0.12186863 0.18510652
0.51664907 0.062316742 0.17609477
0.5166707 0.063028656 0.17609043
0.51669234 0.063740574 0.1760861
0.51671398 0.064452492 0.17608176
0.51673561 0.06516441 0.17607743
0.51675725 0.065876327 0.17607309
0.51677889 0.066588238 0.17606874
0.51680052 0.067300156 0.1760644
0.51682216 0.068012074 0.17606007
0.5168438 0.068723992 0.17605573
0.5158658 0.069543727 0.17569655
0.5158875 0.070257239 0.17569222
0.51590919 0.070970744 0.17568786
0.51593089 0.071684256 0.17568351
0.51595259 0.072397768 0.17567916
0.51597422 0.073111273 0.17567481
0.51499659 0.07394217 0.17531557
0.51501828 0.074657261 0.17531122
0.51504004 0.075372368 0.17530687
0.51406258 0.076209627 0.17494759
0.5140844 0.076926321 0.17494322
0.52838904 0.085609771 0.17984876
0.5284102 0.086304165 0.17984453
0.5284313 0.086998567 0.1798403
0.5284524 0.087692969 0.17983606
0.5274753 0.088541374 0.17947674
0.52649826 0.089392968 0.17911737
0.52751756 0.089933351 0.17946826
0.52753872 0.090629339 0.17946401
0.52755988 0.091325335 0.17945977
0.52758104 0.092021316 0.17945553
0.52860016 0.092553742 0.17980646
0.5296191 0.093082979 0.18015739
0.53063804 0.093609035 0.18050838
0.5316568 0.094131902 0.18085936
0.53367329 0.094481647 0.18156558
0.53369415 0.095168084 0.1815614
0.53471267 0.095681392 0.18191245
0.53573108 0.096191518 0.18226351
0.53674936 0.096698463 0.18261459
0.53677011 0.097380124 0.18261045
0.53778827 0.097882271 0.18296155
0.53780895 0.098562337 0.18295741
0.53882694 0.099059731 0.18330856
0.53884757 0.099738203 0.18330443
0.53886819 0.10041668 0.1833003
0.53988606 0.10090768 0.18365148
0.53990662 0.10158455 0.18364735
0.53992724 0.10226143 0.18364322
0.54094481 0.10274608 0.18399446
0.54096538 0.10342136 0.18399034
0.54098588 0.10409666 0.18398622
0.54200339 0.10457493 0.18433748
0.54202384 0.10524862 0.18433338
0.54204434 0.10592231 0.18432927
0.54306155 0.10639422 0.18468058
0.543082 0.10706631 0.18467648
0.54310238 0.10773841 0.18467239
0.54411948 0.10820395 0.18502371
0.54413986 0.10887446 0.18501963
0.54316372 0.10975471 0.18466009
0.5431841 0.11042682 0.18465601
0.54320455 0.11109891 0.18465191
0.54322499 0.11177102 0.18464781
0.54324543 0.11244311 0.18464372
0.54226959 0.11333293 0.18428412
0.54229003 0.11400662 0.18428001
0.54231054 0.11468031 0.18427591
0.54133481 0.11557651 0.18391627
0.54235148 0.1160277 0.1842677
0.54137588 0.11692707 0.18390805
0.54239243 0.11737508 0.18425949
0.54241294 0.11804878 0.18425538
0.54243338 0.11872247 0.18425128
0.54245389 0.11939617 0.18424717
0.54247433 0.12006986 0.18424307
0.54249483 0.12074354 0.18423896
0.54251528 0.12141725 0.18423486
0.51610106 0.062391531 0.17518787
0.5161227 0.063105039 0.17518352
0.51614439 0.063818544 0.17517917
0.51616609 0.064532056 0.17517482
0.51618779 0.065245569 0.17517048
0.51620948 0.065959081 0.17516613
0.51623118 0.066672586 0.17516178
0.51625282 0.067386098 0.17515743
0.51627451 0.068099603 0.17515309
0.51629621 0.068813115 0.17514874
0.5163179 0.06952662 0.17514439
0.5163396 0.070240133 0.17514004
0.5163613 0.070953637 0.17513569
0.51638299 0.07166715 0.17513135
0.51640463 0.072380662 0.175127
0.51642632 0.073094167 0.17512265
0.51644802 0.073807679 0.1751183
0.51646972 0.074521184 0.17511395
0.51549315 0.075355224 0.17475346
0.51551491 0.076070324 0.17474909
0.51553661 0.07678543 0.17474474
0.53080285 0.084606707 0.18002822
0.53082389 0.08529792 0.18002401
0.5298475 0.08613833 0.17966346
0.52986854 0.086831138 0.17965925
0.52988964 0.087523937 0.17965502
0.5289135 0.088370711 0.17929447
0.5289346 0.089065112 0.17929024
0.5289557 0.089759514 0.179286
0.52797973 0.09061265 0.17892538
0.5289979 0.091148309 0.17927754
0.529019 0.091842696 0.17927331
0.53003705 0.092373572 0.17962547
0.53105497 0.092901252 0.17997767
0.53107601 0.093592465 0.17997347
0.53209376 0.094115369 0.18032567
0.53311151 0.094635084 0.18067792
0.53412908 0.095151626 0.18103018
0.53514659 0.095664971 0.18138246
0.53616399 0.096175134 0.18173476
0.53618479 0.096858382 0.18173058
0.537202 0.097363777 0.18208292
0.53722274 0.098045424 0.18207876
0.53823984 0.098546036 0.18243113
0.53826052 0.099226102 0.18242697
0.53927749 0.099721931 0.18277937
0.53929812 0.10040041 0.18277524
0.53931874 0.10107888 0.1827711
0.53933936 0.10175735 0.18276697
0.5403561 0.1022452 0.1831194
0.54037666 0.10292209 0.18311527
0.54039723 0.10359896 0.18311116
0.54041785 0.10427584 0.18310703
0.54143429 0.10475575 0.18345951
0.54145485 0.10543104 0.18345539
0.54147536 0.10610632 0.18345128
0.54249167 0.10657985 0.18380381
0.54251212 0.10725354 0.1837997
0.54253262 0.10792723 0.1837956
0.54255307 0.10860092 0.18379149
0.54257357 0.10927463 0.18378739
0.54259408 0.10994831 0.18378328
0.54261452 0.11062201 0.18377918
0.54263502 0.11129569 0.18377507
0.54166007 0.11218389 0.18341424
0.54168063 0.11285917 0.18341012
0.54170114 0.11353446 0.18340601
0.54172164 0.11420974 0.1834019
0.54074699 0.1151059 0.18304104
0.54076761 0.11578277 0.18303691
0.54078817 0.11645965 0.18303278
0.54180378 0.11691088 0.18338543
0.54182428 0.11758617 0.18338132
0.54184479 0.11826146 0.18337721
0.54186535 0.11893674 0.18337309
0.54188585 0.11961202 0.18336898
0.54190642 0.12028732 0.18336485
0.5165531 0.062374424 0.17463569
0.5165748 0.063087933 0.17463134
0.5165965 0.063801438 0.17462699
0.51661819 0.06451495 0.17462264
0.51663989 0.065228462 0.1746183
0.51666158 0.065941975 0.17461395
0.51668328 0.066655479 0.1746096
0.51670492 0.067368992 0.17460525
0.51672661 0.068082497 0.1746009
0.51674831 0.068796009 0.17459656
0.51677001 0.069509514 0.17459221
0.5167917 0.070223026 0.17458786
0.5168134 0.070936531 0.17458351
0.51683509 0.071650043 0.17457916
0.51685673 0.072363555 0.17457482
0.51687843 0.07307706 0.17457047
0.51690012 0.073790573 0.17456612
0.51692182 0.074504077 0.17456177
0.51594627 0.075338081 0.17420004
0.51696521 0.075931095 0.17455308
0.51698691 0.076644607 0.17454873
0.53223729 0.084444165 0.17985082
0.53225827 0.085133784 0.17984661
0.53128284 0.085972562 0.17948487
0.53130388 0.086663775 0.17948066
0.53132486 0.087354988 0.17947644
0.53034967 0.08820013 0.17911465
0.53037071 0.088892937 0.17911044
0.53039175 0.089585744 0.17910621
0.5294168 0.090437256 0.17874438
0.53043389 0.090971358 0.17909777
0.53045493 0.091664158 0.17909354
0.53147197 0.092193469 0.17944697
0.53149295 0.092884682 0.17944275
0.5325098 0.093409218 0.17979619
0.53253073 0.094098836 0.17979199
0.53354746 0.094618589 0.18014547
0.53456402 0.095135167 0.18049896
0.53558052 0.095648549 0.18085247
0.53560138 0.096333392 0.1808483
0.5366177 0.096842006 0.18120185
0.53663844 0.097525254 0.18119767
0.53765464 0.098029085 0.18155125
0.53867078 0.098529734 0.18190484
0.53869146 0.0992098 0.18190069
0.53871208 0.09988986 0.18189655
0.53873277 0.10056993 0.1818924
0.53974861 0.10106261 0.18224604
0.53976923 0.10174108 0.18224192
0.53978986 0.10241955 0.18223777
0.53981048 0.10309802 0.18223365
0.5398311 0.10377649 0.1822295
0.53985173 0.10445496 0.18222538
0.53987235 0.10513344 0.18222123
0.54088783 0.10561337 0.18257496
0.54090846 0.10629025 0.18257083
0.54092902 0.10696712 0.1825667
0.54094958 0.107644 0.18256257
0.54097015 0.10832088 0.18255846
0.54099071 0.10899776 0.18255433
0.54101127 0.10967465 0.18255021
0.5410319 0.11035152 0.18254608
0.54105246 0.1110284 0.18254195
0.54107302 0.11170527 0.18253784
0.54109359 0.11238215 0.18253371
0.54111415 0.11305902 0.18252958
0.54014045 0.11395355 0.18216749
0.54016107 0.11463203 0.18216336
0.5401817 0.11531049 0.18215922
0.54020232 0.11598896 0.18215509
0.54121703 0.11644342 0.18250896
0.54123759 0.1171203 0.18250483
0.54125822 0.11779717 0.18250071
0.54127878 0.11847405 0.18249659
0.54229319 0.11892055 0.18285049
0.54231375 0.11959583 0.18284638
0.51700521 0.062357318 0.17408352
0.5170269 0.063070826 0.17407916
0.5170486 0.063784331 0.17407481
0.51707029 0.064497843 0.17407046
0.51709199 0.065211356 0.17406611
0.51711369 0.065924868 0.17406178
0.51713538 0.066638373 0.17405742
0.51715702 0.067351885 0.17405307
0.51717871 0.06806539 0.17404872
0.51720041 0.068778902 0.17404437
0.51722211 0.069492407 0.17404003
0.5172438 0.070205919 0.17403568
0.5172655 0.070919424 0.17403133
0.51728719 0.071632937 0.17402698
0.51631242 0.072460525 0.17366406
0.51733053 0.073059954 0.17401829
0.51735222 0.073773466 0.17401394
0.51737392 0.074486971 0.17400959
0.51739562 0.075200483 0.17400524
0.51741731 0.075913988 0.1740009
0.51743901 0.0766275 0.17399655
0.53366971 0.084281698 0.17967589
0.53269523 0.085117251 0.17931293
0.53271616 0.085806869 0.17930873
0.53273714 0.086496495 0.17930453
0.53275812 0.087186113 0.17930032
0.53178388 0.088029623 0.1789373
0.53180486 0.088720836 0.1789331
0.53083074 0.089569137 0.17857005
0.53085184 0.090261936 0.17856582
0.53087288 0.090954743 0.1785616
0.5318889 0.091485679 0.17891625
0.53190994 0.092176899 0.17891203
0.53292578 0.092703059 0.17926669
0.53294677 0.093392685 0.17926249
0.53396249 0.093914069 0.1796172
0.53398341 0.094602093 0.17961299
0.53499895 0.095118709 0.17996772
0.5360145 0.095632136 0.18032248
0.5360353 0.096316978 0.18031831
0.5370506 0.096825622 0.18067308
0.53707141 0.09750887 0.18066891
0.53808653 0.098012738 0.1810237
0.53810728 0.098694399 0.18101956
0.53812802 0.09937606 0.1810154
0.53914303 0.099873558 0.18137026
0.53916371 0.10055362 0.18136612
0.53918433 0.10123368 0.18136196
0.53920501 0.10191374 0.18135782
0.5392257 0.1025938 0.18135367
0.53924638 0.10327387 0.18134953
0.53926706 0.10395393 0.18134539
0.54028165 0.1044387 0.1817003
0.53930837 0.10531407 0.1813371
0.5403229 0.10579564 0.18169203
0.53934973 0.10667419 0.18132882
0.53937042 0.10735425 0.18132468
0.53939104 0.10803431 0.18132052
0.53941172 0.10871437 0.18131638
0.53943241 0.10939445 0.18131223
0.53945309 0.11007451 0.18130809
0.53947377 0.11075456 0.18130395
0.5394944 0.11143463 0.18129981
0.53951508 0.11211469 0.18129566
0.53953576 0.11279476 0.18129152
0.53955644 0.11347482 0.18128738
0.53957713 0.11415489 0.18128322
0.53959775 0.11483495 0.18127908
0.53961843 0.11551501 0.18127494
0.54063225 0.1159727 0.18163002
0.54065287 0.11665116 0.18162589
0.54067349 0.11732963 0.18162175
0.54069412 0.11800811 0.18161762
0.54071468 0.11868658 0.18161348
0.54172826 0.11913469 0.18196863
0.5164395 0.061716855 0.17317602
0.51745731 0.062340211 0.17353132
0.51648295 0.063147061 0.1731673
0.5175007 0.063767225 0.17352264
0.51752239 0.064480737 0.17351829
0.51754409 0.065194249 0.17351393
0.51756579 0.065907761 0.17350958
0.51758748 0.066621266 0.17350525
0.51760912 0.067334779 0.1735009
0.51763082 0.068048283 0.17349654
0.51765251 0.068761796 0.17349219
0.51767421 0.069475301 0.17348786
0.51670033 0.070298076 0.17312373
0.51672208 0.071013182 0.17311937
0.51674378 0.071728282 0.17311502
0.51676553 0.072443381 0.17311065
0.51678729 0.073158488 0.1731063
0.51780432 0.07375636 0.17346177
0.51782602 0.074469864 0.17345741
0.51784772 0.075183377 0.17345306
0.51786941 0.075896882 0.17344873
0.53408474 0.083577178 0.17914763
0.53311121 0.0844111 0.17878343
0.5331322 0.085100718 0.17877923
0.53315312 0.085790336 0.17877503
0.5331741 0.086479954 0.17877083
0.53319508 0.087169573 0.17876662
0.53332084 0.09130729 0.17874141
0.53334177 0.091996916 0.17873721
0.53336275 0.092686526 0.17873301
0.53437752 0.09320955 0.17908894
0.53439844 0.093897574 0.17908475
0.53541303 0.094415821 0.17944069
0.53543389 0.095102258 0.1794365
0.53644842 0.095615715 0.17979249
0.53646922 0.096300557 0.17978831
0.53649002 0.0969854 0.17978413
0.53750432 0.097492494 0.18014015
0.53752506 0.098175734 0.18013598
0.53853917 0.09867806 0.18049203
0.53855991 0.099359721 0.18048787
0.53858066 0.10004137 0.18048371
0.53860134 0.10072303 0.18047957
0.53961527 0.10121737 0.18083568
0.53963596 0.10189744 0.18083154
0.53965658 0.1025775 0.18082738
0.53967726 0.10325757 0.18082324
0.53969795 0.10393763 0.18081909
0.53971863 0.10461769 0.18081495
0.53973931 0.10529776 0.18081081
0.5387671 0.10617627 0.18044634
0.53878784 0.10685793 0.18044218
0.53880852 0.10753959 0.18043803
0.53882927 0.10822124 0.18043387
0.53885001 0.10890289 0.18042973
0.5378781 0.10979097 0.18006521
0.5378989 0.11047422 0.18006104
0.53791964 0.11115746 0.18005688
0.53794044 0.11184072 0.18005271
0.53796118 0.11252396 0.18004856
0.53798199 0.11320721 0.18004438
0.53800273 0.11389045 0.18004023
0.53901571 0.11435615 0.1803965
0.53903645 0.11503781 0.18039234
0.5390572 0.11571946 0.18038818
0.54007 0.11617877 0.1807445
0.54009068 0.11685883 0.18074036
0.54011136 0.1175389 0.18073621
0.54112399 0.11799183 0.18109256
0.51689261 0.061699711 0.17262262
0.51790941 0.062323105 0.17297916
0.51693606 0.063129917 0.1726139
0.51695782 0.063845016 0.17260955
0.51697952 0.064560115 0.17260519
0.51700127 0.065275222 0.17260084
0.51702303 0.065990321 0.17259647
0.51704472 0.066705428 0.17259212
0.51706648 0.067420527 0.17258775
0.51708823 0.068135627 0.1725834
0.51710993 0.068850726 0.17257904
0.51713169 0.069565833 0.17257468
0.51715344 0.070280932 0.17257033
0.51717514 0.070996031 0.17256597
0.51719689 0.071711138 0.17256162
0.51721865 0.072426237 0.17255725
0.51724035 0.073141344 0.1725529
0.5172621 0.073856443 0.17254853
0.51827812 0.074452758 0.17290525
0.51829982 0.07516627 0.1729009
0.51832145 0.075879775 0.17289655
0.53354818 0.084394567 0.17824976
0.5335691 0.085084185 0.17824556
0.53359008 0.085773803 0.17824136
0.53361106 0.086463422 0.17823714
0.53363198 0.08715304 0.17823294
0.53375775 0.091290757 0.17820773
0.53377873 0.091980383 0.17820352
0.53479254 0.092505023 0.17856067
0.53481346 0.093193054 0.17855649
0.53483438 0.093881078 0.17855228
0.53584796 0.094399363 0.17890947
0.53586882 0.0950858 0.17890528
0.53688234 0.095599294 0.17926249
0.53690314 0.096284136 0.17925832
0.53692394 0.096968979 0.17925414
0.53793722 0.09747611 0.1796114
0.53795797 0.098159358 0.17960723
0.53797877 0.098842613 0.17960307
0.53899181 0.099343374 0.17996036
0.53901255 0.10002503 0.1799562
0.53903329 0.10070668 0.17995204
0.53905398 0.10138834 0.17994788
0.53907472 0.10207 0.17994374
0.5390954 0.10275165 0.17993958
0.53911614 0.10343331 0.17993543
0.53913689 0.10411496 0.17993127
0.53915757 0.10479663 0.17992713
0.53917831 0.10547828 0.17992297
0.53919899 0.10615993 0.17991881
0.53822798 0.10704159 0.17955311
0.53824872 0.10772484 0.17954893
0.53826952 0.10840809 0.17954478
0.53729868 0.10929612 0.17917903
0.53731948 0.10998096 0.17917486
0.53734028 0.11066581 0.17917068
0.53736109 0.11135065 0.17916651
0.53738195 0.11203548 0.17916234
0.53740275 0.11272033 0.17915817
0.53742355 0.11340517 0.17915399
0.53744435 0.11409001 0.17914982
0.53845644 0.11455733 0.1795073
0.53847718 0.11524058 0.17950314
0.53948909 0.11570311 0.17986065
0.53950983 0.11638477 0.17985651
0.53953052 0.11706644 0.17985235
0.54054224 0.1175226 0.18020992
0.54056293 0.11820266 0.18020578
0.51734573 0.061682563 0.17206921
0.51736742 0.06239767 0.17206484
0.51738918 0.063112773 0.17206049
0.51741093 0.063827872 0.17205614
0.51743263 0.064542972 0.17205177
0.51745439 0.065258078 0.17204742
0.51747614 0.065973178 0.17204306
0.51749784 0.066688277 0.1720387
0.51751959 0.067403384 0.17203434
0.51754135 0.068118483 0.17202999
0.51756305 0.068833582 0.17202564
0.5175848 0.069548689 0.17202127
0.51760656 0.070263788 0.17201692
0.51762825 0.070978887 0.17201255
0.51765001 0.071693994 0.1720082
0.51767176 0.072409093 0.17200384
0.51769346 0.0731242 0.17199948
0.51870853 0.073722146 0.17235741
0.51773697 0.074554399 0.17199077
0.53299272 0.084523849 0.17735361
0.5330137 0.085215062 0.17734939
0.53303474 0.085906275 0.17734519
0.53404802 0.086446889 0.17770346
0.53307676 0.0872887 0.17733675
0.53309774 0.087979905 0.17733255
0.53311878 0.088671118 0.17732833
0.53313977 0.089362331 0.17732412
0.53316081 0.090053543 0.17731991
0.53417379 0.090584606 0.17767824
0.53419471 0.091274224 0.17767404
0.53520757 0.091800503 0.17803241
0.53522849 0.092488527 0.17802821
0.53624117 0.093010038 0.17838661
0.53626204 0.093696468 0.17838243
0.5362829 0.094382904 0.17837824
0.53630382 0.095069341 0.17837405
0.53731626 0.09558288 0.17873251
0.53733706 0.096267715 0.17872834
0.53735787 0.096952558 0.17872417
0.53837013 0.097459726 0.17908263
0.53839093 0.098142974 0.17907847
0.53841168 0.09882623 0.1790743
0.53843248 0.099509478 0.17907014
0.53944445 0.10000869 0.17942867
0.53946519 0.10069034 0.17942452
0.53948587 0.101372 0.17942037
0.53950661 0.10205366 0.17941621
0.53952736 0.10273531 0.17941205
0.53954804 0.10341696 0.17940789
0.53857785 0.10429221 0.179041
0.5385986 0.10497547 0.17903684
0.53861934 0.10565872 0.17903267
0.53864014 0.10634197 0.17902851
0.53866088 0.10702521 0.17902434
0.53769094 0.10791002 0.1786574
0.53771174 0.10859486 0.17865323
0.5377326 0.1092797 0.17864905
0.53676283 0.11017089 0.17828204
0.5367837 0.11085732 0.17827785
0.53680456 0.11154376 0.17827366
0.53682542 0.11223019 0.17826949
0.53684628 0.11291662 0.1782653
0.53785747 0.11338875 0.178624
0.53787827 0.11407359 0.17861983
0.53789908 0.11475843 0.17861566
0.53791994 0.11544328 0.17861149
0.53893089 0.11590745 0.17897022
0.53895164 0.1165907 0.17896606
0.53996247 0.11705009 0.17932482
0.53998315 0.11773174 0.17932068
0.51779884 0.061665419 0.17151579
0.51782054 0.062380522 0.17151144
0.51784229 0.063095622 0.17150708
0.51786405 0.063810728 0.17150272
0.51788574 0.064525828 0.17149836
0.5179075 0.065240934 0.17149401
0.51792926 0.065956034 0.17148964
0.51795095 0.066671133 0.17148529
0.51797271 0.06738624 0.17148094
0.51799446 0.068101339 0.17147657
0.51801616 0.068816438 0.17147222
0.51803792 0.069531538 0.17146786
0.51805967 0.070246644 0.1714635
0.51808137 0.070961744 0.17145914
0.51810312 0.07167685 0.17145479
0.51812488 0.07239195 0.17145042
0.51814657 0.073107049 0.17144607
0.51816833 0.073822156 0.17144172
0.53243929 0.084653057 0.17645499
0.53246033 0.085345864 0.17645076
0.53347272 0.085889697 0.17681026
0.5334937 0.08658091 0.17680605
0.53351474 0.087272123 0.17680183
0.53353572 0.087963335 0.17679763
0.53355676 0.088654548 0.17679341
0.53456879 0.089188837 0.17715296
0.53458977 0.089878455 0.17714876
0.53461075 0.090568073 0.17714456
0.53463167 0.091257691 0.17714036
0.53564358 0.091784008 0.17749995
0.53566444 0.092472032 0.17749576
0.53667617 0.09299358 0.17785539
0.53669703 0.093680009 0.1778512
0.53671789 0.094366446 0.17784701
0.53673875 0.095052883 0.17784283
0.53775018 0.095566459 0.17820251
0.53777099 0.096251301 0.17819834
0.53779185 0.096936136 0.17819417
0.5388031 0.09744335 0.17855388
0.53882384 0.098126598 0.17854971
0.53884459 0.098809853 0.17854555
0.53886539 0.099493101 0.17854139
0.53888613 0.10017634 0.17853722
0.53890693 0.10085959 0.17853306
0.53892767 0.10154284 0.17852889
0.53894842 0.10222609 0.17852473
0.53896922 0.10290933 0.17852058
0.53898996 0.10359259 0.1785164
0.53901076 0.10427583 0.17851225
0.53903151 0.10495909 0.17850807
0.53806245 0.10583907 0.17813991
0.53808326 0.10652392 0.17813574
0.53810406 0.10720876 0.17813157
0.53812486 0.1078936 0.17812739
0.53715605 0.10878156 0.17775917
0.53717691 0.109468 0.177755
0.53719777 0.11015443 0.17775081
0.53622913 0.11104876 0.17738256
0.53625 0.11173678 0.17737836
0.53627092 0.11242481 0.17737417
0.53728122 0.11290016 0.17773408
0.53730208 0.1135866 0.17772989
0.53732294 0.11427303 0.17772572
0.5373438 0.11495946 0.17772153
0.53835386 0.11542686 0.17808148
0.53837466 0.1161117 0.17807731
0.53938454 0.11657432 0.17843729
0.53940535 0.11725756 0.17843314
0.5182302 0.060933176 0.17096674
0.5182519 0.061648276 0.17096238
0.51827365 0.062363379 0.17095803
0.51829541 0.063078478 0.17095366
0.51732522 0.063888356 0.17058469
0.51734698 0.06460505 0.17058033
0.51736879 0.065321751 0.17057596
0.51739055 0.066038445 0.1705716
0.51741236 0.066755138 0.17056723
0.51743412 0.067471832 0.17056286
0.51745588 0.068188526 0.1705585
0.51747769 0.068905219 0.17055412
0.51749945 0.069621913 0.17054975
0.51752126 0.070338607 0.17054538
0.51853448 0.0709446 0.17090572
0.51855624 0.071659699 0.17090137
0.51857793 0.072374806 0.17089702
0.51859969 0.073089905 0.17089266
0.52887416 0.083821066 0.17446765
0.53087634 0.084231935 0.17519324
0.53188789 0.084782191 0.1755539
0.53289932 0.08532925 0.1759146
0.53292036 0.086022057 0.17591038
0.53393167 0.08656434 0.17627113
0.53395271 0.087255552 0.17626691
0.53496385 0.08779306 0.17662767
0.53498483 0.088482678 0.17662346
0.53500575 0.089172304 0.17661926
0.53502673 0.089861922 0.17661506
0.53504771 0.09055154 0.17661086
0.5360586 0.091079488 0.17697169
0.53607953 0.091767512 0.17696749
0.53610039 0.092455536 0.1769633
0.5371111 0.092977121 0.17732416
0.53713197 0.093663551 0.17731997
0.53715283 0.094349988 0.17731579
0.5381633 0.094865203 0.17767669
0.53818411 0.095550038 0.17767252
0.53820497 0.09623488 0.17766835
0.53822577 0.096919723 0.17766418
0.53923601 0.097426966 0.17802513
0.53925675 0.098110214 0.17802095
0.53927755 0.098793469 0.1780168
0.5392983 0.099476717 0.17801262
0.53931904 0.10015997 0.17800847
0.53933984 0.10084321 0.17800429
0.53936058 0.10152646 0.17800014
0.53938138 0.10220971 0.17799598
0.53940213 0.10289296 0.17799181
0.53843391 0.10376813 0.17762244
0.53845477 0.10445298 0.17761827
0.53847557 0.10513782 0.17761409
0.53849638 0.10582266 0.17760992
0.53851718 0.1065075 0.17760575
0.53754926 0.10739224 0.17723632
0.53757012 0.10807867 0.17723213
0.53759098 0.1087651 0.17722794
0.53662324 0.1096562 0.17685848
0.53664416 0.11034423 0.1768543
0.53666508 0.11103226 0.1768501
0.536686 0.11172029 0.17684591
0.53670686 0.11240832 0.17684171
0.53672779 0.11309634 0.17683752
0.53674871 0.11378437 0.17683333
0.53775787 0.11425658 0.17719449
0.53777874 0.11494301 0.1771903
0.5377996 0.11562944 0.17718612
0.53880858 0.11609527 0.17754732
0.53882945 0.11678012 0.17754315
0.51769215 0.061004397 0.17004754
0.51771396 0.06172109 0.17004316
0.51773572 0.062437788 0.17003879
0.51775753 0.063154481 0.17003442
0.51777929 0.063871175 0.17003006
0.51780111 0.064587869 0.17002569
0.51782286 0.065304562 0.17002133
0.51784468 0.066021264 0.17001696
0.51786643 0.066737957 0.17001259
0.51788825 0.067454651 0.17000823
0.51791 0.068171345 0.17000386
0.51793182 0.068888038 0.1699995
0.51795357 0.069604732 0.16999511
0.51797539 0.070321426 0.16999075
0.51799715 0.071038119 0.16998638
0.51801896 0.071754813 0.16998202
0.51804072 0.072471514 0.16997765
0.5190528 0.073072761 0.17033926
0.51907456 0.073787868 0.17033491
0.52733821 0.084089339 0.17319429
0.52933842 0.084503479 0.17392232
0.53133845 0.084911242 0.17465037
0.53234893 0.08545994 0.17501229
0.53335935 0.086005449 0.17537424
0.53436965 0.08654777 0.1757362
0.53439069 0.087238982 0.175732
0.53540081 0.087776527 0.176094
0.53542179 0.088466145 0.17608979
0.53544271 0.089155771 0.17608559
0.53546369 0.089845389 0.17608139
0.53548467 0.090535007 0.17607719
0.53649455 0.091062993 0.17643924
0.53651547 0.091751017 0.17643505
0.53752518 0.092274226 0.17679712
0.53754604 0.092960663 0.17679293
0.5375669 0.093647093 0.17678875
0.53758776 0.094333537 0.17678456
0.53859723 0.094848782 0.1771467
0.53861809 0.095533617 0.17714253
0.53863889 0.096218459 0.17713836
0.53865969 0.096903302 0.17713419
0.53868049 0.097588144 0.17713001
0.53870136 0.098272987 0.17712584
0.53872216 0.098957822 0.17712167
0.5397312 0.099460334 0.17748387
0.53975201 0.10014358 0.17747971
0.53977275 0.10082683 0.17747554
0.53880543 0.10169719 0.17710496
0.53882623 0.10238203 0.17710079
0.53884703 0.10306688 0.17709662
0.53886783 0.10375171 0.17709245
0.53888869 0.10443655 0.17708828
0.53890949 0.1051214 0.1770841
0.53794247 0.10600291 0.17671345
0.53796333 0.10668934 0.17670928
0.53798419 0.10737579 0.17670509
0.53701735 0.10826366 0.17633443
0.53703827 0.10895169 0.17633022
0.53705919 0.1096397 0.17632604
0.53609252 0.11053397 0.17595531
0.5361135 0.11122359 0.17595111
0.53613442 0.1119132 0.17594691
0.5361554 0.11260282 0.1759427
0.53716373 0.11307985 0.17630507
0.5361973 0.11398206 0.1759343
0.53720558 0.11445589 0.1762967
0.53821367 0.11492655 0.17665908
0.53823453 0.11561298 0.17665489
0.53825539 0.11629942 0.17665072
0.51814628 0.060987215 0.16949289
0.51816809 0.061703909 0.16948852
0.51818985 0.062420603 0.16948415
0.51821166 0.0631373 0.16947979
0.51823342 0.063853994 0.16947541
0.51825523 0.064570688 0.16947104
0.51827699 0.065287381 0.16946667
0.51730901 0.066103555 0.16909519
0.51733083 0.066821843 0.16909082
0.51735264 0.067540132 0.16908644
0.51737446 0.06825842 0.16908206
0.51838595 0.06887085 0.16944484
0.5184077 0.069587551 0.16944048
0.51842946 0.070304245 0.16943611
0.51845127 0.071020938 0.16943175
0.51847303 0.071737632 0.16942738
0.51849484 0.072454326 0.169423
0.51950592 0.073055618 0.16978583
0.51952767 0.073770717 0.16978148
0.5198102 0.083067045 0.16972482
0.5218091 0.083503552 0.17045517
0.52380776 0.083933696 0.17118557
0.52679473 0.084214985 0.17228337
0.53278893 0.085443288 0.1744749
0.53478664 0.085839987 0.1752055
0.53480762 0.0865312 0.17520128
0.53482866 0.087222412 0.17519706
0.53583777 0.087759994 0.17556028
0.53585875 0.088449612 0.17555608
0.53587967 0.089139231 0.17555188
0.53590065 0.089828849 0.17554767
0.53690958 0.090358466 0.17591096
0.5369305 0.091046497 0.17590676
0.53695142 0.091734521 0.17590258
0.53796011 0.092257768 0.1762659
0.53798097 0.092944205 0.17626171
0.53800184 0.093630634 0.17625752
0.5380227 0.094317079 0.17625335
0.53903121 0.094832361 0.17661671
0.53905201 0.095517196 0.17661254
0.53907281 0.096202038 0.17660837
0.53909361 0.096886881 0.1766042
0.53911448 0.097571723 0.17660002
0.53913528 0.098256566 0.17659585
0.53915608 0.098941408 0.17659168
0.53917688 0.099626251 0.17658749
0.53919768 0.10031109 0.17658332
0.53921854 0.10099593 0.17657915
0.53923935 0.10168077 0.17657498
0.53926015 0.10236561 0.1765708
0.53928095 0.10305046 0.17656663
0.53831482 0.10392715 0.17619479
0.53833568 0.10461359 0.1761906
0.53835654 0.10530002 0.17618641
0.5383774 0.10598645 0.17618223
0.53741151 0.10687111 0.17581034
0.53743243 0.10755913 0.17580615
0.53745329 0.10824716 0.17580195
0.53648758 0.10913819 0.17543001
0.53650856 0.10982781 0.17542581
0.53652948 0.11051743 0.17542161
0.53655046 0.11120705 0.17541741
0.53657144 0.11189667 0.17541321
0.53659236 0.11258629 0.175409
0.53661335 0.11327591 0.1754048
0.53663433 0.11396553 0.1754006
0.53665525 0.11465514 0.1753964
0.53766245 0.11512742 0.17576003
0.5186004 0.060970031 0.16893823
0.51862222 0.061686724 0.16893387
0.51864398 0.062403422 0.1689295
0.51866579 0.063120112 0.16892514
0.51769859 0.063931473 0.16855244
0.51772046 0.064649761 0.16854808
0.51774228 0.065368049 0.1685437
0.51776409 0.066086337 0.16853932
0.51778597 0.066804625 0.16853493
0.51780778 0.067522913 0.16853057
0.5178296 0.068241194 0.16852619
0.51785141 0.068959482 0.16852181
0.51787329 0.06967777 0.16851743
0.5178951 0.070396058 0.16851306
0.5189054 0.071003757 0.16887709
0.51892716 0.071720451 0.16887273
0.51894897 0.072437145 0.16886836
0.51995903 0.073038474 0.16923243
0.51998073 0.073753573 0.16922808
0.51925391 0.082470864 0.16880722
0.51927572 0.083187565 0.16880284
0.52127266 0.083625741 0.16953565
0.52228183 0.0841984 0.1698999
0.52526587 0.08448299 0.17100137
0.53522462 0.085823417 0.17467058
0.5352456 0.086514622 0.17466636
0.53625375 0.087053843 0.17503081
0.53627473 0.087743461 0.17502661
0.53629571 0.088433079 0.17502241
0.53631663 0.089122698 0.17501821
0.53732461 0.089653946 0.1753827
0.53734553 0.090341978 0.17537852
0.53736645 0.091030002 0.17537433
0.53738737 0.091718026 0.17537013
0.53839505 0.092241317 0.17573467
0.53841591 0.092927746 0.17573048
0.53843677 0.093614183 0.17572629
0.53944433 0.094131097 0.1760909
0.53946513 0.09481594 0.17608672
0.53948593 0.095500782 0.17608255
0.53950673 0.096185625 0.17607838
0.53952754 0.09687046 0.17607421
0.5395484 0.097555302 0.17607003
0.5395692 0.098240145 0.17606585
0.53959 0.098924987 0.17606167
0.5396108 0.099609829 0.1760575
0.53963166 0.10029467 0.17605333
0.53965247 0.10097951 0.17604916
0.53868717 0.10185139 0.17567611
0.53870803 0.10253783 0.17567192
0.53872889 0.10322426 0.17566773
0.53874975 0.10391069 0.17566356
0.53877062 0.10459713 0.17565937
0.53780562 0.10547856 0.17528628
0.53782654 0.10616659 0.17528209
0.53784746 0.10685461 0.17527789
0.53688258 0.10774242 0.17490473
0.53690356 0.10843204 0.17490053
0.53692454 0.10912166 0.17489633
0.53694546 0.10981128 0.17489213
0.53696644 0.11050089 0.17488793
0.53698742 0.11119052 0.17488372
0.53700835 0.11188013 0.17487952
0.53702933 0.11256976 0.17487532
0.53705031 0.11325938 0.17487112
0.53707123 0.11394899 0.17486691
0.53709221 0.11463861 0.17486271
0.53711319 0.11532823 0.17485851
0.51804459 0.060322817 0.16801846
0.51806641 0.061041106 0.16801409
0.51808822 0.06175939 0.16800971
0.5181101 0.062477678 0.16800533
0.51813191 0.063195966 0.16800095
0.51815373 0.063914254 0.16799659
0.51817554 0.064632542 0.1679922
0.51819742 0.065350823 0.16798782
0.51821923 0.066069111 0.16798344
0.51725334 0.066888399 0.1676095
0.51826292 0.067505687 0.1679747
0.51828474 0.068223976 0.16797031
0.51830655 0.068942264 0.16796593
0.51832837 0.069660552 0.16796157
0.51835024 0.07037884 0.16795719
0.51935953 0.070986569 0.16832246
0.51938128 0.07170327 0.16831809
0.51940304 0.072419964 0.16831373
0.51942486 0.073136657 0.16830936
0.51970804 0.082453683 0.16825259
0.51972985 0.083170377 0.16824822
0.52073818 0.083747856 0.16861366
0.5217464 0.084322147 0.16897914
0.53566253 0.085806839 0.17413566
0.53666979 0.086347692 0.17450131
0.53669071 0.08703731 0.17449711
0.53671169 0.087726928 0.17449291
0.53673267 0.088416547 0.17448871
0.53773963 0.088949427 0.17485444
0.53776056 0.089637451 0.17485026
0.53778148 0.090325482 0.17484605
0.5378024 0.091013506 0.17484187
0.53880912 0.091538422 0.17520763
0.53882998 0.092224859 0.17520344
0.53885084 0.092911288 0.17519926
0.53887171 0.093597725 0.17519508
0.53987825 0.094114676 0.17556091
0.53989905 0.094799526 0.17555673
0.53991985 0.095484361 0.17555256
0.53994066 0.096169204 0.17554839
0.53996152 0.096854046 0.1755442
0.53998232 0.097538888 0.17554003
0.54000312 0.098223723 0.17553586
0.54002392 0.098908566 0.17553169
0.54004478 0.099593408 0.17552751
0.54006559 0.10027825 0.17552334
0.53910124 0.1011485 0.17514907
0.5391221 0.10183493 0.17514488
0.53914297 0.10252137 0.17514069
0.5381788 0.10339798 0.17476639
0.53819972 0.10408601 0.1747622
0.53822064 0.10477404 0.17475802
0.53824157 0.10546207 0.17475381
0.53727764 0.10634665 0.17437945
0.53729862 0.10703627 0.17437525
0.53731954 0.10772589 0.17437105
0.53734052 0.10841551 0.17436685
0.5373615 0.10910513 0.17436264
0.53738242 0.10979474 0.17435844
0.5374034 0.11048436 0.17435424
0.5364399 0.11138169 0.17397982
0.53646094 0.11207289 0.1739756
0.53648192 0.11276411 0.17397138
0.53650296 0.11345532 0.17396718
0.53750825 0.11393246 0.17433323
0.53752917 0.11462207 0.17432903
0.51847786 0.059587311 0.16746697
0.51849967 0.060305595 0.1674626
0.51852155 0.061023884 0.16745822
0.51854336 0.061742168 0.16745384
0.51856518 0.06246046 0.16744946
0.51858699 0.063178748 0.16744509
0.51860887 0.063897036 0.16744071
0.51764387 0.064711496 0.16706555
0.51766574 0.065431371 0.16706116
0.51768762 0.066151254 0.16705677
0.51770949 0.066871136 0.16705239
0.51773137 0.067591019 0.16704799
0.51775324 0.068310894 0.16704361
0.51777512 0.069030777 0.16703923
0.51878351 0.069643334 0.16740569
0.51880533 0.070361614 0.16740131
0.5188272 0.071079902 0.16739695
0.51983541 0.071686082 0.16776346
0.51985717 0.072402783 0.16775909
0.51987898 0.073119476 0.16775472
0.51917648 0.082572497 0.16732691
