# .PCD v0.7 - Point Cloud Data file format
VERSION 0.7
FIELDS x y z
SIZE 4 4 4
TYPE F F F
COUNT 1 1 1
WIDTH 1359
HEIGHT 1
VIEWPOINT 0 0 0 1 0 0 0
POINTS 1359
DATA ascii
0.32694057 0.020173691 -0.015035155
0.32786688 0.021310749 -0.014552307
0.32790139 0.02244631 -0.014559227
0.3279359 0.023581872 -0.014566147
0.32797045 0.024717433 -0.014573066
0.32800496 0.025852999 -0.014579986
0.32803947 0.02698856 -0.014586907
0.32807398 0.028124122 -0.014593827
0.32810849 0.029259684 -0.014600746
0.328143 0.030395247 -0.014607666
0.32817754 0.031530809 -0.014614586
0.32821205 0.032666374 -0.014621506
0.32824656 0.033801936 -0.014628425
0.32828107 0.034937497 -0.014635345
0.32831559 0.036073059 -0.014642265
0.3283501 0.037208624 -0.014649184
0.32749358 0.038368177 -0.015146027
0.32752815 0.039505333 -0.015152957
0.32756272 0.040642485 -0.015159886
0.32670638 0.041808411 -0.015656767
0.32674101 0.042947158 -0.015663708
0.32677561 0.044085905 -0.015670646
0.32591948 0.045258202 -0.016167555
0.32595414 0.046398543 -0.016174505
0.3259888 0.047538884 -0.016181452
0.32602346 0.048679221 -0.016188402
0.32605812 0.049819563 -0.016195351
0.32609278 0.050959904 -0.016202299
0.32612744 0.052100245 -0.016209248
0.3261621 0.053240586 -0.016216198
0.32619676 0.054380924 -0.016223146
0.32623142 0.055521265 -0.016230095
0.32626608 0.056661606 -0.016237045
0.32630074 0.057801947 -0.016243994
0.3263354 0.058942288 -0.016250942
0.3272602 0.060028378 -0.015767796
0.3272948 0.061167125 -0.015774734
0.32732943 0.062305871 -0.015781675
0.32736403 0.063444622 -0.015788613
0.32739866 0.064583369 -0.015795553
0.32743326 0.065722115 -0.015802491
0.32746786 0.066860862 -0.01580943
0.32750249 0.067999609 -0.01581637
0.32753709 0.069138356 -0.015823308
0.32757172 0.070277102 -0.015830249
0.32849595 0.071345679 -0.015346983
0.32853052 0.072482832 -0.015353912
0.32856509 0.073619992 -0.015360842
0.32859963 0.074757144 -0.015367771
0.3286342 0.075894296 -0.015374701
0.32866877 0.077031456 -0.015381631
0.32870334 0.078168608 -0.01538856
0.32873791 0.079305761 -0.01539549
0.3296617 0.080360003 -0.014912138
0.32969624 0.081495561 -0.014919057
0.32973075 0.082631126 -0.014925977
0.32976526 0.083766691 -0.014932897
0.32979977 0.084902249 -0.014939817
0.33072335 0.085946925 -0.014456379
0.3307578 0.087080896 -0.01446329
0.33079228 0.088214867 -0.0144702
0.33082676 0.089348838 -0.01447711
0.33175004 0.090385556 -0.013993651
0.33178443 0.091517933 -0.014000551
0.33181885 0.092650309 -0.014007452
0.33185327 0.093782686 -0.014014352
0.33188769 0.094915062 -0.014021252
0.40411043 0.094548523 0.025653185
0.40414092 0.095551893 0.02564707
0.40505961 0.096435711 0.026131488
0.40509006 0.097437494 0.026125383
0.40512052 0.098439269 0.026119279
0.40603894 0.099316724 0.026603708
0.40606934 0.10031691 0.026597613
0.40698764 0.10118958 0.027082067
0.40790582 0.10205907 0.027566545
0.40793613 0.10305607 0.027560469
0.40796643 0.10405307 0.027554393
0.40799674 0.10505009 0.027548319
0.40802705 0.10604708 0.027542243
0.40894499 0.10690701 0.028026806
0.40897524 0.10790242 0.02802074
0.40900552 0.10889782 0.028014675
0.40903577 0.10989323 0.028008608
0.40906602 0.11088864 0.028002543
0.40909627 0.11188405 0.027996477
0.40912652 0.11287946 0.02799041
0.4091568 0.11387487 0.027984345
0.40918705 0.11487027 0.027978279
0.41010445 0.11571428 0.028462907
0.41013467 0.11670811 0.028456852
0.41016489 0.11770192 0.028450795
0.41019508 0.11869574 0.028444739
0.4102253 0.11968955 0.028438684
0.41025549 0.12068337 0.028432626
0.41028571 0.12167718 0.028426571
0.41031593 0.12267099 0.028420515
0.41034612 0.1236648 0.02841446
0.41037634 0.12465863 0.028408403
0.41040653 0.12565245 0.028402347
0.41043675 0.12664627 0.028396292
0.41046697 0.12764008 0.028390234
0.40961063 0.12880599 0.027893359
0.40964088 0.12980141 0.027887294
0.41055757 0.13062152 0.028372066
0.40970141 0.13179223 0.027875163
0.40973166 0.13278764 0.027869096
0.40976191 0.13378304 0.027863031
0.40979216 0.13477845 0.027856965
0.4098224 0.13577387 0.027850898
0.40985268 0.13676928 0.027844833
0.40988293 0.13776468 0.027838767
0.40991318 0.13876009 0.027832702
0.40994343 0.13975549 0.027826635
0.40997371 0.1407509 0.02782057
0.41000396 0.14174633 0.027814504
0.41003421 0.14274172 0.027808439
0.41006446 0.14373714 0.027802372
0.41009471 0.14473253 0.027796308
0.41012499 0.14572795 0.027790241
0.41015524 0.14672336 0.027784176
0.41018549 0.14771877 0.02777811
0.41021574 0.14871418 0.027772045
0.41024598 0.14970958 0.027765978
0.41027626 0.15070499 0.027759913
0.40942103 0.15190916 0.027262772
0.40945134 0.15290615 0.027256696
0.40948164 0.15390316 0.027250621
0.40951195 0.15490016 0.027244546
0.40954226 0.15589717 0.02723847
0.40868738 0.15711085 0.026741298
0.40871772 0.15810946 0.026735213
0.40874809 0.15910804 0.026729127
0.40877843 0.16010664 0.026723042
0.40792382 0.16132832 0.026225826
0.33365306 0.18233435 -0.015043738
0.33368754 0.18346834 -0.015050649
0.333722 0.18460231 -0.015057558
0.33375648 0.18573628 -0.015064469
0.33467564 0.18663763 -0.014580185
0.33382541 0.18800421 -0.015078289
0.33474448 0.18890238 -0.014593985
0.3347789 0.19003475 -0.014600886
0.33481333 0.19116713 -0.014607786
0.33396327 0.19254009 -0.015105929
0.33399776 0.19367406 -0.01511284
0.33403221 0.19480804 -0.015119749
0.33406669 0.195942 -0.01512666
0.33410114 0.19707598 -0.01513357
0.33413562 0.19820994 -0.015140479
0.33417007 0.19934392 -0.01514739
0.33420455 0.20047788 -0.0151543
0.33423901 0.20161185 -0.01516121
0.33427349 0.20274583 -0.01516812
0.33430797 0.20387979 -0.015175031
0.33434242 0.20501377 -0.01518194
0.3343769 0.20614773 -0.01518885
0.33441135 0.20728169 -0.015195761
0.33444583 0.20841567 -0.01520267
0.33448029 0.20954964 -0.015209581
0.33451477 0.21068363 -0.015216491
0.33543286 0.21154992 -0.014731993
0.33546728 0.21268229 -0.014738893
0.3355017 0.21381468 -0.014745794
0.33553612 0.21494704 -0.014752694
0.33557054 0.21607944 -0.014759595
0.33560494 0.2172118 -0.014766495
0.33563936 0.21834418 -0.014773396
0.33567378 0.21947657 -0.014780296
0.3357082 0.22060895 -0.014787196
0.33574262 0.2217413 -0.014794096
0.33577704 0.22287369 -0.014800997
0.33581147 0.22400607 -0.014807898
0.33584589 0.22513846 -0.014814798
0.33588031 0.22627081 -0.014821698
0.33591473 0.22740319 -0.014828599
0.33594915 0.22853558 -0.014835499
0.33686641 0.22937481 -0.014350836
0.33690077 0.23050559 -0.014357727
0.33693516 0.23163638 -0.014364618
0.33696952 0.23276716 -0.014371509
0.33700389 0.23389794 -0.0143784
0.33703828 0.23502873 -0.01438529
0.33795521 0.23585682 -0.013900571
0.33798954 0.23698601 -0.013907452
0.33802384 0.23811519 -0.013914333
0.33805817 0.2392444 -0.013921214
0.33721012 0.24068266 -0.014419744
0.33724448 0.24181344 -0.014426634
0.33727887 0.24294423 -0.014433525
0.33731323 0.24407502 -0.014440415
0.3373476 0.24520579 -0.014447306
0.33738196 0.24633656 -0.014454197
0.33741635 0.24746737 -0.014461087
0.33745071 0.24859814 -0.014467978
0.33748507 0.24972893 -0.014474869
0.33663753 0.25118309 -0.014973507
0.33667195 0.25231549 -0.014980407
0.33670637 0.25344786 -0.014987308
0.33674076 0.25458026 -0.014994208
0.33677518 0.25571263 -0.015001109
0.33680961 0.256845 -0.015008009
0.33684403 0.25797737 -0.015014909
0.33776006 0.2587752 -0.014529995
0.33779442 0.25990599 -0.014536886
0.33782879 0.26103678 -0.014543775
0.33786315 0.26216754 -0.014550666
0.33789754 0.26329836 -0.014557557
0.3379319 0.26442912 -0.014564448
0.33796626 0.26555991 -0.014571339
0.33800066 0.2666907 -0.014578229
0.33803502 0.26782149 -0.01458512
0.33806938 0.26895228 -0.014592011
0.33810374 0.27008304 -0.014598901
0.33901918 0.27086174 -0.014113882
0.33905351 0.27199095 -0.014120762
0.33908784 0.27312014 -0.014127644
0.34000313 0.27389246 -0.013642547
0.34003741 0.27502006 -0.013649418
0.34007168 0.27614766 -0.013656289
0.34010595 0.27727526 -0.013663161
0.34014022 0.27840286 -0.013670032
0.3401745 0.27953047 -0.013676903
0.34020877 0.28065807 -0.013683775
0.34024304 0.28178567 -0.013690646
0.34027731 0.28291327 -0.013697517
0.34031159 0.28404087 -0.013704388
0.34034586 0.28516847 -0.01371126
0.34038013 0.28629607 -0.013718131
0.3404144 0.28742367 -0.013725002
0.34044868 0.28855124 -0.013731874
0.33960268 0.29005802 -0.014230859
0.33963698 0.29118723 -0.014237739
0.33967131 0.29231641 -0.01424462
0.33970565 0.29344559 -0.014251501
0.33973995 0.2945748 -0.014258382
0.33977428 0.29570401 -0.014265263
0.33980861 0.29683319 -0.014272144
0.33984292 0.29796234 -0.014279025
0.33987725 0.29909158 -0.014285906
0.33991158 0.30022076 -0.014292787
0.33994588 0.30134994 -0.014299668
0.33998021 0.30247915 -0.014306549
0.34001455 0.30360833 -0.014313431
0.34004885 0.30473751 -0.014320311
0.34008318 0.30586672 -0.014327192
0.33923799 0.30739892 -0.014826294
0.33927235 0.30852973 -0.014833185
0.33930671 0.30966052 -0.014840076
0.3393411 0.31079131 -0.014846967
0.33937547 0.31192207 -0.014853857
0.33940983 0.31305286 -0.014860747
0.33944422 0.31418365 -0.014867638
0.33947858 0.31531444 -0.014874529
0.34039208 0.31602943 -0.014389121
0.34042642 0.31715864 -0.014396002
0.34046072 0.31828782 -0.014402883
0.34049505 0.31941703 -0.014409764
0.34140837 0.32012403 -0.013924269
0.34232152 0.3208279 -0.013438782
0.34235573 0.32195389 -0.013445643
0.34238997 0.32307991 -0.013452505
0.34330294 0.32377738 -0.012966978
0.34333712 0.32490179 -0.01297383
0.34337127 0.32602623 -0.012980682
0.25205478 0.40235525 -0.064872772
0.25472638 0.40223232 -0.063402668
0.25739765 0.40209985 -0.061932541
0.25919136 0.40243247 -0.060954988
0.26098481 0.40275878 -0.059977435
0.2627781 0.40307871 -0.058999803
0.26457116 0.40339226 -0.05802216
0.26724124 0.40321833 -0.056551758
0.26903385 0.40351757 -0.055574026
0.27082634 0.40381041 -0.05459623
0.27349558 0.40361103 -0.053125698
0.27528763 0.40388951 -0.052147817
0.27707943 0.40416169 -0.051169932
0.27974793 0.4039368 -0.049699206
0.28241616 0.40370235 -0.04822842
0.28508404 0.40345842 -0.046757616
0.28775167 0.40320486 -0.045286715
0.29041904 0.40294173 -0.043815766
0.29220942 0.40316772 -0.04283759
0.29487625 0.40288711 -0.041366536
0.29754272 0.40259695 -0.039895438
0.30020896 0.40229723 -0.038424265
0.30199844 0.40249294 -0.037445903
0.30466416 0.40217569 -0.035974625
0.3064532 0.40235704 -0.034996178
0.30824208 0.40253201 -0.034017663
0.31003076 0.40270066 -0.033039149
0.31269544 0.40234995 -0.031567656
0.31360754 0.4030188 -0.031081956
0.31539565 0.40316829 -0.030103287
0.31718355 0.40331143 -0.029124618
0.31897122 0.40344819 -0.028145898
0.32075876 0.40357858 -0.027167112
0.32254606 0.40370265 -0.026188327
0.32433322 0.40382025 -0.025209464
0.32524437 0.40445724 -0.024723569
0.32703114 0.40456372 -0.023744676
0.32794207 0.4051927 -0.023258705
0.32885286 0.40581855 -0.022772742
0.32976353 0.40644118 -0.02228676
0.33067414 0.40706062 -0.021800758
0.33158463 0.40767688 -0.021314748
0.33337054 0.40775311 -0.020335633
0.33428079 0.40836141 -0.019849563
0.33519095 0.40896651 -0.019363474
0.328477 -0.099540278 -0.012730785
0.32851133 -0.098411076 -0.012737666
0.32854563 -0.097281881 -0.012744547
0.32857996 -0.096152693 -0.012751428
0.32861429 -0.095023505 -0.012758309
0.32954437 -0.093731917 -0.012275144
0.32868293 -0.092765115 -0.012772071
0.32871726 -0.09163592 -0.012778952
0.32875156 -0.090506732 -0.012785833
0.3287859 -0.089377545 -0.012792714
0.32882023 -0.088248357 -0.012799595
0.32795915 -0.087271988 -0.013296555
0.32799351 -0.086141206 -0.013303446
0.32713258 -0.085160069 -0.013800435
0.327167 -0.084027685 -0.013807335
0.32720143 -0.082895301 -0.013814235
0.32723585 -0.081762932 -0.013821136
0.32727027 -0.080630548 -0.013828036
0.32640961 -0.079639859 -0.014325072
0.32644409 -0.078505889 -0.014331982
0.32647854 -0.077371925 -0.014338892
0.32651302 -0.076237954 -0.014345802
0.32654747 -0.075103976 -0.014352713
0.32658195 -0.073970012 -0.014359622
0.32661641 -0.072836034 -0.014366533
0.32665089 -0.071702071 -0.014373443
0.32668534 -0.070568092 -0.014380353
0.32671982 -0.069434136 -0.014387263
0.3267543 -0.068300165 -0.014394173
0.3276833 -0.067042038 -0.013910841
0.32771772 -0.065909654 -0.013917741
0.32775214 -0.06477727 -0.013924642
0.32778654 -0.063644901 -0.013931543
0.32782096 -0.062512517 -0.013938443
0.32785538 -0.061380144 -0.013945343
0.3278898 -0.06024776 -0.013952243
0.32792422 -0.059115391 -0.013959144
0.32795864 -0.057983007 -0.013966044
0.32799307 -0.056850631 -0.013972945
0.32802749 -0.055718254 -0.013979845
0.32806191 -0.054585878 -0.013986746
0.32809633 -0.053453501 -0.013993646
0.32813075 -0.052321125 -0.014000546
0.32816514 -0.051188748 -0.014007446
0.32819957 -0.050056364 -0.014014347
0.32823399 -0.048923992 -0.014021248
0.32826841 -0.047791615 -0.014028148
0.32830283 -0.046659239 -0.014035048
0.32833725 -0.045526862 -0.014041948
0.32837167 -0.044394486 -0.014048849
0.32751256 -0.04335282 -0.014546195
0.32754704 -0.042218853 -0.014553105
0.3275815 -0.041084882 -0.014560016
0.32761598 -0.039950911 -0.014566925
0.32765043 -0.038816947 -0.014573836
0.32768491 -0.037682977 -0.014580746
0.3268261 -0.036630172 -0.015078198
0.32686061 -0.035494603 -0.015085118
0.32689515 -0.034359045 -0.015092038
0.32692966 -0.033223484 -0.015098957
0.32696417 -0.032087918 -0.015105877
0.32699868 -0.030952355 -0.015112797
0.32703319 -0.029816799 -0.015119717
0.3270677 -0.028681235 -0.015126636
0.32710221 -0.027545672 -0.015133556
0.32713675 -0.026410107 -0.015140476
0.32717127 -0.025274543 -0.015147395
0.32720578 -0.02413898 -0.015154316
0.32724029 -0.02300342 -0.015161236
0.3272748 -0.021867856 -0.015168156
0.32730931 -0.020732297 -0.015175075
0.32734385 -0.019596733 -0.015181995
0.32827085 -0.018405491 -0.014698218
0.32830533 -0.017271513 -0.014705128
0.32833979 -0.016137548 -0.014712038
0.32837427 -0.015003577 -0.014718948
0.32840872 -0.013869607 -0.014725858
0.3284432 -0.012735637 -0.014732768
0.32847765 -0.011601667 -0.014739678
0.32851213 -0.010467701 -0.014746589
0.32854658 -0.0093337307 -0.014753498
0.32768899 -0.008241103 -0.015251193
0.3277235 -0.0071055428 -0.015258113
0.32775801 -0.0059699789 -0.015265033
0.32779256 -0.0048344191 -0.015271952
0.32693523 -0.0037338319 -0.01576967
0.3269698 -0.0025966782 -0.015776599
0.32700437 -0.0014595208 -0.015783528
0.32703894 -0.00032236343 -0.015790459
0.32707351 0.00081479026 -0.015797388
0.32710806 0.0019519439 -0.015804317
0.32625112 0.0030636829 -0.016302101
0.32628572 0.0042024301 -0.016309042
0.32632032 0.0053411773 -0.01631598
0.32635495 0.006479925 -0.01632292
0.32728088 0.0076377215 -0.015838964
0.32731545 0.0087748766 -0.015845895
0.32735002 0.0099120308 -0.015852824
0.32827577 0.01106346 -0.015368829
0.32831028 0.012199022 -0.015375749
0.32834479 0.013334583 -0.015382669
0.32927042 0.014479639 -0.01489861
0.32930487 0.015613611 -0.014905521
0.32933936 0.016747579 -0.01491243
0.33026472 0.017886262 -0.014428371
0.33029914 0.019018641 -0.014435271
0.33033356 0.020151017 -0.014442172
0.33036798 0.021283396 -0.014449072
0.3304024 0.022415772 -0.014455972
0.33043683 0.02354815 -0.014462872
0.33047122 0.024680527 -0.014469774
0.33050564 0.025812905 -0.014476674
0.33054006 0.026945282 -0.014483574
0.33057448 0.028077658 -0.014490474
0.3306089 0.029210037 -0.014497375
0.33064333 0.030342413 -0.014504275
0.33067775 0.031474791 -0.014511175
0.33071217 0.032607168 -0.014518076
0.33074659 0.033739544 -0.014524977
0.33078101 0.034871921 -0.014531877
0.33081543 0.036004297 -0.014538777
0.32995975 0.037159037 -0.015036812
0.32999423 0.038293008 -0.015043722
0.33002868 0.039426975 -0.015050633
0.33006316 0.040560946 -0.015057542
0.32920769 0.04172365 -0.015555665
0.3292422 0.042859212 -0.015562585
0.32838693 0.044026688 -0.016060708
0.3284215 0.045163844 -0.016067639
0.32845607 0.046301 -0.016074568
0.32849064 0.047438156 -0.016081497
0.32852519 0.048575308 -0.016088426
0.32767022 0.049752343 -0.016586609
0.32770485 0.05089109 -0.016593549
0.32773945 0.052029837 -0.016600488
0.32777405 0.053168587 -0.016607428
0.32780868 0.054307334 -0.016614366
0.32784328 0.055446085 -0.016621307
0.32787791 0.056584831 -0.016628245
0.32880172 0.057672553 -0.016143862
0.32883629 0.058809705 -0.016150793
0.32887083 0.059946861 -0.016157722
0.3289054 0.061084017 -0.016164651
0.32893997 0.062221173 -0.01617158
0.32897455 0.063358329 -0.016178511
0.329898 0.064434901 -0.015694061
0.32993251 0.065570466 -0.015700981
0.32996705 0.066706024 -0.015707901
0.33000156 0.067841589 -0.01571482
0.33003607 0.068977147 -0.01572174
0.33007059 0.070112713 -0.01572866
0.3301051 0.071248278 -0.01573558
0.33013961 0.072383836 -0.015742499
0.3310627 0.073446073 -0.015257936
0.33109719 0.074580044 -0.015264845
0.33113164 0.075714014 -0.015271756
0.33116612 0.076847978 -0.015278666
0.3312006 0.077981949 -0.015285576
0.33123505 0.07911592 -0.015292486
0.33126953 0.080249891 -0.015299397
0.33130398 0.081383862 -0.015306306
0.33133847 0.082517833 -0.015313216
0.33137292 0.083651796 -0.015320127
0.33229545 0.084696516 -0.014835495
0.33232987 0.085828893 -0.014842395
0.33236426 0.086961269 -0.014849295
0.33239868 0.088093646 -0.014856195
0.3324331 0.08922603 -0.014863096
0.33246753 0.090358406 -0.014869996
0.3333897 0.091391981 -0.014385284
0.33342406 0.092522763 -0.014392175
0.33345845 0.093653545 -0.014399066
0.40385896 0.094640791 0.024384966
0.40388951 0.095645756 0.024378844
0.40480718 0.096531205 0.024864452
0.4048377 0.097534582 0.024858337
0.40575525 0.098415248 0.025344007
0.40667269 0.099292748 0.025829671
0.40670308 0.10029293 0.025823575
0.40762037 0.10116564 0.026309261
0.40765074 0.10216424 0.026303176
0.40768108 0.10316283 0.026297091
0.40859815 0.10402917 0.026782822
0.40862846 0.10502618 0.026776748
0.40865877 0.10602318 0.026770672
0.40868908 0.10702018 0.026764596
0.40871939 0.10801718 0.02675852
0.40874967 0.10901418 0.026752446
0.40877998 0.11001118 0.02674637
0.40881029 0.11100819 0.026740294
0.4088406 0.11200518 0.026734218
0.40975726 0.1128556 0.027220072
0.40978751 0.113851 0.027214007
0.40981776 0.11484641 0.027207941
0.40984803 0.11584182 0.027201876
0.40987828 0.11683723 0.027195809
0.40990853 0.11783264 0.027189745
0.40993878 0.11882805 0.027183678
0.40996903 0.11982345 0.027177613
0.40999931 0.12081887 0.027171547
0.41002956 0.12181427 0.027165482
0.41005981 0.12280969 0.027159415
0.41009006 0.12380509 0.02715335
0.41012031 0.1248005 0.027147284
0.41015059 0.12579592 0.027141219
0.41018084 0.12679131 0.027135152
0.41021109 0.12778673 0.027129088
0.41024134 0.12878214 0.027123021
0.41027161 0.12977755 0.027116956
0.41030186 0.13077295 0.02711089
0.41033211 0.13176836 0.027104825
0.41036236 0.13276377 0.027098758
0.41039261 0.13375917 0.027092692
0.41042289 0.1347546 0.027086627
0.41045314 0.13575 0.02708056
0.41048339 0.13674541 0.027074495
0.41051364 0.13774082 0.027068429
0.41054389 0.13873622 0.027062364
0.41057417 0.13973163 0.027056297
0.41060442 0.14072704 0.027050233
0.41063467 0.14172246 0.027044166
0.41066492 0.14271787 0.027038101
0.4106952 0.14371327 0.027032034
0.41072544 0.14470868 0.02702597
0.40987095 0.14590324 0.026527653
0.40990123 0.14690024 0.026521578
0.40993154 0.14789724 0.026515502
0.40996185 0.14889425 0.026509427
0.40999216 0.14989124 0.026503351
0.41002247 0.15088825 0.026497276
0.41005278 0.15188526 0.026491201
0.41008306 0.15288225 0.026485125
0.41011336 0.15387926 0.026479051
0.40925941 0.15508974 0.025980663
0.40928978 0.15608832 0.025974577
0.40932012 0.15708692 0.025968492
0.40846634 0.15830377 0.025470072
0.40849674 0.15930396 0.025463978
0.40852717 0.16030414 0.025457883
0.40855756 0.16130434 0.025451789
0.33525547 0.18208095 -0.015428929
0.3352899 0.18321334 -0.015435829
0.33620808 0.18411632 -0.014950321
0.33535874 0.18547809 -0.015449629
0.33627683 0.18637788 -0.014964102
0.33631119 0.18750867 -0.014970993
0.33634558 0.18863945 -0.014977884
0.33637995 0.18977024 -0.014984774
0.3372978 0.19066206 -0.014499199
0.33644867 0.19203182 -0.014998556
0.33648306 0.19316259 -0.015005446
0.33651742 0.19429338 -0.015012337
0.33655179 0.19542415 -0.015019228
0.33658618 0.19655494 -0.015026119
0.33662054 0.19768572 -0.015033009
0.3366549 0.19881651 -0.015039899
0.33668926 0.1999473 -0.01504679
0.33672366 0.20107809 -0.015053681
0.33675802 0.20220888 -0.015060572
0.33679238 0.20333965 -0.015067463
0.33682677 0.20447044 -0.015074354
0.33686113 0.20560122 -0.015081244
0.3368955 0.206732 -0.015088134
0.33692986 0.20786278 -0.015095025
0.33696425 0.20899357 -0.015101916
0.33699861 0.21012436 -0.015108807
0.33703297 0.21125515 -0.015115698
0.33706737 0.21238594 -0.015122588
0.33710173 0.21351671 -0.015129479
0.33713609 0.2146475 -0.01513637
0.33717048 0.21577829 -0.01514326
0.33720484 0.21690907 -0.015150151
0.33812153 0.21776266 -0.014664343
0.33815587 0.21889186 -0.014671223
0.33819017 0.22002105 -0.014678104
0.3382245 0.22115025 -0.014684985
0.33825883 0.22227943 -0.014691866
0.33829314 0.22340864 -0.014698748
0.33832747 0.22453782 -0.014705628
0.3383618 0.22566701 -0.014712509
0.3383961 0.22679619 -0.01471939
0.33931237 0.22763386 -0.014233458
0.33934665 0.22876146 -0.014240329
0.33938092 0.22988905 -0.0142472
0.33941519 0.23101667 -0.014254072
0.33944947 0.23214427 -0.014260943
0.34036541 0.23297238 -0.013774979
0.34039962 0.23409837 -0.013781841
0.34043384 0.2352244 -0.013788703
0.34046808 0.2363504 -0.013795564
0.34050229 0.23747639 -0.013802426
0.34053653 0.23860243 -0.013809287
0.34057075 0.23972844 -0.013816149
0.34060499 0.24085441 -0.01382301
0.33975795 0.24229264 -0.014322785
0.33979222 0.24342026 -0.014329656
0.33982649 0.24454786 -0.014336527
0.33986077 0.24567544 -0.014343399
0.33989504 0.24680306 -0.01435027
0.33992931 0.24793066 -0.014357141
0.33996359 0.24905825 -0.014364013
0.33999786 0.25018585 -0.014370884
0.3391512 0.25163844 -0.014870772
0.33918554 0.25276762 -0.014877653
0.33921984 0.2538968 -0.014884533
0.33925417 0.25502601 -0.014891415
0.3392885 0.25615519 -0.014898296
0.33932281 0.25728437 -0.014905177
0.34023777 0.25807902 -0.014418983
0.34027204 0.25920665 -0.014425854
0.34030631 0.26033422 -0.014432725
0.34034058 0.26146182 -0.014439597
0.34037486 0.26258945 -0.014446468
0.34040913 0.26371703 -0.014453339
0.3404434 0.26484463 -0.014460211
0.34047768 0.26597223 -0.014467082
0.34051198 0.26709983 -0.014473953
0.34054625 0.26822743 -0.014480825
0.34058052 0.26935503 -0.014487696
0.3406148 0.27048263 -0.014494567
0.34152907 0.27125663 -0.014008273
0.34156328 0.27238262 -0.014015134
0.34159753 0.27350861 -0.014021996
0.34251159 0.27427623 -0.013535675
0.34254578 0.27540064 -0.013542527
0.34257996 0.27652505 -0.013549379
0.34261414 0.27764946 -0.013556231
0.34264833 0.27877387 -0.013563083
0.34268248 0.27989829 -0.013569934
0.34271666 0.2810227 -0.013576786
0.34275085 0.28214711 -0.013583638
0.34278503 0.28327152 -0.01359049
0.34281918 0.28439593 -0.013597342
0.34285337 0.28552034 -0.013604194
0.34288755 0.28664479 -0.013611046
0.34292173 0.2877692 -0.013617897
0.34295592 0.28889361 -0.013624749
0.34299007 0.29001805 -0.013631601
0.34302425 0.29114243 -0.013638454
0.34305844 0.29226685 -0.013645305
0.34309262 0.29339126 -0.013652157
0.3431268 0.29451567 -0.013659009
0.34316096 0.29564008 -0.013665861
0.34319514 0.29676449 -0.013672712
0.34322932 0.29788893 -0.013679564
0.34326351 0.29901335 -0.013686416
0.34241891 0.30053279 -0.014186674
0.34245315 0.30165878 -0.014193536
0.34248737 0.30278477 -0.014200397
0.34252161 0.30391079 -0.014207259
0.34255582 0.30503678 -0.01421412
0.34259003 0.3061628 -0.014220982
0.34262428 0.30728883 -0.014227844
0.34265849 0.30841485 -0.014234705
0.34269273 0.30954084 -0.014241567
0.34272695 0.31066683 -0.014248428
0.34276119 0.31179285 -0.01425529
0.3427954 0.31291884 -0.014262151
0.34282961 0.31404486 -0.014269013
0.34286386 0.31517088 -0.014275875
0.34289807 0.31629688 -0.014282736
0.34381032 0.31700397 -0.013796046
0.3438445 0.31812835 -0.013802898
0.34387869 0.31925276 -0.01380975
0.34391287 0.32037717 -0.013816602
0.34482485 0.3210763 -0.013329851
0.344859 0.32219914 -0.013336694
0.34577084 0.32289347 -0.012849915
0.34580493 0.32401469 -0.012856747
0.34583902 0.32513595 -0.01286358
0.25199673 0.40279415 -0.066366233
0.25466537 0.40267295 -0.064892448
0.25645727 0.40301523 -0.063912526
0.25912538 0.40287647 -0.062438618
0.26091686 0.40320447 -0.06145861
0.26270819 0.40352604 -0.060478523
0.26537547 0.40336183 -0.059004504
0.26716638 0.40366906 -0.058024328
0.26983312 0.40348732 -0.056550201
0.27162358 0.40378025 -0.055569939
0.27341378 0.4040668 -0.054589678
0.2760798 0.40385953 -0.053115368
0.27786958 0.40413177 -0.052135006
0.28053507 0.40390703 -0.050660592
0.28232443 0.40416491 -0.049680144
0.28498939 0.40392265 -0.048205622
0.28765404 0.40367079 -0.04673104
0.29031837 0.40340942 -0.045256417
0.29298243 0.40313846 -0.04378172
0.29477063 0.40335816 -0.042801052
0.29830968 0.40256792 -0.040832169
0.30009744 0.40277165 -0.039851375
0.30276036 0.40246412 -0.03837648
0.30454767 0.40265349 -0.037395589
0.30721006 0.4023284 -0.035920586
0.30899695 0.40250346 -0.034939609
0.31078357 0.40267217 -0.033958629
0.31257007 0.40283448 -0.03297757
0.31435633 0.40299046 -0.031996511
0.31614244 0.40314004 -0.031015376
0.31792828 0.40328324 -0.030034227
0.31971395 0.40342009 -0.029053053
0.3214995 0.40355054 -0.0280718
0.32328478 0.40367469 -0.027090548
0.32419509 0.40431643 -0.026603423
0.32598004 0.40442941 -0.02562209
0.32689005 0.40506321 -0.025134955
0.3286747 0.40516499 -0.024153527
0.32958448 0.40579087 -0.023666332
0.33049417 0.40641353 -0.023179127
0.33140376 0.407033 -0.022691891
0.33231324 0.40764931 -0.022204638
0.33409712 0.4077256 -0.021223066
0.33500636 0.40833396 -0.020735763
0.33591551 0.40893909 -0.020248441
0.33098239 -0.099226557 -0.012622227
0.3310166 -0.09810055 -0.012629088
0.33194566 -0.096807346 -0.012144725
0.33197984 -0.095682926 -0.012151577
0.33201402 -0.094558515 -0.012158428
0.33204821 -0.093434095 -0.012165281
0.33118775 -0.092470512 -0.012663396
0.33122197 -0.091344513 -0.012670258
0.33125618 -0.090218499 -0.012677119
0.33129042 -0.089092493 -0.012683981
0.33132464 -0.087966494 -0.012690842
0.33046448 -0.086993352 -0.013189017
0.33049875 -0.085865758 -0.013195887
0.33053303 -0.084738158 -0.013202759
0.32967299 -0.08375866 -0.013700997
0.32970732 -0.082629457 -0.013707879
0.3288475 -0.081645176 -0.014206109
0.32888186 -0.080514386 -0.014212999
0.32891622 -0.079383612 -0.01421989
0.32895061 -0.078252822 -0.014226781
0.32809103 -0.077260576 -0.014725071
0.32812545 -0.076128192 -0.014731972
0.32815987 -0.074995808 -0.014738873
0.32819429 -0.073863439 -0.014745773
0.32822871 -0.072731055 -0.014752673
0.3282631 -0.071598686 -0.014759573
0.32829753 -0.070466302 -0.014766473
0.32922557 -0.069206551 -0.014281906
0.32925993 -0.068075761 -0.014288797
0.32929432 -0.066944979 -0.014295688
0.32932869 -0.06581419 -0.014302579
0.32936305 -0.064683408 -0.01430947
0.32939741 -0.063552625 -0.01431636
0.3294318 -0.062421832 -0.01432325
0.32946616 -0.061291058 -0.014330141
0.33039376 -0.060045626 -0.013845499
0.33042809 -0.058916438 -0.013852379
0.33046243 -0.05778724 -0.013859261
0.32960364 -0.056767911 -0.014357705
0.329638 -0.055637129 -0.014364595
0.3296724 -0.054506339 -0.014371485
0.32970676 -0.053375565 -0.014378376
0.32974112 -0.052244775 -0.014385267
0.32977551 -0.051114 -0.014392158
0.32980987 -0.049983207 -0.014399048
0.32984424 -0.048852425 -0.014405939
0.3298786 -0.047721643 -0.01441283
0.32991299 -0.046590853 -0.014419721
0.32994735 -0.045460071 -0.014426611
0.32998171 -0.044329282 -0.014433502
0.33001611 -0.043198496 -0.014440392
0.32915801 -0.042156879 -0.014938984
0.32919243 -0.041024502 -0.014945884
0.32922685 -0.039892126 -0.014952784
0.32926127 -0.038759749 -0.014959685
0.32929569 -0.037627373 -0.014966586
0.32933012 -0.036494996 -0.014973486
0.32936454 -0.035362616 -0.014980386
0.32939896 -0.03423024 -0.014987286
0.32943335 -0.033097863 -0.014994187
0.32946777 -0.031965487 -0.015001087
0.3295022 -0.030833108 -0.015007988
0.32953662 -0.029700732 -0.015014888
0.32957104 -0.028568355 -0.015021788
0.32960546 -0.027435979 -0.015028689
0.32963988 -0.026303595 -0.015035589
0.3296743 -0.025171218 -0.015042489
0.32970873 -0.024038844 -0.01504939
0.32974315 -0.022906467 -0.015056291
0.32977757 -0.021774091 -0.015063191
0.32981196 -0.020641714 -0.015070091
0.32984638 -0.019509338 -0.015076991
0.3298808 -0.018376961 -0.015083892
0.32991523 -0.017244577 -0.015090792
0.32994965 -0.016112201 -0.015097693
0.32998407 -0.014979824 -0.015104593
0.33001849 -0.013847448 -0.015111494
0.33005291 -0.012715071 -0.015118394
0.33008733 -0.011582695 -0.015125294
0.33012176 -0.010450318 -0.015132194
0.33015618 -0.009317942 -0.015139095
0.33019057 -0.008185558 -0.015145996
0.33022499 -0.007053182 -0.015152896
0.33025941 -0.0059208055 -0.015159796
0.32940298 -0.0048250342 -0.015658718
0.32943746 -0.0036910677 -0.015665628
0.32947192 -0.0025570975 -0.015672538
0.3295064 -0.0014231238 -0.015679447
0.32865015 -0.00031939347 -0.016178444
0.32868466 0.00081617024 -0.016185364
0.32871917 0.0019517302 -0.016192283
0.32875368 0.0030872941 -0.016199203
0.32878819 0.0042228578 -0.016206123
0.32882273 0.0053584175 -0.016213043
0.32885724 0.0064939815 -0.016219962
0.32978213 0.0076486329 -0.015734728
0.32981658 0.0087826028 -0.015741639
0.32985106 0.009916571 -0.015748549
0.32988554 0.011050543 -0.01575546
0.33081013 0.01219723 -0.015270202
0.33084455 0.013329607 -0.015277104
0.33087897 0.014461983 -0.015284004
0.33180335 0.0156023 -0.014798708
0.33183774 0.016733084 -0.014805599
0.33187211 0.017863868 -0.01481249
0.33190647 0.018994652 -0.014819381
0.33283064 0.020127004 -0.014334048
0.33286497 0.021256197 -0.01434093
0.3328993 0.022385389 -0.01434781
0.3329336 0.02351458 -0.014354692
0.33296794 0.024643773 -0.014361572
0.33389187 0.025766568 -0.013876145
0.33392614 0.026894167 -0.013883016
0.33396041 0.028021768 -0.013889887
0.33399469 0.029149367 -0.013896759
0.33313954 0.030289732 -0.014395977
0.33317387 0.031418923 -0.014402858
0.3332082 0.032548115 -0.01440974
0.33324251 0.03367731 -0.01441662
0.33327684 0.034806501 -0.014423502
0.33242205 0.03595642 -0.014922741
0.33245641 0.037087206 -0.014929632
0.33160177 0.038241904 -0.015428912
0.33163619 0.039374281 -0.015435812
0.33167061 0.040506657 -0.015442712
0.331705 0.041639037 -0.015449613
0.33085063 0.042801697 -0.015948942
0.33088508 0.043935668 -0.015955852
0.33091956 0.045069639 -0.015962763
0.33006528 0.046238672 -0.016462157
0.33009979 0.047374234 -0.016469076
0.33013433 0.048509799 -0.016475996
0.33016884 0.049645361 -0.016482916
0.33020335 0.050780922 -0.016489835
0.33023787 0.051916484 -0.016496755
0.33027238 0.053052049 -0.016503675
0.33030689 0.054187611 -0.016510595
0.33034143 0.055323172 -0.016517514
0.33037594 0.056458734 -0.016524434
0.33041045 0.057594299 -0.016531354
0.33044496 0.058729861 -0.016538274
0.33136764 0.059811246 -0.016052593
0.33140209 0.060945217 -0.016059503
0.33143657 0.062079187 -0.016066413
0.33147103 0.063213155 -0.016073324
0.33150551 0.064347126 -0.016080234
0.33242783 0.065418959 -0.015594522
0.33246225 0.066551335 -0.015601422
0.33249664 0.067683712 -0.015608322
0.33253106 0.068816088 -0.015615223
0.33256549 0.069948472 -0.015622123
0.33259991 0.071080849 -0.015629023
0.33263433 0.072213225 -0.015635924
0.33266875 0.073345602 -0.015642824
0.33359063 0.0744031 -0.015157024
0.33273759 0.075610355 -0.015656624
0.33365938 0.076664664 -0.015170806
0.33280644 0.077875108 -0.015670426
0.3337281 0.078926235 -0.015184587
0.3337625 0.080057018 -0.015191478
0.33379686 0.081187807 -0.015198369
0.33383122 0.082318589 -0.015205259
0.33386561 0.083449371 -0.01521215
0.33389997 0.084580161 -0.01521904
0.33393434 0.085710943 -0.015225931
0.3339687 0.086841725 -0.015232822
0.33400309 0.087972507 -0.015239713
0.33403745 0.089103296 -0.015246604
0.33407182 0.090234086 -0.015253494
0.33410621 0.091364868 -0.015260384
0.33414057 0.09249565 -0.015267275
0.33417493 0.093626432 -0.015274166
0.40360954 0.094732985 0.023114283
0.40452629 0.09562166 0.023601105
0.40455684 0.096626624 0.023594981
0.40547344 0.097510524 0.024081839
0.40550396 0.098513901 0.024075724
0.40642047 0.099393018 0.024562636
0.40733683 0.10026895 0.025049537
0.40736723 0.10126913 0.025043443
0.40739763 0.10226932 0.025037348
0.40831381 0.10313889 0.025524287
0.40834418 0.10413748 0.025518201
0.40837452 0.10513608 0.025512116
0.40840489 0.10613468 0.025506031
0.40843523 0.10713326 0.025499946
0.40846556 0.10813186 0.02549386
0.40849593 0.10913046 0.025487775
0.40941173 0.10998728 0.025974793
0.40944204 0.11098428 0.025968717
0.40947232 0.11198128 0.025962641
0.40950263 0.11297829 0.025956566
0.40953293 0.11397529 0.025950491
0.40956324 0.11497229 0.025944415
0.40959355 0.11596929 0.02593834
0.40962386 0.1169663 0.025932264
0.40965414 0.11796329 0.025926189
0.40968445 0.1189603 0.025920114
0.40971476 0.1199573 0.025914038
0.40974507 0.1209543 0.025907964
0.40977538 0.1219513 0.025901888
0.40980569 0.1229483 0.025895812
0.40983599 0.1239453 0.025889736
0.40986627 0.1249423 0.025883662
0.40989658 0.12593931 0.025877586
0.40992689 0.1269363 0.02587151
0.4099572 0.12793331 0.025865434
0.40998751 0.12893032 0.02585936
0.41001782 0.12992731 0.025853284
0.4100481 0.13092431 0.025847208
0.41007841 0.13192132 0.025841132
0.41010872 0.13291833 0.025835058
0.41013902 0.13391532 0.025828982
0.41016933 0.13491233 0.025822906
0.41019964 0.13590932 0.025816832
0.41022992 0.13690633 0.025810756
0.41026023 0.13790332 0.02580468
0.41029054 0.13890032 0.025798604
0.41032085 0.13989733 0.02579253
0.41035116 0.14089432 0.025786454
0.41038147 0.14189133 0.025780378
0.41041175 0.14288834 0.025774302
0.41044205 0.14388533 0.025768228
0.41047236 0.14488234 0.025762152
0.41050267 0.14587934 0.025756076
0.41053298 0.14687634 0.02575
0.41056329 0.14787334 0.025743926
0.4105936 0.14887035 0.02573785
0.41062388 0.14986734 0.025731774
0.41065419 0.15086435 0.025725698
0.4098011 0.15207 0.025226114
0.40983143 0.1530686 0.025220029
0.4098618 0.1540672 0.025213944
0.40989214 0.15506579 0.025207859
0.40903929 0.15627943 0.024708224
0.40995285 0.15706298 0.025195688
0.40910009 0.15827979 0.024696035
0.40913048 0.15927997 0.024689941
0.40827787 0.16050157 0.024190258
0.40830833 0.16150334 0.024184154
0.33777305 0.18273064 -0.01532491
0.33780736 0.18385984 -0.015331792
0.33872446 0.18475805 -0.014844995
0.33875874 0.18588567 -0.014851866
0.33879301 0.18701325 -0.014858738
0.33882728 0.18814085 -0.014865609
0.33974409 0.18903112 -0.01437879
0.3397783 0.19015713 -0.014385652
0.3389301 0.19152366 -0.014886223
0.33896437 0.19265126 -0.014893094
0.33899865 0.19377886 -0.014899965
0.33903292 0.19490644 -0.014906837
0.33906719 0.19603406 -0.014913708
0.33910146 0.19716164 -0.014920579
0.33913574 0.19828925 -0.014927451
0.33917001 0.19941685 -0.014934322
0.33920428 0.20054445 -0.014941193
0.33923855 0.20167205 -0.014948064
0.33927283 0.20279965 -0.014954936
0.33930713 0.20392725 -0.014961807
0.3393414 0.20505485 -0.014968678
0.33937567 0.20618244 -0.01497555
0.33940995 0.20731004 -0.014982421
0.33944422 0.20843765 -0.014989292
0.33947849 0.20956524 -0.014996164
0.33951277 0.21069284 -0.015003035
0.33954704 0.21182045 -0.015009906
0.33958131 0.21294804 -0.015016777
0.33961558 0.21407564 -0.015023649
0.33964986 0.21520326 -0.01503052
0.33968413 0.21633084 -0.015037391
0.34059972 0.2171813 -0.014550329
0.34063393 0.21830732 -0.014557191
0.34066817 0.21943331 -0.014564053
0.34070238 0.22055931 -0.014570914
0.34073663 0.22168532 -0.014577776
0.34077084 0.22281134 -0.014584637
0.34080508 0.22393733 -0.014591499
0.34172028 0.22477503 -0.01410436
0.34175444 0.22589944 -0.014111212
0.34178862 0.22702388 -0.014118064
0.3418228 0.2281483 -0.014124916
0.34185699 0.22927269 -0.014131768
0.34189117 0.23039712 -0.014138619
0.34192532 0.23152153 -0.014145471
0.34195951 0.23264594 -0.014152323
0.34199369 0.23377034 -0.014159175
0.34290841 0.23459215 -0.01367195
0.34294254 0.23571497 -0.013678793
0.34297669 0.23683779 -0.013685634
0.34301081 0.23796062 -0.013692477
0.34304494 0.23908344 -0.013699319
0.34307906 0.24020626 -0.013706162
0.34223291 0.24164125 -0.014207138
0.3422671 0.24276567 -0.014213989
0.34230128 0.24389008 -0.014220842
0.34233546 0.24501449 -0.014227694
0.34236965 0.24613893 -0.014234546
0.3424038 0.24726333 -0.014241397
0.34243798 0.24838774 -0.014248249
0.34247217 0.24951215 -0.014255101
0.34250635 0.25063658 -0.014261953
0.34254053 0.25176099 -0.014268805
0.34257469 0.2528854 -0.014275657
0.34260887 0.25400981 -0.014282509
0.34264305 0.25513422 -0.01428936
0.34267724 0.25625864 -0.014296212
0.34271142 0.25738305 -0.014303064
0.34274557 0.25850746 -0.014309916
0.34277976 0.25963187 -0.014316768
0.34281394 0.26075628 -0.01432362
0.34284812 0.26188073 -0.014330472
0.34288228 0.26300511 -0.014337324
0.34291646 0.26412952 -0.014344175
0.34295064 0.26525393 -0.014351027
0.34298483 0.26637837 -0.014357879
0.34301901 0.26750278 -0.014364731
0.34305316 0.2686272 -0.014371583
0.34308735 0.26975161 -0.014378435
0.34312153 0.27087602 -0.014385287
0.34403467 0.27164525 -0.013897742
0.3440688 0.27276808 -0.013904584
0.34410292 0.27389091 -0.013911426
0.34413704 0.27501372 -0.013918268
0.34417117 0.27613652 -0.013925111
0.34420529 0.27725935 -0.013931952
0.34423944 0.27838218 -0.013938795
0.34427357 0.27950501 -0.013945637
0.34518623 0.28025991 -0.013457993
0.34434181 0.28175065 -0.013959321
0.34437594 0.28287348 -0.013966164
0.34441006 0.28399628 -0.013973006
0.34444422 0.28511912 -0.013979848
0.34447834 0.28624195 -0.01398669
0.34451246 0.28736475 -0.013993532
0.34454659 0.28848758 -0.014000375
0.34458071 0.28961042 -0.014007216
0.34461483 0.29073322 -0.014014059
0.34464899 0.29185605 -0.014020901
0.34468311 0.29297882 -0.014027743
0.34471723 0.29410169 -0.014034585
0.34475136 0.29522449 -0.014041428
0.34478548 0.29634732 -0.01404827
0.34481961 0.29747015 -0.014055111
0.34485376 0.29859298 -0.014061954
0.34488788 0.29971579 -0.014068796
0.34492201 0.30083862 -0.014075638
0.34495613 0.30196145 -0.01408248
0.34499025 0.30308425 -0.014089323
0.34502438 0.30420706 -0.014096165
0.34505853 0.30532986 -0.014103007
0.34421518 0.30685726 -0.014604546
0.34424937 0.30798167 -0.014611398
0.34428355 0.30910608 -0.014618251
0.34431773 0.31023052 -0.014625102
0.34435189 0.31135494 -0.014631954
0.3452633 0.31206682 -0.01414406
0.34529743 0.31318966 -0.014150902
0.34533155 0.31431249 -0.014157744
0.34536567 0.31543526 -0.014164587
0.3453998 0.31655809 -0.014171428
0.34631088 0.31726047 -0.013683464
0.34634498 0.3183817 -0.013690297
0.34637904 0.31950289 -0.01369713
0.34641314 0.32062411 -0.013703962
0.34732404 0.32131851 -0.013215923
0.3482348 0.32200968 -0.012727903
0.34826878 0.32312772 -0.012734716
0.34830275 0.32424578 -0.012741529
0.34833676 0.32536381 -0.012748342
0.2519407 0.40323302 -0.067862168
0.25373089 0.40358496 -0.066879824
0.25639629 0.40345746 -0.065402299
0.25906137 0.40332043 -0.063924745
0.2617262 0.40317383 -0.062447105
0.2635155 0.40349549 -0.061464552
0.2653046 0.4038108 -0.060481999
0.26709345 0.4041197 -0.059499405
0.26975727 0.40393969 -0.05802156
0.27242079 0.40375009 -0.056543648
0.27420899 0.4040367 -0.055560917
0.27687198 0.40382954 -0.054082911
0.27865976 0.40410188 -0.053100094
0.28044739 0.4043678 -0.052117199
0.28310955 0.40413523 -0.050639063
0.28577146 0.40389305 -0.049160842
0.2884331 0.40364131 -0.047682561
0.29109439 0.40338007 -0.04620425
0.29288086 0.40360773 -0.045221124
0.29554161 0.40332898 -0.043742705
0.29820213 0.40304062 -0.042264201
0.30086237 0.40274271 -0.04078564
0.30352226 0.40243527 -0.039307047
0.30530757 0.40262473 -0.038323686
0.30796692 0.40229976 -0.036844999
0.30975178 0.40247491 -0.035861552
0.3115364 0.40264368 -0.034878105
0.31332088 0.40280607 -0.03389458
0.31510511 0.40296212 -0.032911055
0.3168892 0.40311179 -0.031927451
0.31867304 0.40325508 -0.03094385
0.32045671 0.40339199 -0.029960208
0.3222402 0.40352252 -0.028976489
0.32402349 0.40364674 -0.02799277
0.32493278 0.4042885 -0.027504411
0.32671571 0.40440157 -0.026520625
0.32762471 0.40503541 -0.026032243
0.32940733 0.40513724 -0.025048349
0.33031613 0.40576318 -0.024559932
0.3312248 0.40638587 -0.024071483
0.33213335 0.4070054 -0.023583014
0.33304185 0.40762174 -0.023094537
0.3348237 0.40769812 -0.022110488
0.33573195 0.40830648 -0.021621963
0.33576676 0.4094516 -0.021628942
0.3334837 -0.098912708 -0.012508761
0.33351782 -0.097789884 -0.012515604
0.33355194 -0.096667066 -0.012522446
0.33358607 -0.095544234 -0.012529287
0.33362019 -0.094421424 -0.01253613
0.33365431 -0.093298592 -0.012542972
0.33368847 -0.092175782 -0.012549814
0.33372259 -0.091052949 -0.012556656
0.33375672 -0.089930132 -0.012563499
0.33379084 -0.088807322 -0.012570341
0.33293152 -0.087838985 -0.013069707
0.3329657 -0.086714581 -0.013076559
0.33299989 -0.085590161 -0.013083411
0.33303407 -0.08446575 -0.013090263
0.33217502 -0.083489463 -0.01358969
0.33220923 -0.082363449 -0.013596551
0.33224347 -0.08123745 -0.013603413
0.3313846 -0.080254793 -0.014102878
0.33141887 -0.079127192 -0.014109749
0.33145314 -0.077999592 -0.014116621
0.33059442 -0.077010579 -0.014616139
0.33062872 -0.075881384 -0.014623021
0.33066306 -0.074752189 -0.014629901
0.33069739 -0.073623002 -0.014636782
0.33073169 -0.072493806 -0.014643664
0.33076602 -0.071364619 -0.014650544
0.33080035 -0.070235424 -0.014657426
0.33172733 -0.068978809 -0.014171591
0.3317616 -0.067851201 -0.014178462
0.33179587 -0.066723607 -0.014185334
0.33183014 -0.065596007 -0.014192205
0.33186442 -0.064468399 -0.014199076
0.33189869 -0.063340805 -0.014205948
0.33193296 -0.062213205 -0.014212819
0.33196726 -0.061085608 -0.01421969
0.33200154 -0.059958007 -0.014226561
0.33203581 -0.05883041 -0.014233433
0.33207008 -0.057702806 -0.014240304
0.33210436 -0.056575205 -0.014247175
0.33213863 -0.055447608 -0.014254047
0.3321729 -0.054320008 -0.014260918
0.33220717 -0.053192418 -0.014267788
0.33224145 -0.052064806 -0.01427466
0.33227572 -0.05093722 -0.014281531
0.33230999 -0.049809616 -0.014288402
0.33234426 -0.048682015 -0.014295273
0.33237854 -0.047554418 -0.014302145
0.33241281 -0.046426818 -0.014309016
0.33244708 -0.045299221 -0.014315887
0.33248135 -0.044171616 -0.014322759
0.33251563 -0.043044016 -0.01432963
0.3325499 -0.041916419 -0.014336501
0.33169273 -0.040876433 -0.014836331
0.33172703 -0.039747242 -0.014843212
0.33176136 -0.038618054 -0.014850093
0.33179569 -0.037488859 -0.014856974
0.33182999 -0.036359668 -0.014863855
0.33186433 -0.035230473 -0.014870736
0.33100754 -0.03417933 -0.015370619
0.33104193 -0.033048548 -0.015377509
0.33107629 -0.031917766 -0.0153844
0.33111066 -0.030786984 -0.015391291
0.33114502 -0.0296562 -0.015398181
0.33117941 -0.02852541 -0.015405072
0.33121377 -0.027394628 -0.015411963
0.33124813 -0.026263837 -0.015418854
0.33128253 -0.025133055 -0.015425744
0.33131689 -0.024002271 -0.015432635
0.33224186 -0.022809362 -0.014946427
0.3322762 -0.021680169 -0.014953308
0.33231053 -0.020550981 -0.014960188
0.33234483 -0.019421788 -0.01496707
0.33237916 -0.018292598 -0.014973951
0.33241349 -0.017163401 -0.014980832
0.3324478 -0.016034208 -0.014987713
0.33248213 -0.014905016 -0.014994593
0.33251646 -0.013775827 -0.015001475
0.33255076 -0.012646634 -0.015008355
0.3325851 -0.011517446 -0.015015237
0.33261943 -0.010388252 -0.015022118
0.33265373 -0.00925906 -0.015028998
0.33268806 -0.0081298631 -0.01503588
0.33183244 -0.0070405044 -0.015535995
0.3318668 -0.0059097181 -0.015542886
0.33190119 -0.0047789351 -0.015549777
0.33104575 -0.0036832017 -0.016049931
0.33108017 -0.0025508252 -0.016056832
0.33111459 -0.0014184451 -0.016063731
0.33114901 -0.0002860688 -0.016070632
0.33118343 0.00084630761 -0.016077533
0.33121786 0.001978684 -0.016084433
0.33125228 0.0031110642 -0.016091334
0.3312867 0.0042434405 -0.016098233
0.33132112 0.005375817 -0.016105134
0.33135554 0.0065081934 -0.016112035
0.33138996 0.0076405718 -0.016118934
0.33142436 0.0087729478 -0.016125835
0.33234802 0.0099212648 -0.015639355
0.33238238 0.011052052 -0.015646247
0.33241674 0.012182834 -0.015653137
0.3333402 0.013324779 -0.015166618
0.3333745 0.014453973 -0.015173499
0.33429787 0.015591143 -0.014686937
0.33433214 0.01671874 -0.014693808
0.33436641 0.017846338 -0.014700679
0.33528951 0.018977139 -0.014214093
0.33532375 0.020103144 -0.014220955
0.33535796 0.021229152 -0.014227816
0.33539218 0.022355158 -0.014234678
0.33542642 0.023481164 -0.014241539
0.33634922 0.024602406 -0.013754894
0.3363834 0.025726819 -0.013761747
0.33641759 0.026851233 -0.013768598
0.33645177 0.027975647 -0.01377545
0.33648592 0.02910006 -0.013782302
0.33652011 0.030224476 -0.013789154
0.335666 0.031363212 -0.01428957
0.33570021 0.032489218 -0.014296432
0.33573446 0.033615224 -0.014303293
0.33576867 0.03474123 -0.014310155
0.3349148 0.035887927 -0.01481062
0.33494908 0.037015527 -0.014817491
0.33498335 0.038143124 -0.014824362
0.3341296 0.039296195 -0.015324881
0.3341639 0.040425386 -0.015331762
0.3333104 0.041583233 -0.015832296
0.33334476 0.042714018 -0.015839186
0.33249137 0.04387664 -0.016339747
0.33252579 0.045009021 -0.016346648
0.33256021 0.046141397 -0.016353548
0.3325946 0.047273774 -0.016360449
0.33262902 0.04840615 -0.01636735
0.33177593 0.049578331 -0.016867958
0.33181038 0.050712302 -0.016874868
0.33184487 0.05184627 -0.016881779
0.33187932 0.05298024 -0.016888689
0.33280113 0.054068036 -0.016401852
0.33283556 0.055200413 -0.016408751
0.33286998 0.056332789 -0.016415652
0.3329044 0.05746517 -0.016422553
0.33293882 0.058597546 -0.016429452
0.33297321 0.059729923 -0.016436353
0.33300763 0.060862303 -0.016443254
0.33304206 0.061994679 -0.016450154
0.33396342 0.063068137 -0.015963217
0.33399779 0.064198926 -0.015970109
0.33403218 0.065329708 -0.015976999
0.33406654 0.066460498 -0.015983891
0.3341009 0.06759128 -0.015990781
0.33413526 0.068722062 -0.015997672
0.33416966 0.069852851 -0.016004562
0.33509061 0.070913568 -0.015517549
0.33512494 0.072042763 -0.015524429
0.33604583 0.073098704 -0.015037372
0.3360801 0.074226297 -0.015044243
0.33611438 0.075353898 -0.015051114
0.33614865 0.076481499 -0.015057986
0.33618292 0.077609099 -0.015064857
0.33621719 0.0787367 -0.015071728
0.33625147 0.079864293 -0.0150786
0.33628574 0.080991894 -0.015085471
0.33632001 0.082119495 -0.015092342
0.33635429 0.083247095 -0.015099213
0.33638856 0.084374696 -0.015106085
0.33642283 0.085502289 -0.015112956
0.33557114 0.086722255 -0.015613883
0.33560544 0.08785145 -0.015620763
0.33563977 0.088980645 -0.015627645
0.33567411 0.09010984 -0.015634526
0.33570841 0.091239028 -0.015641406
0.33574274 0.092368215 -0.015648287
0.40333146 0.093816951 0.021847285
0.40424731 0.094708852 0.022335323
0.40427792 0.095715404 0.022329189
0.4051936 0.096602529 0.022817254
0.40522414 0.097607501 0.02281113
0.4061397 0.098489843 0.023299225
0.40617022 0.099493213 0.023293111
0.40708566 0.10037077 0.023781268
0.40711612 0.10137255 0.023775162
0.40803137 0.10224534 0.024263315
0.40806177 0.10324553 0.02425722
0.40809217 0.10424571 0.024251126
0.4081226 0.10524591 0.024245031
0.40903762 0.10611073 0.024733232
0.40906796 0.10710932 0.024727147
0.4090983 0.10810792 0.024721062
0.40912867 0.10910651 0.024714977
0.409159 0.1101051 0.024708891
0.40918937 0.1111037 0.024702806
0.40921971 0.11210229 0.024696721
0.40925008 0.11310089 0.024690636
0.40928042 0.11409949 0.024684552
0.40931079 0.11509807 0.024678467
0.40934113 0.11609667 0.024672382
0.4093715 0.11709527 0.024666296
0.40940183 0.11809386 0.024660211
0.41031617 0.1189364 0.025148554
0.41034648 0.1199334 0.025142478
0.41037679 0.1209304 0.025136404
0.40952325 0.12208823 0.02463587
0.40955359 0.12308683 0.024629785
0.40958396 0.12408542 0.024623699
0.40961429 0.12508403 0.024617614
0.40964466 0.12608261 0.024611529
0.409675 0.12708122 0.024605444
0.40970537 0.1280798 0.024599358
0.40973571 0.1290784 0.024593273
0.40976608 0.130077 0.024587188
0.40979642 0.13107558 0.024581103
0.40982679 0.13207418 0.024575019
0.40985712 0.13307278 0.024568934
0.40988749 0.13407136 0.024562849
0.40991783 0.13506997 0.024556763
0.4099482 0.13606855 0.024550678
0.40997854 0.13706715 0.024544593
0.41000888 0.13806574 0.024538508
0.41003925 0.13906434 0.024532422
0.41006958 0.14006293 0.024526337
