# .PCD v0.7 - Point Cloud Data file format
VERSION 0.7
FIELDS x y z
SIZE 4 4 4
TYPE F F F
COUNT 1 1 1
WIDTH 1344
HEIGHT 1
VIEWPOINT 0 0 0 1 0 0 0
POINTS 1344
DATA ascii
0.48587498 -0.0236974 -0.01308562
0.48509231 -0.022834025 -0.013681739
0.48512086 -0.021894362 -0.013687464
0.48433834 -0.021026211 -0.014283616
0.48355588 -0.020154865 -0.014879787
0.48358455 -0.019212017 -0.014885533
0.48280221 -0.018335905 -0.015481765
0.48283091 -0.017391462 -0.01548752
0.48285964 -0.016447017 -0.015493276
0.48207754 -0.015564533 -0.016089514
0.4821063 -0.014618495 -0.016095279
0.48294574 -0.013613686 -0.015510541
0.48297444 -0.012669238 -0.015516296
0.48300317 -0.011724794 -0.015522052
0.48303187 -0.01078035 -0.015527806
0.48387113 -0.0097835036 -0.014942988
0.4838998 -0.0088406531 -0.014948733
0.48392844 -0.0078978026 -0.014954478
0.48395711 -0.0069549526 -0.014960224
0.48479608 -0.0059660687 -0.014375389
0.48482469 -0.0050248085 -0.014381125
0.4848533 -0.0040835482 -0.014386861
0.48488191 -0.0031422917 -0.014392596
0.48491052 -0.0022010314 -0.014398332
0.48493913 -0.0012597748 -0.014404068
0.48496774 -0.00031851832 -0.014409804
0.48499635 0.00062274566 -0.014415539
0.4858349 0.0015972906 -0.013830616
0.48586348 0.0025369572 -0.013836343
0.48589203 0.0034766237 -0.013842069
0.48592058 0.0044162902 -0.013847794
0.48594916 0.005355957 -0.013853521
0.48597771 0.0062956214 -0.013859247
0.48600626 0.0072352863 -0.013864973
0.48603484 0.0081749549 -0.013870699
0.48606339 0.0091146212 -0.013876425
0.48609194 0.010054286 -0.013882151
0.48612052 0.010993955 -0.013887878
0.48614907 0.011933619 -0.013893603
0.48617765 0.012873284 -0.013899329
0.4862062 0.013812951 -0.013905056
0.48623475 0.014752617 -0.013910782
0.48626333 0.015692284 -0.013916507
0.48629189 0.016631948 -0.013922233
0.48632044 0.017571615 -0.01392796
0.48553994 0.018506659 -0.014524519
0.48556855 0.019447917 -0.014530255
0.48559716 0.020389177 -0.014535991
0.48562577 0.021330435 -0.014541727
0.48565438 0.022271693 -0.014547462
0.48487419 0.023216294 -0.01514408
0.48490283 0.024159145 -0.015149825
0.4849315 0.025101995 -0.015155571
0.48496014 0.026044847 -0.015161316
0.48498881 0.026987698 -0.015167061
0.48501748 0.027930548 -0.015172807
0.48504612 0.028873401 -0.015178552
0.48507479 0.029816253 -0.015184298
0.48510346 0.030759104 -0.015190043
0.4851321 0.031701956 -0.015195789
0.4859691 0.032625537 -0.014610556
0.48599771 0.033566799 -0.014616291
0.48602632 0.034508057 -0.014622027
0.48686311 0.035425272 -0.014036755
0.48689169 0.036364935 -0.014042481
0.48692024 0.037304603 -0.014048207
0.48775685 0.038215447 -0.013462899
0.48778537 0.03915352 -0.013468616
0.48862186 0.040059581 -0.01288324
0.48865032 0.040996064 -0.012888948
0.48867878 0.041932546 -0.012894654
0.48951507 0.042832237 -0.012309277
0.48954347 0.043767128 -0.012314974
0.4903796 0.044662043 -0.011729566
0.49040797 0.04559534 -0.011735254
0.49043635 0.046528634 -0.011740942
0.49046472 0.047461931 -0.011746628
0.49049306 0.048395224 -0.011752316
0.49052143 0.049328521 -0.011758003
0.49135724 0.05021229 -0.01117253
0.49057817 0.051195111 -0.011769378
0.49060655 0.052128408 -0.011775064
0.48982763 0.053116009 -0.012371944
0.48985606 0.054050896 -0.012377641
0.48988447 0.054985784 -0.012383338
0.4899129 0.055920672 -0.012389035
0.48913422 0.056916237 -0.012985961
0.48916268 0.057852715 -0.012991667
0.48838413 0.05885306 -0.013588659
0.48841265 0.059791137 -0.013594375
0.48844117 0.060729209 -0.013600091
0.48846966 0.061667282 -0.013605808
0.48849818 0.062605351 -0.013611524
0.4885267 0.063543431 -0.013617241
0.48774853 0.064554922 -0.014214263
0.48777708 0.065494582 -0.014219989
0.48699906 0.066510849 -0.014817043
0.4862211 0.067530304 -0.015414117
0.48547193 0.069497392 -0.016016997
0.48550063 0.070441835 -0.016022753
0.48552936 0.071386278 -0.016028507
0.48555806 0.072330728 -0.016034262
0.48639306 0.073187411 -0.01544859
0.48722792 0.07404092 -0.014862929
0.48725653 0.074982181 -0.014868665
0.48809126 0.075830914 -0.014282976
0.48811981 0.076770581 -0.014288702
0.4889544 0.077614531 -0.013702986
0.48898292 0.078552604 -0.013708702
0.48901141 0.079490677 -0.013714419
0.48903993 0.080428749 -0.013720135
0.48906845 0.081366822 -0.013725852
0.48909697 0.082304895 -0.013731568
0.48831975 0.083348244 -0.014328784
0.48834831 0.084287912 -0.01433451
0.48837689 0.085227571 -0.014340237
0.48840544 0.086167239 -0.014345963
0.48762846 0.087218545 -0.01494323
0.48765707 0.0881598 -0.014948966
0.48768568 0.089101061 -0.014954702
0.48690891 0.090158738 -0.015552009
0.4861322 0.091219611 -0.016149366
0.4861609 0.092164055 -0.016155122
0.48538437 0.093229696 -0.016752476
0.48541313 0.094175726 -0.016758241
0.48463675 0.095246144 -0.017355623
0.48466554 0.096193776 -0.017361397
0.48469433 0.0971414 -0.017367171
0.48472315 0.098089032 -0.017372947
0.4855569 0.098905914 -0.016787065
0.48558566 0.099851951 -0.01679283
0.48641926 0.10066405 -0.016206918
0.48725283 0.10147295 -0.015620954
0.48728147 0.10241581 -0.015626699
0.48811483 0.10321994 -0.015040739
0.48814344 0.1041612 -0.015046475
0.48817205 0.10510246 -0.01505221
0.48900524 0.10590023 -0.01446621
0.48822927 0.10698498 -0.015063682
0.48825788 0.10792623 -0.015069418
0.4882865 0.1088675 -0.015075153
0.48751074 0.10995862 -0.015672663
0.48834372 0.11075001 -0.015086625
0.48837233 0.11169127 -0.015092361
0.48840094 0.11263253 -0.015098096
0.48842955 0.11357379 -0.015103832
0.48926228 0.11435722 -0.014517745
0.48929083 0.11529689 -0.014523471
0.49012342 0.11607554 -0.013937357
0.49015194 0.11701362 -0.013943073
0.49018046 0.11795169 -0.01394879
0.49020898 0.11888976 -0.013954506
0.49023747 0.11982784 -0.013960223
0.490266 0.12076591 -0.013965939
0.49029452 0.12170398 -0.013971656
0.49032301 0.12264206 -0.013977371
0.48954791 0.12375388 -0.014575006
0.48957646 0.12469355 -0.014580731
0.48880148 0.12581015 -0.015178397
0.48883009 0.12675141 -0.015184132
0.48805526 0.12787278 -0.015781827
0.4880839 0.12881564 -0.015787574
0.48730916 0.12994181 -0.016385328
0.48733789 0.13088626 -0.016391084
0.48736659 0.13183069 -0.016396839
0.48659208 0.13296323 -0.016994601
0.48662084 0.13390927 -0.017000366
0.4866496 0.1348553 -0.017006131
0.48667836 0.13580135 -0.017011896
0.48670709 0.13674738 -0.017017661
0.48673585 0.13769342 -0.017023426
0.48756751 0.1384418 -0.016437126
0.48759624 0.13938625 -0.01644288
0.48842782 0.14012986 -0.015856519
0.48925924 0.14087029 -0.015270169
0.48928785 0.14181155 -0.015275905
0.49011913 0.14254721 -0.014689527
0.49014768 0.14348687 -0.014695252
0.49097884 0.14421774 -0.014108848
0.49100733 0.14515582 -0.014114564
0.49103585 0.14609389 -0.014120281
0.49106437 0.14703196 -0.014125997
0.49109286 0.14797004 -0.014131714
0.49112138 0.14890811 -0.01413743
0.4911499 0.14984618 -0.014143147
0.49117842 0.15078425 -0.014148862
0.49120691 0.15172233 -0.014154579
0.49123544 0.1526604 -0.014160295
0.49126396 0.15359847 -0.014166011
0.49129248 0.15453656 -0.014171728
0.49132097 0.15547462 -0.014177444
0.49134949 0.15641271 -0.014183161
0.49137801 0.15735076 -0.014188877
0.49140653 0.15828885 -0.014194594
0.49143502 0.15922692 -0.01420031
0.49146354 0.160165 -0.014206026
0.49149206 0.16110307 -0.014211742
0.49152058 0.16204114 -0.014217459
0.49154907 0.16297922 -0.014223175
0.4915776 0.16391729 -0.014228892
0.49160612 0.16485536 -0.014234608
0.49163464 0.16579343 -0.014240324
0.49166313 0.16673151 -0.014246041
0.49169165 0.16766958 -0.014251757
0.49172017 0.16860765 -0.014257474
0.49174869 0.16954572 -0.014263189
0.49177718 0.1704838 -0.014268906
0.4918057 0.17142189 -0.014274622
0.49183422 0.17235994 -0.014280339
0.49186271 0.17329802 -0.014286055
0.49189124 0.17423609 -0.014291772
0.49191976 0.17517418 -0.014297488
0.49194828 0.17611225 -0.014303205
0.49197677 0.17705031 -0.014308921
0.49200529 0.1779884 -0.014314638
0.49203381 0.17892647 -0.014320353
0.49206233 0.17986454 -0.01432607
0.49209082 0.18080261 -0.014331786
0.49211934 0.18174069 -0.014337502
0.49214786 0.18267876 -0.014343219
0.49217638 0.18361685 -0.014348935
0.49220487 0.1845549 -0.014354652
0.4922334 0.18549298 -0.014360368
0.49226192 0.18643105 -0.014366085
0.49229044 0.18736914 -0.014371801
0.49231893 0.1883072 -0.014377517
0.49234745 0.18924527 -0.014383233
0.49237597 0.19018334 -0.01438895
0.49240449 0.19112143 -0.014394666
0.49243298 0.19205949 -0.014400383
0.4924615 0.19299756 -0.014406099
0.49249002 0.19393565 -0.014411815
0.49251851 0.19487372 -0.014417532
0.49254704 0.19581178 -0.014423248
0.49337548 0.19645186 -0.013836253
0.49340394 0.19738835 -0.013841959
0.4934324 0.19832483 -0.013847666
0.49346086 0.19926129 -0.013853372
0.49348933 0.20019779 -0.013859079
0.49351779 0.20113426 -0.013864785
0.49354625 0.20207074 -0.013870492
0.49357471 0.20300722 -0.013876199
0.49360317 0.2039437 -0.013881905
0.49363166 0.20488018 -0.013887612
0.49445948 0.20550275 -0.013300547
0.49448791 0.20643765 -0.013306244
0.49451631 0.20737255 -0.013311941
0.49454474 0.20830743 -0.013317638
0.49457315 0.20924231 -0.013323335
0.49460158 0.21017721 -0.013329032
0.49462998 0.2111121 -0.013334729
0.49465841 0.21204697 -0.013340426
0.49468681 0.21298186 -0.013346123
0.49471524 0.21391676 -0.01335182
0.49474365 0.21485165 -0.013357517
0.49477208 0.21578653 -0.013363214
0.49480048 0.21672143 -0.013368911
0.49482891 0.21765631 -0.013374608
0.49485731 0.2185912 -0.013380305
0.49488574 0.21952608 -0.013386002
0.49491414 0.22046097 -0.013391699
0.49494258 0.22139587 -0.013397396
0.49497098 0.22233075 -0.013403093
0.49499941 0.22326565 -0.013408789
0.49582621 0.22385477 -0.012821518
0.49585459 0.22478805 -0.012827205
0.49588296 0.22572136 -0.012832892
0.49591133 0.22665466 -0.01283858
0.4959397 0.22758795 -0.012844267
0.49676624 0.22816752 -0.012256941
0.49679455 0.22909923 -0.012262618
0.49682286 0.23003092 -0.012268296
0.49685121 0.23096263 -0.012273973
0.49687952 0.23189433 -0.01227965
0.49690783 0.23282604 -0.012285328
0.49773404 0.23339446 -0.01169793
0.49776229 0.23432457 -0.011703598
0.49779058 0.23525469 -0.011709266
0.49781886 0.23618479 -0.011714934
0.49784711 0.23711491 -0.011720601
0.49787539 0.23804501 -0.011726269
0.49790365 0.23897512 -0.011731938
0.49793193 0.23990524 -0.011737606
0.49796021 0.24083534 -0.011743274
0.49798846 0.24176547 -0.011748942
0.49801674 0.24269557 -0.011754609
0.49804503 0.24362567 -0.011760277
0.49807328 0.24455577 -0.011765945
0.49810156 0.2454859 -0.011771613
0.49812981 0.246416 -0.01177728
0.4981581 0.2473461 -0.011782948
0.49818638 0.24827623 -0.011788616
0.49821463 0.24920633 -0.011794284
0.49824291 0.25013646 -0.011799952
0.4982712 0.25106657 -0.011805619
0.49750254 0.25239182 -0.012404556
0.49753088 0.2533235 -0.012410234
0.49755919 0.25425521 -0.012415911
0.4975875 0.25518692 -0.012421589
0.49761581 0.25611863 -0.012427267
0.49764413 0.25705031 -0.012432944
0.49767247 0.25798202 -0.012438621
0.49770078 0.25891373 -0.0124443
0.49772909 0.25984544 -0.012449977
0.49775741 0.26077712 -0.012455654
0.49778575 0.26170883 -0.012461332
0.49781406 0.26264054 -0.012467009
0.49784237 0.26357222 -0.012472687
0.49787068 0.26450393 -0.012478365
0.49789903 0.26543564 -0.012484042
0.49872351 0.26594833 -0.011896305
0.49875179 0.26687843 -0.011901973
0.49878007 0.26780853 -0.011907641
0.49880832 0.26873866 -0.011913308
0.49883661 0.26966876 -0.011918976
0.49886486 0.27059886 -0.011924644
0.49889314 0.27152899 -0.011930312
0.49892142 0.27245909 -0.01193598
0.49894968 0.27338919 -0.011941647
0.49897796 0.27431929 -0.011947315
0.49900624 0.27524942 -0.011952983
0.49983019 0.27574298 -0.011365094
0.49985841 0.2766715 -0.011370753
0.49988663 0.27760002 -0.011376411
0.49991485 0.27852854 -0.011382069
0.49994308 0.27945703 -0.011387727
0.4999713 0.28038555 -0.011393385
0.49999952 0.28131407 -0.011399044
0.49926066 0.28362039 -0.012003994
0.49928895 0.28455052 -0.012009662
0.4993172 0.28548062 -0.01201533
0.49934548 0.28641072 -0.012020997
0.49937376 0.28734085 -0.012026665
0.49940202 0.28827095 -0.012032333
0.4994303 0.28920105 -0.012038001
0.49945855 0.29013118 -0.012043669
0.49948683 0.29106131 -0.012049336
0.49872029 0.29245502 -0.01264869
0.4987486 0.29338673 -0.012654369
0.49877691 0.29431844 -0.012660046
0.49880522 0.29525015 -0.012665723
0.49883357 0.29618183 -0.012671401
0.49886188 0.29711354 -0.012677078
0.49889019 0.29804525 -0.012682756
0.4989185 0.29897696 -0.012688434
0.49894685 0.29990864 -0.012694111
0.49897516 0.30084035 -0.012699788
0.49820912 0.30225161 -0.013299247
0.49823749 0.3031849 -0.013304934
0.49826586 0.30411819 -0.013310621
0.49829423 0.30505148 -0.013316308
0.49832261 0.3059848 -0.013321996
0.49835098 0.30691808 -0.013327683
0.49758527 0.30834046 -0.013927212
0.4976137 0.30927536 -0.013932909
0.4976421 0.31021023 -0.013938606
0.49767053 0.3111451 -0.013944303
0.49769893 0.31208 -0.01395
0.49772736 0.31301489 -0.013955696
0.49775577 0.31394976 -0.013961393
0.4977842 0.31488466 -0.01396709
0.4978126 0.31581956 -0.013972788
0.49784103 0.31675446 -0.013978485
0.49786943 0.31768933 -0.013984182
0.49789786 0.31862423 -0.013989879
0.49792627 0.31955913 -0.013995576
0.4979547 0.320494 -0.014001273
0.4987765 0.32091749 -0.013412992
0.49880487 0.32185081 -0.013418679
0.49883321 0.3227841 -0.013424367
0.49886158 0.32371739 -0.013430053
0.49888995 0.32465068 -0.013435741
0.49891832 0.32558399 -0.013441428
0.4989467 0.32651728 -0.013447115
0.49976811 0.32692802 -0.01285876
0.49979642 0.3278597 -0.012864437
0.40167034 0.39962807 -0.086569376
0.40091202 0.40129256 -0.087170377
0.48901659 -0.099400334 -0.0097977798
0.48823062 -0.098677166 -0.010394317
0.4882589 -0.09774705 -0.010399984
0.48828715 -0.09681695 -0.010405652
0.48831543 -0.095886834 -0.01041132
0.48834372 -0.094956718 -0.010416988
0.48837197 -0.094026618 -0.010422655
0.48758638 -0.093292281 -0.011019222
0.48761469 -0.092360571 -0.011024901
0.48764303 -0.091428876 -0.011030578
0.48767135 -0.090497166 -0.011036255
0.48769966 -0.089565463 -0.011041933
0.48772797 -0.088633768 -0.01104761
0.48694274 -0.087888278 -0.011644245
0.48697111 -0.086954989 -0.011649933
0.48699945 -0.086021692 -0.011655619
0.48702782 -0.085088402 -0.011661307
0.4870562 -0.084155105 -0.011666995
0.48708457 -0.083221808 -0.011672681
0.48711294 -0.082288511 -0.011678369
0.48714131 -0.081355207 -0.011684056
0.48716968 -0.080421925 -0.011689743
0.48719802 -0.079488628 -0.011695431
0.4872264 -0.078555331 -0.011701117
0.48725477 -0.077622034 -0.011706805
0.48728314 -0.076688744 -0.011712492
0.48731151 -0.075755447 -0.011718179
0.48733988 -0.07482215 -0.011723867
0.48736826 -0.073888853 -0.011729554
0.48658383 -0.073116288 -0.012326357
0.48661223 -0.072181411 -0.012332054
0.48664066 -0.07124652 -0.012337751
0.48666906 -0.070311636 -0.012343448
0.48669749 -0.069376737 -0.012349145
0.4867259 -0.06844186 -0.012354841
0.48675433 -0.067506969 -0.012360538
0.48678273 -0.066572078 -0.012366235
0.48681116 -0.065637194 -0.012371932
0.48683956 -0.064702302 -0.012377629
0.48686799 -0.063767418 -0.012383326
0.4868964 -0.062832527 -0.012389023
0.48692483 -0.061897639 -0.01239472
0.48695323 -0.060962752 -0.012400417
0.48698166 -0.060027864 -0.012406114
0.48701006 -0.05909298 -0.01241181
0.48703849 -0.058158085 -0.012417507
0.48706689 -0.057223201 -0.012423204
0.48709533 -0.056288313 -0.012428902
0.48631185 -0.055483907 -0.013025896
0.48634031 -0.054547425 -0.013031602
0.48636878 -0.053610947 -0.013037309
0.48639724 -0.052674457 -0.013043015
0.4864257 -0.051737975 -0.013048722
0.48645419 -0.050801501 -0.013054429
0.48648265 -0.049865015 -0.013060136
0.48651111 -0.04892854 -0.013065842
0.48653957 -0.047992058 -0.013071549
0.48656803 -0.047055583 -0.013077255
0.48659649 -0.04611909 -0.013082962
0.48662496 -0.045182608 -0.013088669
0.48665342 -0.044246133 -0.013094376
0.48668188 -0.043309651 -0.013100082
0.48671037 -0.042373173 -0.013105788
0.48673883 -0.041436691 -0.013111495
0.48676729 -0.040500216 -0.013117202
0.48679575 -0.039563727 -0.013122909
0.48682421 -0.038627252 -0.013128615
0.48685268 -0.037690766 -0.013134322
0.48688114 -0.036754292 -0.013140028
0.4869096 -0.035817809 -0.013145735
0.48693806 -0.034881327 -0.013151442
0.48696655 -0.033944841 -0.013157149
0.48780572 -0.03291611 -0.012571326
0.48783413 -0.031981219 -0.012577022
0.48786256 -0.031046331 -0.012582719
0.48789096 -0.030111449 -0.012588416
0.48791939 -0.029176559 -0.012594113
0.48794779 -0.02824167 -0.01259981
0.48797622 -0.02730678 -0.012605507
0.48800462 -0.026371891 -0.012611204
0.48803306 -0.025437005 -0.012616901
0.48806146 -0.024502115 -0.012622598
0.48808989 -0.023567231 -0.012628295
0.48730811 -0.022707077 -0.013225629
0.4865264 -0.021843746 -0.013823017
0.48655492 -0.020905674 -0.013828733
0.48577338 -0.020037554 -0.014426118
0.48580194 -0.019097889 -0.014431844
0.48502058 -0.018224996 -0.015029255
0.48504919 -0.01728374 -0.01503499
0.48426795 -0.016406067 -0.015632432
0.48429659 -0.015463216 -0.015638176
0.48432526 -0.014520367 -0.015643923
0.48516363 -0.013518706 -0.015057934
0.48519224 -0.012577442 -0.01506367
0.48522085 -0.011636185 -0.015069406
0.48524946 -0.010694929 -0.015075142
0.48608756 -0.0097012296 -0.014489104
0.48611611 -0.0087615633 -0.014494831
0.48614469 -0.0078218998 -0.014500557
0.48617324 -0.0068822335 -0.014506282
0.48620182 -0.0059425673 -0.014512009
0.48623037 -0.0050028968 -0.014517735
0.48706815 -0.0040203491 -0.013931627
0.4862875 -0.0031235674 -0.014529187
0.48631606 -0.0021839007 -0.014534913
0.48634461 -0.0012442342 -0.014540639
0.48637319 -0.00030457132 -0.014546365
0.48640174 0.00063509902 -0.014552091
0.48643029 0.0015747618 -0.014557817
0.48645887 0.0025144285 -0.014563544
0.48648742 0.003454095 -0.014569269
0.486516 0.0043937615 -0.014574995
0.48654455 0.0053334283 -0.014580722
0.4865731 0.0062730927 -0.014586448
0.48660168 0.0072127576 -0.014592174
0.48663023 0.0081524262 -0.014597899
0.48665878 0.0090920925 -0.014603626
0.48668736 0.010031757 -0.014609352
0.48671591 0.010971426 -0.014615078
0.48674446 0.01191109 -0.014620804
0.48677304 0.012850755 -0.01462653
0.48680159 0.013790422 -0.014632256
0.48683017 0.014730088 -0.014637982
0.48685873 0.015669756 -0.014643708
0.48688728 0.016609419 -0.014649434
0.48691586 0.017549086 -0.014655161
0.48694441 0.018488754 -0.014660886
0.48697296 0.019428419 -0.014666612
0.48700154 0.020368084 -0.014672339
0.48703009 0.021307752 -0.014678065
0.48705864 0.022247417 -0.014683791
0.48708722 0.023187082 -0.014689517
0.48711577 0.024126748 -0.014695243
0.48714435 0.025066415 -0.014700969
0.4871729 0.02600608 -0.014706695
0.48720145 0.026945747 -0.014712421
0.48723003 0.027885413 -0.014718147
0.48725858 0.02882508 -0.014723873
0.48728713 0.029764745 -0.014729599
0.48731571 0.030704411 -0.014735325
0.48734426 0.031644076 -0.014741051
0.48737282 0.032583743 -0.014746778
0.48820868 0.03350259 -0.014160282
0.48823717 0.034440663 -0.014165998
0.48826569 0.035378736 -0.014171715
0.48910138 0.036291208 -0.013585147
0.48912984 0.037227686 -0.013590855
0.4891583 0.038164169 -0.013596561
0.48999378 0.039070271 -0.013009991
0.49002218 0.040005162 -0.013015687
0.49005061 0.04094005 -0.013021384
0.49007902 0.041874938 -0.013027081
0.49091423 0.042773075 -0.01244046
0.4909426 0.043706372 -0.012446147
0.49177766 0.044599734 -0.011859499
0.49180597 0.045531437 -0.011865176
0.49183431 0.046463139 -0.011870854
0.49186262 0.047394842 -0.011876532
0.49189094 0.048326544 -0.011882209
0.49191925 0.049258247 -0.011887887
0.49194759 0.050189953 -0.011893564
0.4919759 0.051121652 -0.011899241
0.49200422 0.052053358 -0.01190492
0.49122629 0.053039327 -0.01250302
0.49125463 0.053972624 -0.012508707
0.491283 0.054905917 -0.012514394
0.49050525 0.055898257 -0.013112536
0.49053368 0.056833144 -0.013118233
0.49056208 0.057768032 -0.01312393
0.49059051 0.05870292 -0.013129626
0.49061891 0.059637811 -0.013135323
0.49064735 0.060572699 -0.01314102
0.49067575 0.061507586 -0.013146718
0.49070418 0.062442474 -0.013152415
0.49073258 0.063377365 -0.013158112
0.49076101 0.064312249 -0.013163809
0.4899838 0.065322109 -0.013762054
0.49081784 0.066182025 -0.013175203
0.49004072 0.067195073 -0.013773467
0.48926365 0.06821131 -0.014371787
0.48929217 0.069149382 -0.014377504
0.48932067 0.070087455 -0.01438322
0.48934919 0.071025528 -0.014388937
0.49018306 0.071877472 -0.013802001
0.49101675 0.072726242 -0.013215081
0.49185038 0.073571824 -0.012628139
0.49187875 0.074505121 -0.012633826
0.49190709 0.075438417 -0.012639513
0.49193546 0.076371714 -0.012645201
0.49196383 0.077305011 -0.012650887
0.49199221 0.078238301 -0.012656575
0.49121568 0.07927046 -0.01325496
0.49124408 0.080205344 -0.013260657
0.4904677 0.081242278 -0.013859067
0.49049616 0.082178764 -0.013864774
0.48971987 0.083220482 -0.014463249
0.48974836 0.084158555 -0.014468965
0.48897228 0.085205048 -0.015067438
0.48900083 0.086144708 -0.015073163
0.48822486 0.087195978 -0.015671661
0.48825347 0.088137239 -0.015677398
0.48747766 0.089193277 -0.016275924
0.48750633 0.090136133 -0.01628167
0.48673061 0.091196969 -0.016880265
0.48675933 0.092141412 -0.01688602
0.48598382 0.093207009 -0.017484605
0.48520839 0.094275795 -0.018083209
0.48523718 0.095223427 -0.018088985
0.485266 0.096171059 -0.018094759
0.48529479 0.097118676 -0.018100534
0.48532358 0.098066308 -0.018106308
0.48615634 0.098883227 -0.017519195
0.48698899 0.099696964 -0.016932061
0.48782158 0.1005075 -0.01634487
0.48865402 0.10131486 -0.015757699
0.48948637 0.10211903 -0.015170506
0.48951495 0.1030587 -0.015176233
0.49034715 0.1038581 -0.014589009
0.49117932 0.1046543 -0.014001734
0.49120778 0.10559078 -0.014007441
0.49123624 0.10652726 -0.014013147
0.4912647 0.10746374 -0.014018854
0.49129316 0.10840022 -0.01402456
0.49132162 0.1093367 -0.014030267
0.49135008 0.11027318 -0.014035974
0.49137858 0.11120967 -0.014041681
0.49221024 0.11199154 -0.013454353
0.49223864 0.11292643 -0.01346005
0.49226707 0.11386131 -0.013465747
0.49229547 0.11479621 -0.013471444
0.49312693 0.11557011 -0.012884065
0.4931553 0.11650342 -0.012889752
0.49318364 0.11743671 -0.01289544
0.49321201 0.11837 -0.012901126
0.49324039 0.11930331 -0.012906814
0.49246597 0.12040553 -0.013505626
0.4924944 0.12134042 -0.013511322
0.49172014 0.12244743 -0.01411016
0.4917486 0.12338391 -0.014115867
0.49097443 0.12449571 -0.014714769
0.49020043 0.12561068 -0.015313658
0.49022898 0.12655035 -0.015319385
0.4894551 0.12767011 -0.0159183
0.48868132 0.12879303 -0.016517235
0.48870999 0.12973589 -0.016522979
0.48793629 0.13086361 -0.017121982
0.48796502 0.13180806 -0.017127737
0.48799372 0.13275251 -0.017133493
0.48802242 0.13369696 -0.017139247
0.48805112 0.13464139 -0.017145002
0.48807985 0.13558583 -0.017150758
0.48730654 0.1367247 -0.01774979
0.48813725 0.13747472 -0.017162269
0.48816594 0.13841917 -0.017168023
0.48899657 0.1391644 -0.016580435
0.48982704 0.13990647 -0.015992865
0.48985565 0.14084773 -0.0159986
0.49068597 0.14158501 -0.015411002
0.49071452 0.14252467 -0.015416727
0.49154469 0.14325719 -0.014829096
0.49237484 0.14398648 -0.014241413
0.4924033 0.14492297 -0.01424712
0.49243176 0.14585947 -0.014252827
0.49246022 0.14679593 -0.014258534
0.49248868 0.14773242 -0.01426424
0.49251714 0.14866889 -0.014269947
0.4925456 0.14960538 -0.014275653
0.49257407 0.15054186 -0.01428136
0.49260253 0.15147834 -0.014287067
0.49263102 0.15241481 -0.014292773
0.49265948 0.15335129 -0.01429848
0.49268794 0.15428779 -0.014304187
0.4927164 0.15522426 -0.014309893
0.49274486 0.15616074 -0.0143156
0.49277332 0.15709722 -0.014321307
0.49280179 0.1580337 -0.014327013
0.49283025 0.15897018 -0.01433272
0.49285874 0.15990667 -0.014338426
0.4928872 0.16084313 -0.014344133
0.49291566 0.16177961 -0.01434984
0.49294412 0.16271611 -0.014355547
0.49297258 0.16365258 -0.014361253
0.49380153 0.16434526 -0.013773383
0.49382997 0.16528015 -0.01377908
0.49385837 0.16621505 -0.013784776
0.4938868 0.16714993 -0.013790473
0.4939152 0.16808483 -0.01379617
0.49394363 0.16901973 -0.013801867
0.49397203 0.16995461 -0.013807564
0.49400046 0.17088948 -0.013813261
0.49402887 0.17182437 -0.013818958
0.4940573 0.17275926 -0.013824655
0.4940857 0.17369415 -0.013830352
0.49331415 0.17489035 -0.014429733
0.49334261 0.17582683 -0.014435439
0.4933711 0.17676331 -0.014441147
0.49339956 0.17769979 -0.014446853
0.49342802 0.17863627 -0.01445256
0.49345648 0.17957276 -0.014458266
0.49348494 0.18050924 -0.014463973
0.49351341 0.18144572 -0.014469679
0.49354187 0.1823822 -0.014475387
0.49357033 0.18331869 -0.014481093
0.49359882 0.18425517 -0.0144868
0.49362728 0.18519165 -0.014492506
0.49365574 0.18612811 -0.014498213
0.4936842 0.1870646 -0.01450392
0.49371266 0.18800108 -0.014509627
0.49374112 0.18893756 -0.014515333
0.49376959 0.18987404 -0.014521039
0.49379805 0.19081052 -0.014526746
0.49382651 0.19174699 -0.014532452
0.493855 0.19268347 -0.01453816
0.49468246 0.19332682 -0.013949987
0.49471086 0.1942617 -0.013955684
0.49473929 0.19519658 -0.013961381
0.4947677 0.19613147 -0.013967078
0.49479613 0.19706637 -0.013972776
0.49482453 0.19800124 -0.013978473
0.49485296 0.19893612 -0.01398417
0.49488136 0.19987103 -0.013989867
0.49490979 0.20080592 -0.013995564
0.49493819 0.2017408 -0.014001261
0.49496663 0.20267569 -0.014006957
0.49499503 0.20361058 -0.014012654
0.49582186 0.20423318 -0.013424354
0.49585024 0.20516647 -0.01343004
0.49587861 0.20609978 -0.013435728
0.49590698 0.20703308 -0.013441416
0.49593532 0.20796637 -0.013447102
0.49596369 0.20889966 -0.01345279
0.49599206 0.20983297 -0.013458477
0.49602044 0.21076626 -0.013464164
0.49684682 0.21137454 -0.012875779
0.49687517 0.21230625 -0.012881456
0.49690348 0.21323794 -0.012887134
0.49693179 0.21416965 -0.012892812
0.4969601 0.21510135 -0.012898489
0.49698845 0.21603306 -0.012904166
0.49701676 0.21696477 -0.012909845
0.49704507 0.21789646 -0.012915522
0.49707338 0.21882817 -0.012921199
0.49710172 0.21975987 -0.012926877
0.49713004 0.22069158 -0.012932554
0.49715835 0.22162327 -0.012938232
0.49718666 0.22255497 -0.01294391
0.497215 0.22348666 -0.012949587
0.49724331 0.22441837 -0.012955264
0.49727163 0.22535007 -0.012960942
0.49729994 0.22628178 -0.01296662
0.49732828 0.22721347 -0.012972297
0.49815375 0.2277915 -0.012383727
0.49818203 0.22872163 -0.012389395
0.49821028 0.22965173 -0.012395063
0.49823856 0.23058183 -0.012400731
0.49826685 0.23151195 -0.012406399
0.49909207 0.2320804 -0.011817733
0.4991203 0.23300891 -0.011823391
0.49914852 0.23393741 -0.011829049
0.49917674 0.23486595 -0.011834707
0.49920496 0.23579445 -0.011840365
0.49923319 0.23672298 -0.011846024
0.49943075 0.24322259 -0.01188563
0.49945897 0.24415112 -0.011891289
0.49948719 0.24507964 -0.011896946
0.49951541 0.24600816 -0.011902605
0.49954364 0.24693666 -0.011908263
0.49957186 0.2478652 -0.011913921
0.49960008 0.24879371 -0.011919579
0.49962831 0.24972221 -0.011925237
0.49965653 0.25065073 -0.011930895
0.49968475 0.25157925 -0.011936554
0.49971297 0.25250778 -0.011942212
0.4997412 0.2534363 -0.011947869
0.49976942 0.25436479 -0.011953528
0.49900189 0.25569481 -0.012553763
0.49903014 0.25662491 -0.01255943
0.49905843 0.25755501 -0.012565098
0.49908671 0.25848514 -0.012570766
0.49911496 0.25941527 -0.012576434
0.49914324 0.26034537 -0.012582102
0.49996698 0.26086444 -0.011993134
0.4999952 0.26179296 -0.011998793
0.49959382 0.30174971 -0.0134265
0.49962214 0.30268142 -0.013432178
0.49965045 0.3036131 -0.013437855
0.49967879 0.30454481 -0.013443533
0.4997071 0.30547652 -0.013449211
0.49973541 0.30640823 -0.013454888
0.49976373 0.30733991 -0.013460565
0.49979207 0.30827165 -0.013466244
0.49982038 0.30920333 -0.013471921
0.4990558 0.31062889 -0.014072699
0.49908417 0.31156218 -0.014078387
0.49911255 0.31249547 -0.014084074
0.49993366 0.31293014 -0.01349463
0.49996197 0.31386185 -0.013500309
0.49999028 0.31479356 -0.013505986
0.49041811 -0.099215642 -0.009924286
0.4904463 -0.098288707 -0.0099299345
0.49047446 -0.097361796 -0.009935583
0.48968959 -0.096637048 -0.010533324
0.48971781 -0.095708519 -0.010538983
0.48974603 -0.094780013 -0.010544641
0.48977426 -0.093851492 -0.0105503
0.48980248 -0.092922986 -0.010555957
0.48901784 -0.092188686 -0.011153794
0.48904613 -0.091258585 -0.011159462
0.48907441 -0.09032847 -0.01116513
0.48910266 -0.089398362 -0.011170797
0.48913094 -0.088468254 -0.011176465
0.48834667 -0.087724403 -0.011774324
0.48837498 -0.0867927 -0.011780001
0.48840329 -0.085860997 -0.011785679
0.4884316 -0.084929295 -0.011791356
0.48845991 -0.083997592 -0.011797033
0.48848826 -0.08306589 -0.011802712
0.48851657 -0.082134187 -0.011808389
0.48854488 -0.081202477 -0.011814066
0.48857319 -0.080270782 -0.011819744
0.48860154 -0.079339072 -0.011825422
0.48862985 -0.07840737 -0.011831099
0.48865816 -0.077475674 -0.011836777
0.48868647 -0.076543972 -0.011842454
0.48871481 -0.075612269 -0.011848131
0.48874313 -0.074680559 -0.011853809
0.48877144 -0.073748864 -0.011859487
0.48879975 -0.072817154 -0.011865164
0.48882809 -0.071885459 -0.011870841
0.48885641 -0.070953749 -0.011876519
0.48888472 -0.070022054 -0.011882197
0.48891303 -0.069090344 -0.011887874
0.48894137 -0.068158649 -0.011893552
0.4881582 -0.067378156 -0.012491633
0.48818654 -0.066444866 -0.012497321
0.48821491 -0.065511577 -0.012503008
0.48824328 -0.064578272 -0.012508695
0.48827165 -0.063644983 -0.012514383
0.48830003 -0.062711678 -0.01252007
0.4883284 -0.061778393 -0.012525757
0.48835677 -0.060845096 -0.012531444
0.48838511 -0.059911795 -0.012537131
0.48841348 -0.058978505 -0.012542819
0.48844185 -0.058045201 -0.012548506
0.48847023 -0.057111915 -0.012554193
0.4884986 -0.056178611 -0.012559881
0.48852697 -0.055245321 -0.012565568
0.48855534 -0.054312028 -0.012571255
0.48858371 -0.053378731 -0.012576942
0.48861206 -0.052445434 -0.01258263
0.48864043 -0.051512133 -0.012588317
0.4886688 -0.050578844 -0.012594004
0.48869717 -0.049645547 -0.012599691
0.48872554 -0.048712254 -0.012605378
0.48875391 -0.047778957 -0.012611066
0.48878229 -0.046845667 -0.012616753
0.48881063 -0.045912366 -0.01262244
0.488839 -0.044979069 -0.012628128
0.48886737 -0.044045776 -0.012633814
0.48889574 -0.043112479 -0.012639502
0.48892412 -0.042179182 -0.01264519
0.48895249 -0.041245889 -0.012650876
0.48898086 -0.040312599 -0.012656564
0.48900923 -0.039379295 -0.012662251
0.48903757 -0.038446002 -0.012667938
0.48906595 -0.037512705 -0.012673626
0.48909432 -0.036579415 -0.012679312
0.48912269 -0.035646122 -0.012685
0.48915106 -0.034712818 -0.012690688
0.48917943 -0.033779521 -0.012696374
0.4892078 -0.032846227 -0.012702062
0.48923615 -0.03191293 -0.012707749
0.48926452 -0.030979643 -0.012713436
0.48929289 -0.030046348 -0.012719124
0.48932126 -0.029113051 -0.01272481
0.48934963 -0.028179755 -0.012730498
0.48937801 -0.027246457 -0.012736185
0.48940638 -0.02631316 -0.012741872
0.48943475 -0.025379864 -0.01274756
0.48946309 -0.024446569 -0.012753247
0.48949146 -0.023513278 -0.012758934
0.48951983 -0.022579981 -0.012764622
0.48873907 -0.021719869 -0.013363188
0.48795843 -0.02085657 -0.013961774
0.48717782 -0.019990087 -0.014560415
0.48720631 -0.019052014 -0.014566132
0.48642591 -0.018180754 -0.015164766
0.48645446 -0.017241087 -0.015170492
0.48648304 -0.016301421 -0.015176218
0.48651159 -0.015361754 -0.015181945
0.48654014 -0.014422091 -0.01518767
0.48656872 -0.013482424 -0.015193396
0.48740593 -0.012485499 -0.014606146
0.48743442 -0.011547427 -0.014611863
0.48746294 -0.010609354 -0.014617579
0.4883 -0.0096188011 -0.014030254
0.48832846 -0.008682318 -0.014035961
0.48835692 -0.0077458387 -0.014041668
0.48838538 -0.0068093594 -0.014047374
0.48922217 -0.0058267699 -0.013460036
0.48844233 -0.0049363934 -0.014058787
0.489279 -0.0039569912 -0.01347143
0.48849925 -0.0030634347 -0.014070201
0.48852772 -0.0021269557 -0.014075908
0.48855618 -0.0011904725 -0.014081614
0.48858464 -0.00025399329 -0.014087321
0.4878051 0.0006475288 -0.014686175
0.48783362 0.0015856017 -0.014691891
0.48786211 0.0025236746 -0.014697608
0.48789063 0.0034617458 -0.014703324
0.48711139 0.0043712328 -0.015302191
0.48713994 0.0053108996 -0.015307918
0.48797616 0.0062759682 -0.014720473
0.48719707 0.0071902289 -0.01531937
0.48722562 0.0081298975 -0.015325096
0.4872542 0.0090695638 -0.015330822
0.48728275 0.010009228 -0.015336548
0.4873113 0.010948897 -0.015342275
0.48733988 0.011888562 -0.015348
0.48736843 0.012828226 -0.015353726
0.48739699 0.013767893 -0.015359453
0.48742557 0.01470756 -0.015365179
0.48826131 0.015656702 -0.014777637
0.48828983 0.016594775 -0.014783354
0.48831832 0.01753285 -0.01478907
0.48834684 0.018470922 -0.014794786
0.48837537 0.019408997 -0.014800502
0.48840389 0.02034707 -0.014806218
0.48843238 0.021285143 -0.014811935
0.4892678 0.022221545 -0.014224281
0.48929626 0.023158025 -0.014229988
0.48932472 0.024094505 -0.014235694
0.48935318 0.025030987 -0.014241401
0.48938164 0.025967468 -0.014247107
0.48941013 0.026903948 -0.014252814
0.48943859 0.027840428 -0.014258521
0.48946705 0.02877691 -0.014264227
0.48949552 0.02971339 -0.014269934
0.48952398 0.030649871 -0.01427564
0.48955244 0.031586353 -0.014281347
0.49038723 0.032503642 -0.013693611
0.49041563 0.03343853 -0.013699308
0.49044406 0.034373417 -0.013705005
0.49127865 0.035284337 -0.01311723
0.49130702 0.036217634 -0.013122918
0.49133539 0.037150927 -0.013128605
0.49136373 0.038084224 -0.013134292
0.49139211 0.039017521 -0.01313998
0.49142048 0.039950814 -0.013145667
0.49144885 0.040884111 -0.013151354
0.49228305 0.04178229 -0.012563501
0.49231136 0.042713992 -0.01256918
0.4923397 0.043645695 -0.012574857
0.49236801 0.044577397 -0.012580534
0.49239632 0.0455091 -0.012586212
0.49242464 0.046440803 -0.012591889
0.49245298 0.047372505 -0.012597567
0.49248129 0.048304208 -0.012603245
0.4925096 0.04923591 -0.012608922
0.49334332 0.050118163 -0.012020973
0.49256626 0.051099315 -0.012620277
0.49259457 0.052031022 -0.012625955
0.49262288 0.05296272 -0.012631632
0.49265119 0.053894423 -0.01263731
0.49267954 0.054826126 -0.012642987
0.49190274 0.055816837 -0.01324235
0.49193111 0.056750134 -0.013248038
0.49195948 0.057683427 -0.013253724
0.49198785 0.058616724 -0.013259412
0.49282113 0.059484642 -0.012671375
0.49284944 0.060416345 -0.012677053
0.49287775 0.061348047 -0.01268273
0.49290609 0.06227975 -0.012688408
0.49293441 0.063211456 -0.012694085
0.49296272 0.064143158 -0.012699762
0.49299103 0.065074861 -0.012705441
0.49301937 0.066006564 -0.012711118
0.49304768 0.066938266 -0.012716795
0.493076 0.067869969 -0.012722473
0.49390873 0.068720371 -0.012134329
0.49393702 0.069650479 -0.012139997
0.4939653 0.070580587 -0.012145665
0.49399355 0.071510695 -0.012151333
0.49402183 0.072440811 -0.012157001
0.49485433 0.073281646 -0.011568762
0.49488255 0.074210159 -0.011574421
0.49491078 0.075138681 -0.011580079
0.494939 0.076067194 -0.011585738
0.49416319 0.077091359 -0.01218534
0.49338752 0.078118697 -0.012784926
0.49341583 0.079050399 -0.012790604
0.49264032 0.080082521 -0.013390219
0.49266866 0.08101581 -0.013395905
0.49189329 0.082052708 -0.01399555
0.49111801 0.083092794 -0.014595213
0.49034277 0.084136061 -0.015194931
0.48956767 0.085182518 -0.015794633
0.48959622 0.086122178 -0.015800361
0.48882127 0.08717341 -0.016400091
0.48884988 0.088114671 -0.016405826
0.48807508 0.089170672 -0.017005587
0.48730034 0.090229876 -0.017605402
0.48732904 0.091174319 -0.017611157
0.48655447 0.092238292 -0.018210966
0.48578003 0.093305446 -0.018810796
0.48580882 0.094253078 -0.01881657
0.4850345 0.095325008 -0.019416427
0.48506334 0.096274227 -0.019422213
0.48509219 0.097223453 -0.019427996
0.48592404 0.098043591 -0.018839668
0.48675576 0.098860547 -0.01825132
0.48758739 0.099674314 -0.017662954
0.48922181 0.10035103 -0.016480392
0.49005321 0.10115684 -0.015891977
0.49088451 0.10195946 -0.015303542
0.49251845 0.10262024 -0.014120882
0.49334949 0.1034149 -0.013532399
0.49418044 0.10420638 -0.012943897
0.49420878 0.10513808 -0.012949575
0.49503958 0.10592477 -0.012361043
0.49506786 0.10685488 -0.012366711
0.49509612 0.10778499 -0.012372378
0.4951244 0.10871511 -0.012378046
0.49515268 0.10964521 -0.012383714
0.49518093 0.11057533 -0.012389382
0.49520922 0.11150543 -0.01239505
0.49523747 0.11243554 -0.012400717
0.49526575 0.11336565 -0.012406386
0.49609613 0.11413641 -0.011817721
0.49612436 0.11506492 -0.011823379
0.49615258 0.11599345 -0.011829037
0.4961808 0.11692197 -0.011834695
0.4954071 0.11801621 -0.012434725
0.49543539 0.11894632 -0.012440393
0.4946619 0.12004532 -0.013040415
0.49469021 0.12097703 -0.013046093
0.49471852 0.12190872 -0.013051771
0.49394521 0.12301411 -0.013651832
0.49317202 0.12412267 -0.014251913
0.49239892 0.12523443 -0.014852013
0.49162585 0.12634937 -0.015452168
0.49085292 0.12746748 -0.016052308
0.4908815 0.12840717 -0.016058033
0.49010873 0.12953004 -0.016658202
0.48933604 0.13065614 -0.017258389
0.48856342 0.13178541 -0.01785863
0.48859215 0.13272986 -0.017864386
0.48862085 0.13367431 -0.017870141
0.48864955 0.13461874 -0.017875897
0.48867825 0.13556319 -0.01788165
0.48870698 0.13650763 -0.017887406
0.48873568 0.13745208 -0.017893162
0.48956531 0.13819894 -0.017304352
0.48959398 0.1391418 -0.017310098
0.49042344 0.13988391 -0.016721295
0.49125281 0.14062281 -0.016132472
0.49208206 0.14135854 -0.015543629
0.49211058 0.14229661 -0.015549346
0.49293974 0.14302756 -0.01496044
0.49376875 0.14375532 -0.014371549
0.49379718 0.14469022 -0.014377246
0.49462605 0.14541321 -0.013788326
0.49385402 0.14655998 -0.014388639
0.49468279 0.1472798 -0.0137997
0.49471116 0.14821307 -0.013805388
0.49473953 0.14914638 -0.013811075
0.49396768 0.15029953 -0.014411427
0.49399608 0.15123443 -0.014417124
0.49402452 0.15216932 -0.014422821
0.49405292 0.1531042 -0.014428518
0.49408135 0.1540391 -0.014434216
0.49410975 0.15497398 -0.014439913
0.49413818 0.15590887 -0.014445609
0.49416658 0.15684375 -0.014451306
0.49419501 0.15777865 -0.014457003
0.49422342 0.15871353 -0.0144627
0.49425185 0.15964842 -0.014468397
0.49428025 0.16058332 -0.014474094
0.49510831 0.16127923 -0.013885009
0.49513668 0.16221252 -0.013890696
0.49516505 0.16314581 -0.013896383
0.49519342 0.1640791 -0.013902071
0.49522176 0.16501239 -0.013907758
0.49525014 0.16594569 -0.013913445
0.49527851 0.16687898 -0.013919133
0.49530688 0.16781229 -0.013924819
0.49533525 0.16874559 -0.013930507
0.49536362 0.16967888 -0.013936195
0.49539199 0.17061219 -0.013941881
0.49542034 0.17154548 -0.013947569
0.49544871 0.17247878 -0.013953256
0.49547708 0.17341207 -0.013958943
0.49550545 0.17434536 -0.013964631
0.49553382 0.17527865 -0.013970317
0.4955622 0.17621194 -0.013976005
0.49559057 0.17714524 -0.013981692
0.49561894 0.17807853 -0.013987379
0.49564728 0.17901184 -0.013993067
0.49567565 0.17994514 -0.013998754
0.49570403 0.18087843 -0.014004441
0.49493381 0.18208574 -0.014605124
0.49496225 0.18302062 -0.01461082
0.49499065 0.18395551 -0.014616517
0.49501908 0.18489039 -0.014622214
0.49504748 0.18582527 -0.014627911
0.49587423 0.1864782 -0.014038565
0.4959026 0.18741149 -0.014044252
0.49593097 0.18834478 -0.014049939
0.49595934 0.18927808 -0.014055626
0.49598771 0.19021139 -0.014061314
0.49601609 0.19114468 -0.014067001
0.49604446 0.19207796 -0.014072688
0.4960728 0.19301128 -0.014078376
0.49610117 0.19394457 -0.014084063
0.49612954 0.19487786 -0.01408975
0.49615791 0.19581115 -0.014095437
0.49618629 0.19674444 -0.014101124
0.49621466 0.19767773 -0.014106812
0.49624303 0.19861104 -0.014112499
0.49627137 0.19954434 -0.014118186
0.49629974 0.20047763 -0.014123873
0.49632812 0.20141092 -0.01412956
0.497154 0.20203516 -0.013540039
0.49718231 0.20296687 -0.013545716
0.49721062 0.20389858 -0.013551394
0.49723896 0.20483027 -0.013557072
0.49726728 0.20576198 -0.013562749
0.49729559 0.20669369 -0.013568426
0.4973239 0.20762539 -0.013574104
0.49735224 0.20855708 -0.013579782
0.49738055 0.20948879 -0.013585459
0.49740887 0.2104205 -0.013591137
0.49823421 0.21102722 -0.013001508
0.49826249 0.21195735 -0.013007176
0.49829075 0.21288745 -0.013012844
0.49831903 0.21381755 -0.013018512
0.49834731 0.21474767 -0.01302418
0.49837556 0.21567778 -0.013029847
0.49840385 0.21660788 -0.013035515
0.4984321 0.217538 -0.013041183
0.49846038 0.21846811 -0.013046851
0.49848866 0.21939822 -0.013052519
0.49851692 0.22032833 -0.013058187
0.4985452 0.22125843 -0.013063855
0.49857345 0.22218855 -0.013069523
0.49860173 0.22311866 -0.013075191
0.49863002 0.22404876 -0.013080859
0.49865827 0.22497886 -0.013086526
0.49868655 0.22590899 -0.013092194
0.49951106 0.22648703 -0.012502355
0.49953929 0.22741555 -0.012508012
0.49956751 0.22834407 -0.012513671
0.49959573 0.22927257 -0.012519329
0.49178949 -0.099956185 -0.010042687
0.49181762 -0.099030867 -0.010048325
0.49184576 -0.098105527 -0.010053964
0.49187389 -0.097180195 -0.010059603
0.49190199 -0.096254863 -0.010065242
0.49193013 -0.095329523 -0.01007088
0.49114633 -0.094603233 -0.010669866
0.49117449 -0.093676306 -0.010675514
0.49120265 -0.092749394 -0.010681162
0.49123085 -0.09182246 -0.01068681
0.49125901 -0.090895541 -0.010692459
0.49047548 -0.090159692 -0.011291501
0.4905037 -0.089231163 -0.011297159
0.49053192 -0.08830265 -0.011302817
0.49056014 -0.087374128 -0.011308475
0.49058837 -0.086445615 -0.011314133
0.49061659 -0.085517101 -0.011319791
0.49064481 -0.084588587 -0.01132545
0.49067304 -0.083660066 -0.011331107
0.49070126 -0.082731545 -0.011336766
0.49072948 -0.081803024 -0.011342424
0.4907577 -0.08087451 -0.011348082
0.49078593 -0.079945996 -0.01135374
0.49081415 -0.079017475 -0.011359398
0.49084237 -0.078088962 -0.011365056
0.49005952 -0.077329233 -0.01196428
0.49008781 -0.076399125 -0.011969948
0.49011609 -0.075469017 -0.011975615
0.49014434 -0.074538894 -0.011981283
0.49017262 -0.073608786 -0.011986951
0.49020088 -0.07267867 -0.011992619
0.49022916 -0.07174857 -0.011998287
0.49025744 -0.070818454 -0.012003954
0.49028569 -0.069888346 -0.012009623
0.49031398 -0.068958238 -0.012015291
0.49034226 -0.06802813 -0.012020959
0.49037051 -0.067098014 -0.012026627
0.48958835 -0.066317573 -0.012625941
0.48961666 -0.065385878 -0.012631618
0.48964497 -0.064454168 -0.012637297
0.48967332 -0.063522473 -0.012642974
0.48970163 -0.062590763 -0.012648651
0.48972994 -0.061659068 -0.012654329
0.48975825 -0.060727358 -0.012660006
0.4897866 -0.059795648 -0.012665684
0.48981491 -0.058863953 -0.012671362
0.48984322 -0.057932243 -0.012677039
0.48987153 -0.057000548 -0.012682716
0.48989987 -0.056068841 -0.012688394
0.48992819 -0.055137146 -0.012694072
0.4899565 -0.054205436 -0.012699749
0.48998481 -0.053273741 -0.012705427
0.49001315 -0.052342031 -0.012711104
0.49004146 -0.051410329 -0.012716782
0.49006978 -0.050478626 -0.01272246
0.49009809 -0.049546927 -0.012728137
0.49012643 -0.048615225 -0.012733814
0.49015474 -0.047683515 -0.012739492
0.49018306 -0.04675182 -0.01274517
0.49021137 -0.04582011 -0.012750847
0.49023971 -0.044888407 -0.012756525
0.49026802 -0.043956708 -0.012762202
0.49029633 -0.043025006 -0.012767879
0.49032465 -0.042093303 -0.012773558
0.49035299 -0.041161601 -0.012779235
0.4903813 -0.040229898 -0.012784912
0.49040961 -0.039298195 -0.01279059
0.49043792 -0.038366493 -0.012796267
0.49046624 -0.037434794 -0.012801945
0.49049458 -0.036503084 -0.012807623
0.49052289 -0.035571381 -0.0128133
0.4905512 -0.034639679 -0.012818977
0.49057952 -0.033707976 -0.012824656
0.49060786 -0.032776274 -0.012830333
0.49063617 -0.031844571 -0.01283601
0.49066448 -0.030912871 -0.012841688
0.49069279 -0.029981168 -0.012847365
0.49072114 -0.029049467 -0.012853043
0.49074945 -0.028117761 -0.01285872
0.49077776 -0.027186055 -0.012864398
0.49080607 -0.026254354 -0.012870075
0.49083441 -0.025322651 -0.012875753
0.49086273 -0.024390949 -0.012881431
0.49089104 -0.023459248 -0.012887108
0.49091935 -0.022527546 -0.012892785
0.49013957 -0.021669062 -0.013492575
0.49016795 -0.020735767 -0.013498262
0.48938829 -0.019872501 -0.014098082
0.48941669 -0.018937616 -0.014103779
0.48863718 -0.018069578 -0.014703626
0.48866567 -0.017133098 -0.014709332
0.48869413 -0.016196616 -0.014715039
0.48872259 -0.015260136 -0.014720745
0.48875105 -0.014323656 -0.014726453
0.48877952 -0.013387177 -0.014732159
0.48961562 -0.012393398 -0.014143657
0.48964402 -0.011458512 -0.014149354
0.48967245 -0.010523623 -0.014155051
0.48970085 -0.009588737 -0.014160748
0.49053672 -0.0086029256 -0.013572196
0.49056509 -0.0076696305 -0.013577883
0.49059346 -0.0067363349 -0.013583571
0.49062181 -0.0058030388 -0.013589257
0.49065018 -0.0048697395 -0.013594945
0.49067855 -0.0039364477 -0.013600633
0.49070692 -0.0030031521 -0.013606319
0.49073529 -0.0020698563 -0.013612007
0.49076366 -0.0011365607 -0.013617694
0.48998502 -0.0002398553 -0.014217718
0.49001345 0.00069503405 -0.014223414
0.48923495 0.0015965167 -0.014823466
0.48926342 0.0025329979 -0.014829172
0.48848504 0.0034392553 -0.015429289
0.48851353 0.0043773321 -0.015435005
0.48854205 0.0053154049 -0.015440721
0.48857057 0.0062534777 -0.015446438
0.48859906 0.0071915505 -0.015452154
0.48862758 0.0081296256 -0.01545787
0.4886561 0.0090676984 -0.015463587
0.48868462 0.010005771 -0.015469303
0.48871312 0.010943846 -0.01547502
0.48874164 0.011881919 -0.015480736
0.48877016 0.012819991 -0.015486453
0.48879868 0.013758065 -0.015492168
0.48882717 0.01469614 -0.015497885
0.48885569 0.015634213 -0.015503601
0.48969039 0.016580207 -0.014914772
0.48971885 0.017516688 -0.014920479
0.48974732 0.01845317 -0.014926185
0.48977578 0.01938965 -0.014931892
0.49061018 0.020327684 -0.01434305
0.49063858 0.021262571 -0.014348747
0.49147284 0.022195825 -0.013759876
0.49150121 0.02312912 -0.013765562
0.49152958 0.024062416 -0.01377125
0.49155796 0.024995711 -0.013776937
0.49158633 0.025929008 -0.013782624
0.4916147 0.026862303 -0.013788312
0.49164307 0.027795598 -0.013793998
0.49167144 0.028728893 -0.013799686
0.49169978 0.029662188 -0.013805374
0.49253356 0.030579517 -0.013216405
0.49256188 0.031511221 -0.013222083
0.49259022 0.032442924 -0.013227761
0.49261853 0.033374626 -0.013233438
0.49264684 0.034306329 -0.013239115
0.49348032 0.0352141 -0.012650088
0.49350861 0.036144212 -0.012655756
0.49353686 0.03707432 -0.012661424
0.49356514 0.038004432 -0.012667092
0.49359342 0.03893454 -0.01267276
0.49281678 0.039896544 -0.01327318
0.49284509 0.040828247 -0.013278859
0.4928734 0.041759949 -0.013284536
0.49290171 0.042691652 -0.013290213
0.49293005 0.043623358 -0.013295891
0.49295837 0.044555061 -0.013301569
0.49379131 0.045445312 -0.012712435
0.49381959 0.046375424 -0.012718102
0.49384785 0.047305532 -0.01272377
0.49387613 0.048235644 -0.012729438
0.49390438 0.049165752 -0.012735106
0.49393266 0.050095864 -0.012740774
0.49396095 0.051025972 -0.012746441
0.4939892 0.051956084 -0.012752109
0.49401748 0.052886195 -0.012757777
0.49404576 0.053816304 -0.012763445
0.49326989 0.054803789 -0.013364022
0.4932982 0.055735495 -0.013369699
0.49332651 0.056667197 -0.013375376
0.49335483 0.057598896 -0.013381055
0.49338314 0.058530599 -0.013386732
0.49421537 0.059396964 -0.012797452
0.49424365 0.060327075 -0.01280312
0.49507576 0.061188657 -0.012213776
0.49510399 0.062117174 -0.012219435
0.49593592 0.062973984 -0.011630097
0.49596411 0.06390091 -0.011635746
0.49599227 0.06482783 -0.011641394
0.49682403 0.065678269 -0.011052018
0.49685213 0.066603601 -0.011057656
0.49688026 0.067528933 -0.011063295
0.4969084 0.068454266 -0.011068934
0.49693653 0.069379598 -0.011074573
0.49696463 0.07030493 -0.011080211
0.49699277 0.071230263 -0.01108585
0.49621767 0.072243229 -0.011686582
0.49624583 0.073170155 -0.011692231
0.49627402 0.074097082 -0.011697879
0.49630219 0.075024009 -0.011703528
0.49552733 0.076044939 -0.012304306
0.49555555 0.076973453 -0.012309965
0.49478081 0.077999167 -0.012910808
0.49480906 0.078929275 -0.012916476
0.4940345 0.079959765 -0.013517315
0.49406281 0.080891468 -0.013522993
0.4932884 0.081926733 -0.014123859
0.49251407 0.082965188 -0.014724746
0.49173984 0.084006824 -0.015325652
0.49096566 0.085051648 -0.015926613
0.49019164 0.086099654 -0.016527556
0.4894177 0.087150842 -0.017128522
0.48864385 0.088205218 -0.017729504
0.48867249 0.089148067 -0.017735248
0.48789877 0.090207234 -0.018336298
0.48712516 0.091269575 -0.018937331
0.48635167 0.092335097 -0.01953838
0.48638046 0.093282729 -0.019544156
0.48560712 0.094353035 -0.020145237
0.48563597 0.095302254 -0.020151021
0.48566481 0.096251473 -0.020156804
0.48569366 0.097200699 -0.02016259
