# .PCD v0.7 - Point Cloud Data file format
VERSION 0.7
FIELDS x y z
SIZE 4 4 4
TYPE F F F
COUNT 1 1 1
WIDTH 1356
HEIGHT 1
VIEWPOINT 0 0 0 1 0 0 0
POINTS 1356
DATA ascii
0.40570256 0.025666716 0.049978096
0.40573218 0.026641419 0.049972154
0.40576181 0.027616123 0.049966216
0.40579143 0.028590828 0.049960274
0.40582106 0.029565532 0.049954336
0.40585071 0.030540235 0.049948398
0.40588033 0.031514943 0.049942456
0.40590996 0.032489646 0.049936518
0.40502822 0.033484329 0.04946534
0.40505788 0.034460623 0.04945939
0.40508756 0.035436921 0.049453441
0.40511724 0.036413219 0.049447492
0.4051469 0.037389517 0.049441542
0.40517658 0.038365811 0.049435593
0.40520626 0.039342109 0.049429644
0.40432492 0.040349532 0.048958387
0.4052656 0.041294701 0.049417745
0.40438434 0.042305309 0.04894647
0.40441409 0.043283202 0.04894051
0.4044438 0.04426109 0.048934553
0.4053843 0.045199893 0.049393948
0.40450326 0.046216868 0.048922632
0.27168146 0.056998003 -0.019051336
0.27262872 0.05815978 -0.018593298
0.27266547 0.059368603 -0.018600665
0.27361268 0.060525596 -0.018142572
0.27455971 0.061679404 -0.017684486
0.27459636 0.062885046 -0.017691832
0.27554324 0.064034075 -0.017233716
0.27557984 0.065238126 -0.017241053
0.27561647 0.066442169 -0.01724839
0.27565306 0.06764622 -0.017255727
0.27659971 0.068787292 -0.016797565
0.27663624 0.069989741 -0.016804891
0.27667281 0.071192198 -0.016812218
0.27670935 0.072394647 -0.016819546
0.27674592 0.073597103 -0.016826874
0.27678245 0.07479956 -0.016834201
0.27681899 0.076002009 -0.016841529
0.27685556 0.077204466 -0.016848857
0.2768921 0.078406923 -0.016856184
0.27692863 0.079609372 -0.01686351
0.2769652 0.080811828 -0.016870838
0.27700174 0.082014278 -0.016878165
0.27703831 0.083216734 -0.016885493
0.27707484 0.084419191 -0.016892821
0.27711138 0.085621648 -0.016900148
0.27714795 0.086824097 -0.016907476
0.27718449 0.088026553 -0.016914804
0.27722102 0.089229003 -0.016922131
0.27725759 0.090431459 -0.016929457
0.27729413 0.091633908 -0.016936785
0.27823982 0.092741527 -0.01647838
0.27827632 0.093942396 -0.016485697
0.27831283 0.095143259 -0.016493015
0.27834931 0.096344121 -0.016500333
0.27838582 0.097544976 -0.01650765
0.27842233 0.098745838 -0.016514968
0.27845883 0.0999467 -0.016522286
0.27849531 0.10114756 -0.016529603
0.27853182 0.10234842 -0.016536921
0.27856833 0.10354929 -0.01654424
0.27860484 0.10475015 -0.016551556
0.27864134 0.10595101 -0.016558874
0.27867782 0.10715187 -0.016566193
0.27871433 0.10835273 -0.016573509
0.27875084 0.10955359 -0.016580828
0.27878734 0.11075445 -0.016588146
0.27882382 0.11195531 -0.016595462
0.27886033 0.11315618 -0.016602781
0.27889684 0.11435704 -0.016610099
0.27893335 0.11555789 -0.016617415
0.27896982 0.11675876 -0.016624734
0.27900633 0.11795962 -0.016632052
0.27904284 0.11916048 -0.016639369
0.27907935 0.12036134 -0.016646687
0.27911583 0.1215622 -0.016654005
0.27915233 0.12276307 -0.016661324
0.27918884 0.12396393 -0.01666864
0.27922535 0.12516479 -0.016675958
0.28016958 0.12622622 -0.016217308
0.28020602 0.12742549 -0.016224617
0.28024247 0.12862477 -0.016231924
0.28027892 0.12982403 -0.016239233
0.28031537 0.1310233 -0.01624654
0.28035185 0.13222258 -0.016253849
0.2803883 0.13342184 -0.016261157
0.28042474 0.1346211 -0.016268466
0.28046119 0.13582037 -0.016275773
0.28049764 0.13701965 -0.016283082
0.28053409 0.13821891 -0.016290389
0.28057054 0.13941818 -0.016297698
0.28060699 0.14061745 -0.016305005
0.28155056 0.14165659 -0.015846221
0.28158697 0.14285426 -0.015853519
0.28162336 0.14405194 -0.015860816
0.28165978 0.14524961 -0.015868114
0.28169617 0.14644729 -0.015875414
0.28173259 0.14764498 -0.015882712
0.28176898 0.14884265 -0.01589001
0.2818054 0.15004033 -0.015897308
0.28184178 0.15123799 -0.015904607
0.28097153 0.15261014 -0.016378086
0.28100798 0.1538094 -0.016385393
0.28104442 0.15500867 -0.016392702
0.28108087 0.15620795 -0.016400009
0.28111732 0.15740721 -0.016407317
0.28024736 0.1587889 -0.016880855
0.28028387 0.15998976 -0.016888171
0.28032035 0.16119063 -0.01689549
0.28035685 0.16239148 -0.016902808
0.28039336 0.16359235 -0.016910125
0.28042987 0.16479321 -0.016917443
0.28046635 0.16599408 -0.016924761
0.28050286 0.16719493 -0.016932078
0.28053936 0.1683958 -0.016939396
0.28148186 0.1693999 -0.016480397
0.28151831 0.17059916 -0.016487706
0.28155476 0.17179844 -0.016495014
0.28159121 0.1729977 -0.016502321
0.28253347 0.17399384 -0.016043274
0.28256986 0.17519152 -0.016050573
0.28260627 0.1763892 -0.016057871
0.28264266 0.17758688 -0.016065169
0.28358468 0.17857505 -0.015606074
0.28362104 0.17977113 -0.015613362
0.2836574 0.18096721 -0.015620651
0.28369373 0.1821633 -0.015627939
0.28373009 0.1833594 -0.015635228
0.28376645 0.18455547 -0.015642516
0.28380281 0.18575156 -0.015649805
0.28383917 0.18694763 -0.015657093
0.28478074 0.18792148 -0.015197911
0.28481704 0.18911597 -0.01520519
0.28485334 0.19031045 -0.015212469
0.28488967 0.19150494 -0.015219748
0.28492597 0.19269943 -0.015227026
0.28496227 0.19389394 -0.015234306
0.2849986 0.19508842 -0.015241585
0.28503489 0.19628292 -0.015248863
0.28507119 0.1974774 -0.015256142
0.28510749 0.19867189 -0.015263421
0.28514382 0.19986637 -0.0152707
0.28518012 0.20106088 -0.015277979
0.28521642 0.20225537 -0.015285258
0.28525272 0.20344986 -0.015292536
0.28528905 0.20464435 -0.015299816
0.28532535 0.20583884 -0.015307095
0.28536165 0.20703332 -0.015314373
0.28539795 0.20822781 -0.015321652
0.28543428 0.20942231 -0.015328932
0.28637493 0.21036427 -0.014869517
0.28641117 0.21155718 -0.014876786
0.28644744 0.21275009 -0.014884055
0.28648371 0.21394297 -0.014891324
0.28651994 0.21513589 -0.014898594
0.28655621 0.21632877 -0.014905863
0.28659245 0.21752168 -0.014913131
0.28662872 0.21871457 -0.0149204
0.28666499 0.21990748 -0.01492767
0.28579733 0.22136723 -0.01540172
0.28583363 0.22256172 -0.015408999
0.28586996 0.22375619 -0.015416279
0.28590626 0.22495069 -0.015423557
0.28594255 0.22614518 -0.015430836
0.28597888 0.22733968 -0.015438115
0.28601518 0.22853416 -0.015445394
0.28605148 0.22972865 -0.015452673
0.2869913 0.23064357 -0.014993093
0.28702757 0.23183645 -0.015000362
0.28706384 0.23302935 -0.015007631
0.28710008 0.23422223 -0.0150149
0.28713635 0.23541515 -0.01502217
0.28807583 0.2363205 -0.01456257
0.28811204 0.2375118 -0.014569828
0.28814825 0.2387031 -0.014577088
0.28818446 0.23989442 -0.014584348
0.28912371 0.24079181 -0.014124699
0.28915986 0.24198152 -0.014131948
0.28919604 0.24317124 -0.014139199
0.28923219 0.24436095 -0.014146448
0.28926837 0.24555066 -0.014153698
0.28930452 0.24674036 -0.014160948
0.28934067 0.24793009 -0.014168197
0.28847414 0.24942486 -0.014642424
0.28851035 0.25061616 -0.014649683
0.28854656 0.25180748 -0.014656942
0.28768021 0.25330862 -0.015131207
0.28681391 0.25481296 -0.01560553
0.28685024 0.25600743 -0.015612808
0.28598413 0.25751656 -0.016087122
0.28602049 0.25871265 -0.016094411
0.28515452 0.26022652 -0.016568752
0.28519094 0.26142421 -0.016576052
0.28522733 0.26262188 -0.01658335
0.28526375 0.26381955 -0.016590647
0.28530014 0.26501721 -0.016597945
0.28533655 0.26621491 -0.016605245
0.28537294 0.26741257 -0.016612543
0.28540936 0.26861024 -0.016619841
0.28634769 0.2694774 -0.016160008
0.28638405 0.27067348 -0.016167296
0.2864204 0.27186957 -0.016174585
0.28735852 0.27273032 -0.015714712
0.28739485 0.27392483 -0.015721992
0.28743115 0.2751193 -0.015729271
0.28836915 0.27597368 -0.015269322
0.28840539 0.27716658 -0.015276591
0.28844166 0.27835947 -0.01528386
0.2884779 0.27955237 -0.015291129
0.2894156 0.28039879 -0.01483117
0.28945181 0.28159013 -0.01483843
0.28948802 0.28278142 -0.014845689
0.28952423 0.28397271 -0.014852948
0.28956044 0.285164 -0.014860208
0.28959668 0.28635535 -0.014867468
0.28963289 0.28754663 -0.014874727
0.2896691 0.28873792 -0.014881987
0.28970531 0.28992924 -0.014889246
0.28974152 0.29112056 -0.014896506
0.28977773 0.29231188 -0.014903765
0.28981394 0.29350314 -0.014911025
0.28985015 0.29469445 -0.014918284
0.28988636 0.29588577 -0.014925543
0.28992257 0.29707709 -0.014932803
0.28995878 0.29826841 -0.014940063
0.28999498 0.29945967 -0.014947322
0.27590808 -0.098944969 -0.014840749
0.27594444 -0.097748905 -0.014848038
0.2759808 -0.096552819 -0.014855327
0.27601716 -0.09535674 -0.014862616
0.27605352 -0.094160646 -0.014869904
0.27517429 -0.093116641 -0.015342629
0.27521071 -0.091918953 -0.015349926
0.2752471 -0.090721279 -0.015357225
0.27528352 -0.089523606 -0.015364523
0.2753199 -0.088325925 -0.015371822
0.27535632 -0.087128252 -0.01537912
0.27539271 -0.085930578 -0.015386418
0.27542913 -0.084732898 -0.015393716
0.27546552 -0.083535224 -0.015401015
0.27550194 -0.082337551 -0.015408313
0.27553833 -0.08113987 -0.015415612
0.27557474 -0.079942189 -0.01542291
0.27561113 -0.078744523 -0.015430208
0.27564755 -0.077546842 -0.015437506
0.27568394 -0.076349169 -0.015444805
0.27572036 -0.075151488 -0.015452103
0.27575675 -0.073953815 -0.015459402
0.27579316 -0.072756141 -0.015466699
0.27582955 -0.071558468 -0.015473998
0.27586597 -0.070360787 -0.015481296
0.27590236 -0.069163106 -0.015488595
0.27502421 -0.068084061 -0.01596152
0.27506065 -0.066884786 -0.015968829
0.2750971 -0.065685518 -0.015976137
0.27513358 -0.06448625 -0.015983446
0.27517003 -0.06328699 -0.015990753
0.27520648 -0.062087715 -0.01599806
0.27524292 -0.060888443 -0.016005369
0.27527937 -0.059689179 -0.016012676
0.27531582 -0.058489904 -0.016019985
0.27535227 -0.05729064 -0.016027292
0.27538875 -0.056091368 -0.016034601
0.2754252 -0.054892108 -0.016041908
0.27546164 -0.053692829 -0.016049217
0.27549809 -0.052493565 -0.016056525
0.27644843 -0.051197972 -0.015598069
0.27648485 -0.050000295 -0.015605368
0.27652124 -0.048802622 -0.015612666
0.27655765 -0.047604945 -0.015619964
0.27659404 -0.046407264 -0.015627263
0.27663046 -0.04520959 -0.015634561
0.27666685 -0.044011913 -0.015641859
0.27670327 -0.04281424 -0.015649157
0.27673966 -0.041616563 -0.015656456
0.27677608 -0.040418889 -0.015663754
0.27681246 -0.039221212 -0.015671052
0.27684888 -0.038023531 -0.01567835
0.27688527 -0.036825854 -0.01568565
0.27692169 -0.035628181 -0.015692947
0.27695808 -0.0344305 -0.015700245
0.2769945 -0.03323283 -0.015707543
0.27703089 -0.032035157 -0.015714843
0.2770673 -0.03083748 -0.015722141
0.27710369 -0.029639807 -0.015729439
0.27714011 -0.02844212 -0.015736736
0.27626359 -0.027308915 -0.016209994
0.27630004 -0.026109651 -0.016217301
0.27633649 -0.024910385 -0.01622461
0.27637294 -0.023711111 -0.016231917
0.27640939 -0.022511847 -0.016239226
0.27735853 -0.021256072 -0.015780527
0.27739492 -0.020058397 -0.015787825
0.27743134 -0.018860715 -0.015795123
0.27746773 -0.017663037 -0.015802423
0.27659166 -0.016515501 -0.016275765
0.4029032 0.003136842 0.047961876
0.40293297 0.0041163238 0.047955904
0.40296274 0.005095806 0.047949936
0.40299249 0.00607529 0.047943968
0.40302226 0.0070547718 0.047938
0.40305203 0.0080342535 0.047932032
0.40399337 0.0090336129 0.048392292
0.40402311 0.010011505 0.048386332
0.40405282 0.010989393 0.048380375
0.40408257 0.011967284 0.048374414
0.40502363 0.012958682 0.048834726
0.40505332 0.013934978 0.048828777
0.405083 0.014911275 0.048822828
0.40602389 0.0158963 0.049283173
0.40605351 0.016871005 0.049277235
0.40608314 0.017845711 0.049271297
0.40611279 0.018820412 0.049265355
0.40614241 0.01979512 0.049259417
0.40617204 0.020769823 0.049253475
0.40711266 0.021743702 0.049713917
0.40714222 0.022716813 0.04970799
0.40717182 0.023689924 0.049702059
0.40720138 0.024663035 0.049696129
0.40723097 0.025636148 0.049690198
0.40726054 0.026609259 0.049684267
0.40729013 0.027582372 0.049678341
0.40731969 0.028555483 0.04967241
0.40734929 0.029528594 0.049666479
0.40737885 0.030501707 0.049660549
0.40649793 0.031491574 0.049188141
0.40652755 0.032466277 0.049182203
0.40655717 0.033440981 0.049176261
0.4065868 0.034415685 0.049170323
0.40661642 0.035390392 0.049164381
0.40573585 0.036389813 0.048691943
0.40576553 0.037366107 0.048685994
0.40579519 0.038342405 0.048680045
0.40582487 0.039318703 0.048674095
0.40585455 0.040295001 0.048668146
0.40588421 0.041271295 0.048662197
0.40591389 0.042247593 0.048656248
0.40594357 0.043223891 0.048650298
0.40506342 0.044237647 0.048177768
0.40509313 0.045215536 0.048171811
0.40512288 0.046193425 0.04816585
0.40515259 0.047171317 0.04815989
0.27521369 0.058033582 -0.018595476
0.27525035 0.059239224 -0.018602824
0.27619639 0.060393073 -0.018143503
0.27623299 0.061597116 -0.01815084
0.27717885 0.06274619 -0.017691493
0.27721542 0.063948646 -0.017698819
0.2781612 0.065092929 -0.017239416
0.27819771 0.066293791 -0.017246732
0.27823421 0.067494653 -0.017254051
0.27827072 0.068695515 -0.017261369
0.2792162 0.069831841 -0.016801942
0.27925268 0.071031116 -0.016809251
0.27928913 0.072230376 -0.016816558
0.27932557 0.073429652 -0.016823867
0.27936202 0.074628919 -0.016831174
0.27939847 0.075828187 -0.016838482
0.27943492 0.077027455 -0.016845791
0.27947137 0.078226723 -0.016853098
0.27950785 0.079425991 -0.016860407
0.27954429 0.080625266 -0.016867714
0.27958074 0.081824526 -0.016875023
0.27961719 0.083023801 -0.01688233
0.27965364 0.084223069 -0.016889639
0.27969009 0.085422337 -0.016896946
0.28063488 0.086534776 -0.016437374
0.28067127 0.087732457 -0.016444674
0.28070769 0.08893013 -0.016451972
0.28074408 0.090127803 -0.016459269
0.28078049 0.091325477 -0.016466567
0.28081688 0.092523158 -0.016473867
0.2808533 0.093720831 -0.016481165
0.28088969 0.094918512 -0.016488463
0.28092611 0.096116185 -0.016495761
0.2809625 0.097313859 -0.01650306
0.28099892 0.098511539 -0.016510358
0.2810353 0.099709213 -0.016517656
0.28107172 0.10090689 -0.016524954
0.28110811 0.10210456 -0.016532253
0.28114453 0.10330225 -0.016539551
0.28118092 0.10449991 -0.016546849
0.28121734 0.10569759 -0.016554147
0.28125373 0.10689527 -0.016561447
0.28129014 0.10809295 -0.016568745
0.28132653 0.10929062 -0.016576042
0.28136295 0.1104883 -0.01658334
0.28139934 0.11168597 -0.01659064
0.28143576 0.11288365 -0.016597938
0.28147215 0.11408133 -0.016605236
0.28150856 0.115279 -0.016612533
0.28154495 0.11647668 -0.016619833
0.28158137 0.11767435 -0.016627131
0.28161776 0.11887203 -0.016634429
0.28165418 0.1200697 -0.016641727
0.28169057 0.12126738 -0.016649026
0.28172699 0.12246506 -0.016656324
0.28176337 0.12366274 -0.016663622
0.28270656 0.12472261 -0.016203718
0.28274292 0.1259187 -0.016211007
0.28277928 0.12711479 -0.016218295
0.28281561 0.12831086 -0.016225584
0.28285196 0.12950695 -0.016232872
0.28288832 0.13070303 -0.016240161
0.28292468 0.13189912 -0.016247449
0.28296104 0.1330952 -0.016254738
0.2829974 0.13429128 -0.016262027
0.28303376 0.13548738 -0.016269317
0.28307012 0.13668346 -0.016276605
0.28310648 0.13787954 -0.016283894
0.28314281 0.13907562 -0.016291182
0.28317916 0.14027169 -0.016298471
0.28321552 0.14146779 -0.01630576
0.28415793 0.14250219 -0.015845712
0.28419423 0.14369668 -0.01585299
0.28423053 0.14489116 -0.015860269
0.28426686 0.14608566 -0.015867548
0.28430316 0.14728016 -0.015874827
0.28433946 0.14847463 -0.015882106
0.28347 0.14984037 -0.016356779
0.28350636 0.15103646 -0.016364068
0.28354272 0.15223254 -0.016371356
0.28357908 0.15342861 -0.016378645
0.28361544 0.1546247 -0.016385933
0.28274629 0.15599999 -0.016860677
0.2827827 0.15719767 -0.016867975
0.28281909 0.15839535 -0.016875273
0.28285551 0.15959302 -0.016882572
0.2828919 0.1607907 -0.01688987
0.28292832 0.16198836 -0.016897168
0.28296471 0.16318604 -0.016904466
0.28300112 0.16438371 -0.016911766
0.28303751 0.16558139 -0.016919063
0.28307393 0.16677907 -0.016926361
0.28311032 0.16797675 -0.016933659
0.28405172 0.16897771 -0.016473398
0.28408805 0.17017378 -0.016480686
0.2841244 0.17136988 -0.016487975
0.28506559 0.17236444 -0.016027683
0.28510192 0.17355895 -0.016034963
0.28513822 0.17475344 -0.016042242
0.28517452 0.17594793 -0.016049521
0.28611553 0.17693454 -0.015589156
0.2861518 0.17812744 -0.015596425
0.28618804 0.17932034 -0.015603694
0.28622431 0.18051323 -0.015610963
0.28626058 0.18170613 -0.015618233
0.28629681 0.18289904 -0.015625501
0.28633308 0.18409193 -0.015632771
0.28636935 0.18528484 -0.015640041
0.28640559 0.18647772 -0.015647309
0.28734607 0.18744841 -0.015186873
0.28738227 0.18863972 -0.015194133
0.28741848 0.18983103 -0.015201393
0.28745469 0.19102232 -0.015208652
0.2874909 0.19221364 -0.015215912
0.28752711 0.19340494 -0.015223172
0.28756332 0.19459625 -0.01523043
0.28759953 0.19578756 -0.01523769
0.28763574 0.19697885 -0.01524495
0.28767195 0.19817017 -0.015252209
0.28770816 0.19936146 -0.015259469
0.28774437 0.20055278 -0.015266728
0.28778058 0.20174408 -0.015273987
0.28781679 0.20293538 -0.015281247
0.287853 0.2041267 -0.015288507
0.28788921 0.20531799 -0.015295766
0.28792542 0.20650931 -0.015303026
0.28796163 0.2077006 -0.015310285
0.28799784 0.20889191 -0.015317544
0.28803405 0.21008322 -0.015324804
0.28807026 0.21127452 -0.015332064
0.28810647 0.21246584 -0.015339323
0.28814268 0.21365713 -0.015346582
0.28817889 0.21484844 -0.015353842
0.2882151 0.21603975 -0.015361101
0.28825131 0.21723105 -0.015368361
0.28828752 0.21842235 -0.015375621
0.28832373 0.21961366 -0.01538288
0.28835994 0.22080497 -0.015390139
0.28839615 0.22199628 -0.015397399
0.28843236 0.22318758 -0.015404658
0.28846857 0.22437888 -0.015411918
0.28850478 0.22557019 -0.015419178
0.28854099 0.22676151 -0.015426436
0.2885772 0.22795281 -0.015433696
0.28861341 0.2291441 -0.015440956
0.28955209 0.23005588 -0.014980162
0.28958827 0.23124559 -0.014987411
0.28962442 0.2324353 -0.01499466
0.28966057 0.23362501 -0.015001911
0.28969675 0.23481473 -0.01500916
0.2897329 0.23600444 -0.01501641
0.29067123 0.23690505 -0.014555547
0.29070735 0.23809317 -0.014562787
0.29074347 0.2392813 -0.014570028
0.29077959 0.24046943 -0.014577268
0.29081568 0.24165753 -0.014584508
0.29175374 0.24254861 -0.014123587
0.29088792 0.24403378 -0.014598988
0.29182586 0.24492165 -0.014138048
0.29186192 0.24610817 -0.014145277
0.29099625 0.24759814 -0.014620708
0.29103237 0.24878627 -0.014627948
0.29106849 0.24997437 -0.014635189
0.29020301 0.25147071 -0.015110658
0.29023916 0.25266042 -0.015117907
0.28937384 0.25416151 -0.015593405
0.28941005 0.25535282 -0.015600665
0.28854486 0.25685871 -0.016076192
0.2885811 0.2580516 -0.01608346
0.287716 0.25956228 -0.016559044
0.28775233 0.26075679 -0.016566323
0.28778863 0.26195127 -0.016573602
0.28782493 0.26314574 -0.01658088
0.28786123 0.26434022 -0.016588159
0.28789756 0.26553476 -0.016595438
0.28793386 0.26672924 -0.016602717
0.28797016 0.26792371 -0.016609997
0.28890744 0.26878768 -0.016148884
0.28894371 0.26998058 -0.016156154
0.28897995 0.27117348 -0.016163422
0.28991699 0.2720311 -0.015702298
0.2899532 0.27322242 -0.015709557
0.29089007 0.27407524 -0.015248403
0.29092625 0.27526495 -0.015255652
0.2909624 0.27645469 -0.015262903
0.29099858 0.2776444 -0.015270152
0.29103473 0.2788341 -0.015277402
0.29197133 0.27967736 -0.01481619
0.29200745 0.28086552 -0.01482343
0.29204354 0.28205362 -0.01483067
0.29207966 0.28324175 -0.01483791
0.29211578 0.28442985 -0.014845151
0.2921519 0.28561801 -0.014852391
0.29218799 0.28680611 -0.014859631
0.29222411 0.28799421 -0.014866871
0.29226023 0.28918236 -0.014874111
0.29229635 0.29037046 -0.014881351
0.29233244 0.29155856 -0.014888591
0.29236856 0.29274669 -0.014895831
0.29240468 0.29393482 -0.014903071
0.2924408 0.29512295 -0.014910311
0.29247692 0.29631108 -0.014917552
0.29251301 0.29749921 -0.014924792
0.29164949 0.29905924 -0.015400649
0.2784594 -0.099846415 -0.014825868
0.27849564 -0.098653503 -0.014833137
0.27853191 -0.097460613 -0.014840406
0.27856818 -0.096267708 -0.014847675
0.27860442 -0.095074818 -0.014854945
0.27864069 -0.093881927 -0.014862214
0.27867696 -0.092689022 -0.014869483
0.2787132 -0.091496132 -0.014876752
0.27874947 -0.090303242 -0.014884022
0.27878571 -0.089110337 -0.014891291
0.27790755 -0.088063166 -0.015365283
0.27794385 -0.086868681 -0.015372561
0.27798015 -0.085674196 -0.015379841
0.27801645 -0.084479704 -0.015387119
0.27805278 -0.083285213 -0.015394398
0.27808908 -0.082090728 -0.015401677
0.27903953 -0.080760047 -0.014942175
0.2781617 -0.079701737 -0.015416235
0.278198 -0.078507252 -0.015423514
0.2782343 -0.077312753 -0.015430792
0.2782706 -0.076118268 -0.015438071
0.27830693 -0.074923776 -0.015445351
0.27834323 -0.073729292 -0.015452629
0.27837953 -0.072534792 -0.015459908
0.27841583 -0.071340308 -0.015467187
0.27845216 -0.070145816 -0.015474466
0.27848846 -0.068951316 -0.015481745
0.2776112 -0.06787549 -0.015955886
0.27764755 -0.066679403 -0.015963174
0.27768391 -0.065483332 -0.015970463
0.27772027 -0.064287245 -0.015977751
0.27775663 -0.063091166 -0.01598504
0.27779299 -0.061895072 -0.015992329
0.27782935 -0.060698986 -0.015999617
0.27786568 -0.059502907 -0.016006906
0.27790204 -0.058306821 -0.016014194
0.2779384 -0.057110745 -0.016021483
0.27797475 -0.055914652 -0.016028771
0.27801111 -0.05471858 -0.01603606
0.27804747 -0.053522486 -0.016043348
0.27808383 -0.052326411 -0.016050637
0.27812019 -0.051130325 -0.016057925
0.27906936 -0.049839471 -0.015598208
0.27910566 -0.048644979 -0.015605486
0.27914199 -0.047450487 -0.015612765
0.27917829 -0.046255995 -0.015620044
0.27921459 -0.045061503 -0.015627323
0.27925089 -0.043867018 -0.015634602
0.27928722 -0.042672526 -0.015641881
0.27932352 -0.041478034 -0.01564916
0.27935982 -0.040283542 -0.015656438
0.27939612 -0.039089058 -0.015663717
0.27943245 -0.037894558 -0.015670996
0.27946874 -0.036700066 -0.015678275
0.27950504 -0.035505582 -0.015685555
0.27954134 -0.03431109 -0.015692834
0.27957767 -0.033116598 -0.015700111
0.27961397 -0.031922106 -0.01570739
0.27965027 -0.030727623 -0.01571467
0.27877459 -0.029600821 -0.016189121
0.27881092 -0.028404737 -0.016196409
0.27884728 -0.02720865 -0.016203698
0.27888364 -0.026012573 -0.016210986
0.27891999 -0.024816487 -0.016218275
0.27895635 -0.023620402 -0.016225563
0.27899271 -0.02242432 -0.016232852
0.27902907 -0.021228239 -0.01624014
0.27906543 -0.020032156 -0.016247429
0.27910176 -0.018836068 -0.016254717
0.27913812 -0.017639985 -0.016262006
0.27917448 -0.016443904 -0.016269295
0.27921084 -0.015247818 -0.016276583
0.40443465 0.0031428291 0.047671273
0.40446436 0.004120721 0.047665317
0.40449411 0.0050986093 0.047659356
0.40452382 0.0060765012 0.047653396
0.40455353 0.0070543899 0.047647439
0.40458328 0.0080322782 0.047641478
0.40461299 0.0090101678 0.047635522
0.4046427 0.0099880602 0.047629561
0.4055829 0.010982678 0.048091084
0.40561256 0.011958975 0.048085134
0.40564224 0.012935275 0.048079185
0.40658224 0.013923523 0.048540749
0.40661186 0.014898228 0.048534811
0.40664148 0.015872933 0.048528869
0.40667111 0.016847637 0.048522931
0.40670073 0.017822342 0.048516989
0.40764049 0.018801035 0.048978638
0.40767008 0.019774148 0.048972707
0.40769964 0.020747259 0.048966777
0.40772924 0.02172037 0.048960846
0.4077588 0.022693481 0.048954919
0.4077884 0.023666594 0.048948988
0.40781796 0.024639705 0.048943058
0.40784755 0.025612818 0.048937127
0.40787712 0.026585929 0.048931196
0.40790671 0.027559042 0.048925269
0.40793628 0.028532153 0.048919339
0.40796587 0.029505264 0.048913408
0.40799543 0.030478375 0.048907477
0.40802503 0.031451486 0.048901547
0.40805459 0.032424599 0.04889562
0.40717477 0.033417612 0.048421957
0.40720439 0.034392316 0.048416018
0.40723401 0.035367023 0.048410077
0.40726364 0.036341727 0.048404139
0.40729326 0.03731643 0.048398197
0.40641379 0.038318999 0.047924504
0.40644348 0.039295297 0.047918554
0.40647316 0.040271591 0.047912605
0.40650281 0.041247889 0.047906656
0.4065325 0.042224187 0.047900707
0.40656218 0.043200485 0.047894757
0.40659183 0.04417678 0.047888808
0.40571275 0.045192089 0.047415037
0.40574247 0.046169978 0.04740908
0.40577221 0.04714787 0.04740312
0.40580192 0.048125759 0.047397159
0.27779457 0.057907544 -0.018592747
0.27783114 0.059109997 -0.018600075
0.27877611 0.060260694 -0.018139465
0.27972093 0.061408211 -0.017678874
0.27975738 0.062607482 -0.017686181
0.27979383 0.06380675 -0.01769349
0.27983028 0.065006018 -0.017700797
0.28077486 0.066145569 -0.017240157
0.28081128 0.067343242 -0.017247455
0.28175572 0.068478018 -0.016786786
0.28179207 0.069674104 -0.016794074
0.28182843 0.070870183 -0.016801363
0.28186479 0.07206627 -0.016808651
0.28190115 0.073262356 -0.01681594
0.28193748 0.074458435 -0.016823228
0.28197384 0.075654522 -0.016830517
0.2820102 0.076850601 -0.016837806
0.28204656 0.078046687 -0.016845094
0.28208292 0.079242773 -0.016852384
0.28211927 0.080438852 -0.016859673
0.28215563 0.081634939 -0.016866961
0.28219199 0.082831025 -0.01687425
0.28222835 0.084027104 -0.016881539
0.28317204 0.085137993 -0.016420724
0.28320837 0.086332478 -0.016428001
0.28324467 0.087526977 -0.01643528
0.28328097 0.088721462 -0.01644256
0.28331727 0.089915954 -0.016449839
0.2833536 0.091110446 -0.016457118
0.2833899 0.092304938 -0.016464397
0.2834262 0.09349943 -0.016471675
0.28346249 0.094693922 -0.016478954
0.28349882 0.095888413 -0.016486233
0.28353512 0.097082898 -0.016493512
0.28357142 0.09827739 -0.016500792
0.28360772 0.099471875 -0.016508069
0.28364405 0.10066637 -0.016515348
0.28368035 0.10186086 -0.016522627
0.28371665 0.10305535 -0.016529907
0.28375298 0.10424984 -0.016537186
0.28378928 0.10544433 -0.016544465
0.28382558 0.10663882 -0.016551742
0.28386188 0.10783331 -0.016559022
0.2838982 0.1090278 -0.016566301
0.2839345 0.11022229 -0.01657358
0.2839708 0.11141679 -0.016580859
0.2840071 0.11261128 -0.016588138
0.28404343 0.11380577 -0.016595416
0.28407973 0.11500026 -0.016602695
0.28411603 0.11619475 -0.016609974
0.28415233 0.11738924 -0.016617253
0.28418866 0.11858373 -0.016624533
0.28422496 0.11977822 -0.016631812
0.28426126 0.12097271 -0.016639089
0.28429756 0.12216721 -0.016646368
0.28433388 0.1233617 -0.016653648
0.285276 0.12441843 -0.016192477
0.28531227 0.12561132 -0.016199745
0.2853485 0.12680422 -0.016207015
0.28538477 0.12799712 -0.016214285
0.28542104 0.12919001 -0.016221553
0.28545728 0.13038291 -0.016228823
0.28549355 0.13157582 -0.016236091
0.28552982 0.13276872 -0.016243361
0.28556606 0.1339616 -0.016250631
0.28560233 0.1351545 -0.016257899
0.2856386 0.13634741 -0.016265169
0.28567484 0.1375403 -0.016272437
0.28571111 0.13873321 -0.016279707
0.28574735 0.13992609 -0.016286977
0.28578362 0.141119 -0.016294245
0.28581989 0.14231189 -0.016301515
0.28585613 0.14350478 -0.016308784
0.2858924 0.14469768 -0.016316053
0.28592867 0.14589059 -0.016323322
0.28596491 0.14708349 -0.01633059
0.28600118 0.14827639 -0.01633786
0.28603745 0.14946929 -0.01634513
0.28607368 0.15066218 -0.016352398
0.28610995 0.15185508 -0.016359668
0.28614619 0.15304796 -0.016366936
0.28527784 0.15441845 -0.0168429
0.28531417 0.15561295 -0.016850177
0.28535047 0.15680744 -0.016857456
0.28538677 0.15800193 -0.016864736
0.28542307 0.15919642 -0.016872015
0.2854594 0.16039091 -0.016879294
0.2854957 0.16158539 -0.016886573
0.285532 0.1627799 -0.016893851
0.28556833 0.16397437 -0.01690113
0.28560463 0.16516887 -0.016908409
0.28564093 0.16636337 -0.016915688
0.28567722 0.16755785 -0.016922968
0.28661758 0.16855566 -0.016461438
0.28665382 0.16974854 -0.016468706
0.28669009 0.17094146 -0.016475976
0.28763017 0.17193288 -0.016014433
0.28766638 0.17312418 -0.016021691
0.28770259 0.1743155 -0.016028952
0.2877388 0.1755068 -0.016036211
0.28867865 0.17649028 -0.015574619
0.2887148 0.17768 -0.01558187
0.28875098 0.17886969 -0.015589119
0.28878713 0.18005942 -0.015596369
0.28882328 0.18124913 -0.015603619
0.28885946 0.18243885 -0.015610868
0.28979895 0.18341117 -0.015149209
0.28983507 0.18459928 -0.015156449
0.28987119 0.18578741 -0.015163689
0.28990731 0.18697554 -0.015170929
0.2899434 0.18816364 -0.015178169
0.28997952 0.18935177 -0.015185409
0.29001564 0.19053988 -0.015192649
0.29005176 0.19172801 -0.015199889
0.29008788 0.19291613 -0.01520713
0.29012397 0.19410425 -0.01521437
0.29016009 0.19529238 -0.01522161
0.29019621 0.19648048 -0.01522885
0.29023233 0.19766861 -0.01523609
0.29026842 0.19885673 -0.01524333
0.29030454 0.20004484 -0.01525057
0.29034066 0.20123297 -0.01525781
0.29037678 0.20242108 -0.01526505
0.29041287 0.20360921 -0.01527229
0.29044899 0.20479733 -0.015279531
0.29048511 0.20598546 -0.015286771
0.29052123 0.20717357 -0.015294011
0.29055732 0.20836169 -0.015301251
0.29059345 0.2095498 -0.015308491
0.29062957 0.21073793 -0.015315731
0.29066569 0.21192604 -0.015322971
0.29070178 0.21311417 -0.015330211
0.2907379 0.2143023 -0.015337451
0.29077402 0.2154904 -0.015344691
0.29081014 0.21667853 -0.015351932
0.29084626 0.21786664 -0.015359172
0.29088235 0.21905477 -0.015366412
0.29091847 0.22024289 -0.015373652
0.29095459 0.22143102 -0.015380892
0.29099071 0.22261915 -0.015388132
0.2910268 0.22380725 -0.015395372
0.29106292 0.22499537 -0.015402612
0.29109904 0.2261835 -0.015409852
0.29113516 0.2273716 -0.015417092
0.29117125 0.22855973 -0.015424332
0.29120737 0.22974786 -0.015431573
0.29214489 0.23065488 -0.014969515
0.29218096 0.2318414 -0.014976745
0.29221702 0.23302794 -0.014983975
0.29225311 0.23421447 -0.014991206
0.29228917 0.23540099 -0.014998437
0.29322645 0.23629844 -0.014536295
0.29326245 0.23748337 -0.014543516
0.29329848 0.23866832 -0.014550736
0.29333448 0.23985325 -0.014557957
0.29337052 0.24103819 -0.014565177
0.29340652 0.24222313 -0.014572398
0.29344255 0.24340805 -0.014579618
0.29347855 0.24459298 -0.014586839
0.29351458 0.24577792 -0.01459406
0.29355058 0.24696288 -0.014601281
0.29358661 0.24814779 -0.014608501
0.29362261 0.24933273 -0.014615722
0.29275799 0.25082585 -0.015092432
0.29279408 0.25201237 -0.015099661
0.29192963 0.25351024 -0.015576374
0.29196575 0.25469837 -0.015583614
0.29110149 0.25620106 -0.016060354
0.29113764 0.25739074 -0.016067605
0.29117382 0.25858045 -0.016074855
0.29030973 0.26008949 -0.016551634
0.29034594 0.2612808 -0.016558895
0.29038215 0.26247209 -0.016566154
0.29041836 0.26366338 -0.016573412
0.29045457 0.26485473 -0.016580673
0.29049078 0.26604602 -0.016587932
0.29052699 0.26723731 -0.016595192
0.29146311 0.26809818 -0.016132852
0.29149926 0.26928788 -0.016140103
0.29243523 0.27014393 -0.015677735
0.29247135 0.27133206 -0.015684975
0.29250747 0.27252018 -0.015692215
0.29254356 0.27370828 -0.015699456
0.29347929 0.2745564 -0.015237039
0.29351535 0.27574292 -0.015244269
0.29355142 0.27692947 -0.0152515
0.29358751 0.27811599 -0.01525873
0.29362357 0.27930251 -0.01526596
0.29455906 0.28014103 -0.01480346
0.29459506 0.28132597 -0.01481068
0.29463109 0.28251091 -0.014817901
0.29466709 0.28369582 -0.014825121
0.29470313 0.28488079 -0.014832342
0.29473913 0.2860657 -0.014839563
0.29477516 0.28725064 -0.014846783
0.29481116 0.28843558 -0.014854005
0.29484719 0.28962052 -0.014861225
0.29488319 0.29080543 -0.014868446
0.29491922 0.29199037 -0.014875666
0.29495522 0.29317534 -0.014882887
0.29499125 0.29436025 -0.014890107
0.29502726 0.29554519 -0.014897328
0.29506329 0.29673013 -0.014904548
0.29509929 0.29791504 -0.01491177
0.29423666 0.29947346 -0.015388877
0.28195682 -0.099389926 -0.014345547
0.28107911 -0.098361902 -0.01482063
0.28111529 -0.097172201 -0.014827879
0.28115144 -0.095982477 -0.014835129
0.28118759 -0.094792776 -0.014842379
0.28122377 -0.09360306 -0.014849628
0.28125992 -0.092413336 -0.014856879
0.28129607 -0.09122362 -0.014864128
0.28133225 -0.090033919 -0.014871378
0.2813684 -0.088844202 -0.014878628
0.28140458 -0.087654479 -0.014885878
0.28144073 -0.086464778 -0.014893128
0.28147689 -0.085275061 -0.014900377
0.28151307 -0.084085353 -0.014907627
0.28154922 -0.082895637 -0.014914877
0.2815854 -0.081705928 -0.014922126
0.28162155 -0.080516212 -0.014929377
0.2816577 -0.079326496 -0.014936626
0.28169388 -0.078136787 -0.014943876
0.28173003 -0.076947071 -0.014951126
0.2808533 -0.075887211 -0.015426402
0.28088951 -0.0746959 -0.015433662
0.28092572 -0.073504597 -0.015440921
0.28096193 -0.072313286 -0.015448181
0.28099814 -0.071121991 -0.01545544
0.28103435 -0.06993068 -0.015462699
0.28015798 -0.068859659 -0.015938044
0.28019422 -0.067666769 -0.015945313
0.28023049 -0.066473864 -0.015952582
0.28026673 -0.065280974 -0.015959851
0.280303 -0.064088076 -0.015967121
0.28033927 -0.062895171 -0.015974389
0.28037551 -0.061702278 -0.015981659
0.28041178 -0.060509373 -0.015988929
0.28044805 -0.059316479 -0.015996197
0.28048429 -0.058123574 -0.016003467
0.28052056 -0.056930684 -0.016010735
0.28055683 -0.055737786 -0.016018005
0.28059307 -0.054544888 -0.016025275
0.28062934 -0.053351991 -0.016032543
0.28066558 -0.05215909 -0.016039813
0.28070185 -0.050966192 -0.016047083
0.28164992 -0.049678486 -0.015586111
0.28168613 -0.048487183 -0.01559337
0.28172234 -0.047295872 -0.01560063
0.28175855 -0.046104565 -0.01560789
0.28179476 -0.044913262 -0.015615148
0.28183097 -0.043721959 -0.015622408
0.28186718 -0.042530652 -0.015629668
0.28190339 -0.041339349 -0.015636927
0.2819396 -0.040148042 -0.015644187
0.28197581 -0.038956739 -0.015651446
0.28201202 -0.037765428 -0.015658706
0.28204823 -0.036574122 -0.015665965
0.28208444 -0.035382818 -0.015673226
0.28120947 -0.034265619 -0.01614885
0.28124574 -0.033072721 -0.01615612
0.28128198 -0.031879824 -0.016163388
0.28131825 -0.030686924 -0.016170658
0.28135452 -0.029494032 -0.016177928
0.28139076 -0.028301127 -0.016185196
0.28142703 -0.02710823 -0.016192466
0.28146327 -0.02591533 -0.016199736
0.28058869 -0.024783801 -0.016675474
0.28062499 -0.023589309 -0.016682753
0.28066128 -0.022394821 -0.016690033
0.28069758 -0.021200329 -0.016697312
0.28073391 -0.020005841 -0.016704589
0.28077021 -0.018811345 -0.016711868
0.28080651 -0.017616853 -0.016719148
0.28084281 -0.016422367 -0.016726427
0.28087914 -0.015227874 -0.016733706
0.40596411 0.0031488957 0.04738313
0.40508398 0.0040972759 0.046908531
0.40511373 0.0050751641 0.046902575
0.40605313 0.0060777874 0.047365282
0.40608281 0.0070540835 0.047359332
0.40611249 0.0080303801 0.047353383
0.40614215 0.0090066772 0.047347434
0.40617183 0.0099829752 0.047341485
0.40620151 0.010959271 0.047335535
0.40623119 0.011935568 0.047329586
0.40626085 0.012911868 0.047323637
0.40719983 0.013900154 0.047786433
0.40722945 0.014874859 0.047780491
0.40725908 0.015849564 0.047774553
0.40728873 0.016824268 0.047768611
0.4082275 0.017804593 0.048231483
0.4082571 0.018777704 0.048225556
0.40828666 0.019750817 0.048219625
0.40831625 0.020723928 0.048213694
0.40834582 0.021697041 0.048207764
0.40837541 0.022670152 0.048201833
0.40840498 0.023643263 0.048195906
0.40843457 0.024616376 0.048189975
0.40937287 0.025582368 0.048652906
0.4094024 0.026553886 0.048646986
0.40852329 0.02753571 0.048172183
0.40855286 0.028508822 0.048166256
0.40858245 0.029481934 0.048160326
0.40861201 0.030455045 0.048154395
0.40864161 0.031428158 0.048148464
0.40867117 0.032401267 0.048142534
0.40870076 0.03337438 0.048136607
0.40782198 0.034368947 0.047661699
0.40785161 0.035343654 0.047655761
0.40788126 0.036318358 0.047649823
0.40791088 0.037293062 0.047643881
0.40794051 0.038267765 0.047637943
0.40706208 0.039271887 0.047163006
0.40709177 0.040248185 0.047157057
0.40712142 0.041224483 0.047151107
0.4071511 0.042200781 0.047145158
0.40627292 0.043212865 0.046670172
0.40721047 0.044153374 0.047133259
0.40633237 0.045168646 0.046658255
0.40636209 0.046146534 0.046652295
0.40639183 0.047124427 0.046646338
0.40642154 0.048102312 0.046640377
0.28040791 0.058980919 -0.018592367
0.28044435 0.060180187 -0.018599676
0.28138813 0.06132615 -0.018137841
0.28142455 0.062523827 -0.018145138
0.28236818 0.06366501 -0.017683275
0.28240451 0.064861096 -0.017690564
0.28334799 0.065997496 -0.01722867
0.28338432 0.067191988 -0.01723595
0.28432772 0.068323612 -0.016774001
0.28436396 0.06951651 -0.016781271
0.28440022 0.070709407 -0.01678854
0.28443649 0.071902305 -0.016795808
0.28447273 0.07309521 -0.016803078
0.284509 0.0742881 -0.016810346
0.28454524 0.075480998 -0.016817616
0.28458151 0.076673903 -0.016824886
0.28461778 0.0778668 -0.016832154
0.28465402 0.079059698 -0.016839424
0.28469029 0.080252595 -0.016846694
0.28472656 0.081445493 -0.016853962
0.2847628 0.08263839 -0.016861232
0.28479907 0.083831288 -0.0168685
0.28574169 0.084939025 -0.016406434
0.2857779 0.086130328 -0.016413692
0.28581411 0.087321639 -0.016420953
0.28585032 0.088512942 -0.016428212
0.28588653 0.089704245 -0.01643547
0.28592274 0.090895548 -0.016442731
0.28595895 0.092086859 -0.01644999
0.28599516 0.09327817 -0.01645725
0.28603137 0.094469473 -0.016464509
0.28606758 0.095660776 -0.016471768
0.28610379 0.096852079 -0.016479028
0.28613999 0.09804339 -0.016486287
0.2861762 0.099234693 -0.016493548
0.28621241 0.100426 -0.016500806
0.28624862 0.1016173 -0.016508065
0.28628483 0.10280861 -0.016515326
0.28632104 0.10399992 -0.016522584
0.28635725 0.10519122 -0.016529845
0.28639346 0.10638253 -0.016537104
0.28642967 0.10757383 -0.016544364
0.28646588 0.10876513 -0.016551623
0.28650209 0.10995644 -0.016558882
0.2865383 0.11114775 -0.016566142
0.28657451 0.11233906 -0.016573401
0.28661072 0.11353036 -0.016580662
0.28664693 0.11472166 -0.01658792
0.28668314 0.11591297 -0.016595179
0.28671935 0.11710428 -0.01660244
0.28675556 0.11829558 -0.016609699
0.28679177 0.11948688 -0.016616959
0.28682798 0.12067819 -0.016624218
0.28686419 0.1218695 -0.016631477
0.2869004 0.12306081 -0.016638737
0.28693661 0.12425211 -0.016645996
0.28787753 0.1253041 -0.016183589
0.28791368 0.12649381 -0.016190838
0.28794986 0.12768352 -0.016198089
0.28798601 0.12887324 -0.016205339
0.28802216 0.13006295 -0.016212588
0.28805834 0.13125268 -0.016219838
0.28809449 0.13244238 -0.016227087
0.28813067 0.13363208 -0.016234338
0.28816682 0.1348218 -0.016241588
0.28820297 0.13601153 -0.016248837
0.28823915 0.13720122 -0.016256087
0.2882753 0.13839094 -0.016263336
0.28831145 0.13958065 -0.016270587
0.28834763 0.14077038 -0.016277837
0.28838378 0.14196007 -0.016285086
0.28841996 0.14314979 -0.016292335
0.28845611 0.1443395 -0.016299585
0.28849226 0.14552921 -0.016306836
0.28852844 0.14671893 -0.016314086
0.28856459 0.14790864 -0.016321335
0.28860077 0.14909837 -0.016328584
0.28863692 0.15028806 -0.016335834
0.28867307 0.15147778 -0.016343085
0.28780565 0.15284343 -0.016820224
0.28784186 0.15403475 -0.016827483
0.28787807 0.15522605 -0.016834743
0.28791428 0.15641735 -0.016842002
0.28795049 0.15760867 -0.016849263
0.2879867 0.15879996 -0.016856521
0.28802291 0.15999128 -0.01686378
0.28805912 0.16118257 -0.016871041
0.28809533 0.16237389 -0.016878299
0.28813154 0.16356517 -0.01688556
0.28816774 0.16475649 -0.016892819
0.28820395 0.16594779 -0.016900079
0.28824016 0.1671391 -0.016907338
0.28917935 0.16813377 -0.016444581
0.28921551 0.16932347 -0.01645183
0.28925169 0.17051318 -0.016459081
0.29019064 0.17150147 -0.015996285
0.29022676 0.1726896 -0.016003525
0.29026288 0.17387772 -0.016010765
0.290299 0.17506583 -0.016018005
0.29123774 0.17604618 -0.015555161
0.2912738 0.1772327 -0.015562392
0.29130986 0.17841923 -0.015569622
0.29134592 0.17960574 -0.015576852
0.29138198 0.18079227 -0.015584083
0.29232049 0.18176304 -0.015121154
0.29235649 0.18294798 -0.015128375
0.29239252 0.18413292 -0.015135596
0.29242855 0.18531783 -0.015142816
0.29246455 0.18650277 -0.015150037
0.29250059 0.18768771 -0.015157257
0.29253659 0.18887265 -0.015164479
0.29257262 0.19005758 -0.015171699
0.29260862 0.1912425 -0.01517892
0.29264465 0.19242746 -0.01518614
0.29268065 0.19361238 -0.015193361
0.29271668 0.19479732 -0.015200581
0.29275268 0.19598226 -0.015207802
0.29278871 0.19716719 -0.015215023
0.29282472 0.19835211 -0.015222244
0.29286075 0.19953705 -0.015229465
0.29289675 0.20072199 -0.015236685
0.29293278 0.20190693 -0.015243906
0.29296878 0.20309186 -0.015251126
0.29300481 0.20427679 -0.015258347
0.29304081 0.20546174 -0.015265567
0.29307684 0.20664667 -0.015272789
0.29311284 0.20783161 -0.015280009
0.29314888 0.20901653 -0.01528723
0.29318488 0.21020147 -0.01529445
0.29322091 0.21138641 -0.015301671
0.29325691 0.21257134 -0.015308891
0.29329294 0.21375628 -0.015316112
0.29332894 0.2149412 -0.015323333
0.29336497 0.21612614 -0.015330554
0.29340097 0.21731107 -0.015337775
0.293437 0.21849602 -0.015344995
0.29347301 0.21968096 -0.015352216
0.29350904 0.22086588 -0.015359436
0.29354504 0.22205082 -0.015366657
0.29358107 0.22323576 -0.015373877
0.29361707 0.2244207 -0.015381099
0.2936531 0.22560564 -0.015388319
0.2936891 0.22679055 -0.01539554
0.29372513 0.22797549 -0.01540276
0.29466158 0.22888099 -0.01493946
0.29469755 0.2300643 -0.014946671
0.29473352 0.23124765 -0.014953882
0.2947695 0.23243098 -0.014961093
0.29480547 0.23361434 -0.014968304
0.29484144 0.23479769 -0.014975515
0.29577756 0.23569199 -0.014512147
0.29581347 0.23687373 -0.014519348
0.29584941 0.2380555 -0.01452655
0.29588532 0.23923725 -0.014533751
0.29592124 0.240419 -0.014540952
0.29595715 0.24160077 -0.014548154
0.29599309 0.2427825 -0.014555355
0.296029 0.24396425 -0.014562556
0.29606491 0.24514599 -0.014569757
0.29610083 0.24632776 -0.014576958
0.29613677 0.24750949 -0.014584159
0.29527307 0.24899778 -0.015062046
0.29530901 0.25018114 -0.015069257
0.29534498 0.25136447 -0.015076469
0.29448149 0.25285912 -0.015554395
0.29451749 0.25404406 -0.015561615
0.29365408 0.25554353 -0.016039597
0.29369015 0.25673002 -0.016046828
0.29372621 0.25791657 -0.016054057
0.29376227 0.25910312 -0.016061287
0.29379833 0.26028964 -0.016068518
0.29383439 0.26147613 -0.016075749
0.29297137 0.26298672 -0.016553771
0.29300749 0.26417485 -0.016561011
0.2939426 0.26503575 -0.016097439
0.29397866 0.26622224 -0.01610467
0.29491368 0.26707834 -0.015641043
0.29494968 0.26826328 -0.015648263
0.29498571 0.26944822 -0.015655484
0.29502171 0.27063313 -0.015662704
0.29595643 0.27148131 -0.015199055
0.2959924 0.27266464 -0.015206265
0.29602838 0.27384797 -0.015213476
0.29606435 0.27503133 -0.015220688
0.29699883 0.27587149 -0.01475699
0.29703474 0.27705324 -0.014764191
0.29707065 0.27823496 -0.014771392
0.29710659 0.27941674 -0.014778594
0.29714251 0.28059849 -0.014785795
0.29717842 0.28178024 -0.014792996
0.29721436 0.28296196 -0.014800197
0.29725027 0.28414375 -0.014807398
0.29728618 0.2853255 -0.014814599
0.29732209 0.28650722 -0.0148218
0.29735804 0.287689 -0.014829002
0.29739395 0.28887075 -0.014836203
0.29742986 0.29005247 -0.014843404
0.29746577 0.29123423 -0.014850606
0.29750171 0.29241598 -0.014857807
0.29753762 0.29359773 -0.014865008
0.29757354 0.29477948 -0.01487221
0.29760948 0.29596126 -0.014879411
0.29764539 0.29714298 -0.014886612
0.2976813 0.29832473 -0.014893813
0.29681969 0.29988149 -0.015372118
0.28453538 -0.099094927 -0.014326866
0.28457141 -0.097909987 -0.014334087
0.28460741 -0.096725054 -0.014341308
0.28373069 -0.095697083 -0.014817649
0.28376675 -0.094510563 -0.014824879
0.28380281 -0.093324035 -0.01483211
0.28383887 -0.092137501 -0.014839341
0.28387493 -0.090950973 -0.014846571
0.28391099 -0.089764453 -0.014853802
0.28394708 -0.088577926 -0.014861031
0.28398314 -0.087391391 -0.014868262
0.2840192 -0.086204864 -0.014875492
0.28405526 -0.085018329 -0.014882723
0.28409132 -0.083831817 -0.014889953
0.28412738 -0.082645275 -0.014897184
0.28416345 -0.081458762 -0.014904414
0.28419951 -0.080272228 -0.014911644
0.2842356 -0.079085693 -0.014918875
0.28427166 -0.077899173 -0.014926105
0.28430772 -0.076712646 -0.014933336
0.28434378 -0.075526118 -0.014940565
0.28346801 -0.074467883 -0.015417054
0.28350413 -0.073279761 -0.015424294
0.28354025 -0.072091639 -0.015431534
0.28357634 -0.070903525 -0.015438775
0.28270084 -0.069837317 -0.015915323
0.28273699 -0.068647601 -0.015922572
0.28277314 -0.067457899 -0.015929822
0.28280932 -0.066268176 -0.015937073
0.28284547 -0.065078475 -0.015944323
0.28288165 -0.063888758 -0.015951572
0.28200644 -0.062811412 -0.016428189
0.28204265 -0.061620101 -0.016435448
0.28207886 -0.060428791 -0.016442707
0.28302628 -0.059129905 -0.015980572
0.28306246 -0.057940189 -0.015987821
0.28309861 -0.056750484 -0.01599507
0.28313476 -0.055560764 -0.01600232
0.28317094 -0.054371055 -0.016009571
0.28320709 -0.053181343 -0.01601682
0.28324324 -0.051991627 -0.01602407
0.28419027 -0.050705474 -0.015561856
0.28422639 -0.04951736 -0.015569095
0.28426251 -0.048329242 -0.015576336
0.28429863 -0.047141116 -0.015583576
0.28433472 -0.045952991 -0.015590816
0.28437084 -0.044764873 -0.015598056
0.28440696 -0.043576758 -0.015605296
0.28444308 -0.042388633 -0.015612536
0.28447917 -0.041200515 -0.015619776
0.28451529 -0.040012397 -0.015627017
0.28455141 -0.038824283 -0.015634257
0.28458753 -0.037636157 -0.015641497
0.28462362 -0.036448032 -0.015648738
0.28374952 -0.035335653 -0.016125567
0.28378567 -0.034145933 -0.016132817
0.28382185 -0.03295622 -0.016140066
0.283858 -0.031766511 -0.016147316
0.28389415 -0.030576799 -0.016154567
0.28393033 -0.029387088 -0.016161816
0.28396648 -0.02819737 -0.016169066
0.28309277 -0.02707224 -0.016645974
0.28312898 -0.025880937 -0.016653232
0.28316519 -0.024689632 -0.016660493
0.2832014 -0.023498327 -0.016667752
0.28232789 -0.02236524 -0.017144708
0.28236416 -0.021172341 -0.017151978
0.28240043 -0.019979447 -0.017159246
0.28243667 -0.018786542 -0.017166516
0.28247294 -0.017593643 -0.017173784
0.28159967 -0.016451003 -0.017650826
0.281636 -0.015256512 -0.017658105
0.40749153 0.0031550352 0.047097452
0.4066124 0.0041017835 0.046621632
0.40664208 0.005078082 0.046615683
0.40667173 0.00605438 0.046609733
0.40670142 0.0070306766 0.046603784
0.4067311 0.0080069732 0.046597835
0.40676078 0.0089832693 0.046591885
0.40679044 0.0099595683 0.046585936
0.40682012 0.010935864 0.046579987
0.4068498 0.011912161 0.046574038
0.40687945 0.012888461 0.046568088
0.40781742 0.013876786 0.047032114
0.40784708 0.01485149 0.047026176
0.4078767 0.015826195 0.047020238
0.40790632 0.016800899 0.047014296
0.40793595 0.017775605 0.047008358
0.40887368 0.018754374 0.04747247
0.40890324 0.019727487 0.047466543
0.40893283 0.020700598 0.047460612
0.4089624 0.021673709 0.047454681
0.40899199 0.02264682 0.047448751
0.40902156 0.023619933 0.04744282
0.40905115 0.024593044 0.047436893
0.40908071 0.025566157 0.047430962
0.40911031 0.026539268 0.047425032
0.40913987 0.027512381 0.047419101
0.40916947 0.028485492 0.04741317
0.40919903 0.029458603 0.047407243
0.40922862 0.030431714 0.047401313
0.40925819 0.031404827 0.047395382
0.40928778 0.03237794 0.047389451
0.40840995 0.033370875 0.046913326
0.40843961 0.034345578 0.046907384
0.40846923 0.035320286 0.046901446
0.40849885 0.036294989 0.046895504
0.40852848 0.037269693 0.046889566
0.40765101 0.038272183 0.046413407
0.40768069 0.039248481 0.046407457
0.40771037 0.040224779 0.046401508
0.40774003 0.041201074 0.046395559
0.40776971 0.042177372 0.04638961
0.40689254 0.043189421 0.045913402
0.40692225 0.04416731 0.045907442
0.40785873 0.045106266 0.046371762
0.40698171 0.046123091 0.045895524
0.40701142 0.04710098 0.045889564
0.40613455 0.048122581 0.045413289
0.40616432 0.049102064 0.045407321
0.28207421 0.058902081 -0.01905011
0.28301698 0.060048085 -0.018587042
0.28305334 0.061244167 -0.01859433
0.28399596 0.062385391 -0.018131232
0.28493851 0.063523419 -0.017668091
0.28497478 0.064716324 -0.017675359
0.28591716 0.06584958 -0.017212214
0.28685942 0.066979654 -0.016749049
0.28598958 0.068232186 -0.017226733
0.28693175 0.069359079 -0.016763547
0.2869679 0.070548788 -0.016770797
0.28700408 0.071738504 -0.016778048
0.28704023 0.07292822 -0.016785298
0.28707638 0.074117929 -0.016792547
0.28711256 0.075307637 -0.016799796
0.28714871 0.076497354 -0.016807046
0.28718489 0.07768707 -0.016814297
0.28722104 0.078876778 -0.016821546
0.28725719 0.080066487 -0.016828796
0.28729337 0.081256203 -0.016836045
0.28732952 0.08244592 -0.016843295
0.2873657 0.083635628 -0.016850546
0.28830719 0.084740222 -0.016387224
0.28834331 0.085928343 -0.016394464
0.28837943 0.087116465 -0.016401704
0.28841552 0.088304579 -0.016408945
0.28845164 0.089492701 -0.016416185
0.28848776 0.090680823 -0.016423425
0.28852388 0.091868944 -0.016430665
0.28855997 0.093057066 -0.016437905
0.28859609 0.094245188 -0.016445145
0.28863221 0.095433302 -0.016452385
0.28866833 0.096621424 -0.016459625
0.28870445 0.097809546 -0.016466865
0.28874055 0.09899766 -0.016474105
0.28877667 0.10018578 -0.016481346
0.28881279 0.1013739 -0.016488586
0.28884891 0.10256203 -0.016495826
0.288885 0.10375014 -0.016503066
0.28892112 0.10493827 -0.016510306
0.28895724 0.10612638 -0.016517546
