# .PCD v0.7 - Point Cloud Data file format
VERSION 0.7
FIELDS x y z
SIZE 4 4 4
TYPE F F F
COUNT 1 1 1
WIDTH 1354
HEIGHT 1
VIEWPOINT 0 0 0 1 0 0 0
POINTS 1354
DATA ascii
0.33067414 0.40706062 -0.021800758
0.33158463 0.40767688 -0.021314748
0.33249509 0.40828991 -0.020828681
0.33340538 0.40889981 -0.02034262
0.33344024 0.41004652 -0.020349609
0.328477 -0.099540278 -0.012730785
0.32851133 -0.098411076 -0.012737666
0.32854563 -0.097281881 -0.012744547
0.32857996 -0.096152693 -0.012751428
0.32861429 -0.095023505 -0.012758309
0.3286486 -0.093894318 -0.01276519
0.32868293 -0.092765115 -0.012772071
0.32871726 -0.09163592 -0.012778952
0.32875156 -0.090506732 -0.012785833
0.3287859 -0.089377545 -0.012792714
0.32882023 -0.088248357 -0.012799595
0.32795915 -0.087271988 -0.013296555
0.32799351 -0.086141206 -0.013303446
0.32802787 -0.085010424 -0.013310337
0.32806227 -0.083879635 -0.013317227
0.32809663 -0.082748853 -0.013324117
0.32723585 -0.081762932 -0.013821136
0.32727027 -0.080630548 -0.013828036
0.32730469 -0.079498179 -0.013834937
0.32733911 -0.078365795 -0.013841837
0.32737353 -0.077233426 -0.013848738
0.32651302 -0.076237954 -0.014345802
0.32654747 -0.075103976 -0.014352713
0.32658195 -0.073970012 -0.014359622
0.32661641 -0.072836034 -0.014366533
0.32665089 -0.071702071 -0.014373443
0.32668534 -0.070568092 -0.014380353
0.32582515 -0.069561489 -0.014877523
0.32585967 -0.068425924 -0.014884443
0.32589418 -0.067290366 -0.014891363
0.32592869 -0.0661548 -0.014898282
0.3259632 -0.065019228 -0.014905202
0.32599771 -0.06388367 -0.014912122
0.32603225 -0.062748112 -0.014919043
0.32606676 -0.061612554 -0.014925962
0.32610127 -0.060476981 -0.014932882
0.32613578 -0.059341427 -0.014939802
0.3261703 -0.058205862 -0.014946721
0.32620481 -0.057070289 -0.014953641
0.32623932 -0.055934735 -0.014960561
0.32627386 -0.054799169 -0.014967481
0.32630837 -0.053663615 -0.0149744
0.32634288 -0.052528042 -0.01498132
0.32637739 -0.051392488 -0.01498824
0.3264119 -0.050256923 -0.014995161
0.32644641 -0.049121358 -0.01500208
0.32648095 -0.047985796 -0.015009
0.32651547 -0.046850231 -0.01501592
0.32654998 -0.045714676 -0.015022839
0.32658449 -0.044579104 -0.015029759
0.326619 -0.043443542 -0.015036679
0.32665351 -0.042307984 -0.015043599
0.32668805 -0.041172422 -0.015050518
0.32672256 -0.040036857 -0.015057438
0.32675707 -0.038901292 -0.015064358
0.32679158 -0.037765738 -0.015071278
0.3268261 -0.036630172 -0.015078198
0.32686061 -0.035494603 -0.015085118
0.32689515 -0.034359045 -0.015092038
0.32782277 -0.033147089 -0.014608386
0.32785726 -0.032013129 -0.014615296
0.32699868 -0.030952355 -0.015112797
0.32792619 -0.029745188 -0.014629116
0.3270677 -0.028681235 -0.015126636
0.32710221 -0.027545672 -0.015133556
0.32713675 -0.026410107 -0.015140476
0.32717127 -0.025274543 -0.015147395
0.32720578 -0.02413898 -0.015154316
0.32724029 -0.02300342 -0.015161236
0.3272748 -0.021867856 -0.015168156
0.32730931 -0.020732297 -0.015175075
0.32734385 -0.019596733 -0.015181995
0.32737836 -0.018461172 -0.015188915
0.32741287 -0.017325604 -0.015195834
0.32744738 -0.016190041 -0.015202754
0.3274819 -0.015054481 -0.015209674
0.32751641 -0.013918918 -0.015216594
0.32755095 -0.012783358 -0.015223513
0.32758546 -0.011647793 -0.015230433
0.32761997 -0.010512234 -0.015237354
0.32765448 -0.0093766702 -0.015244273
0.32768899 -0.008241103 -0.015251193
0.3277235 -0.0071055428 -0.015258113
0.32775801 -0.0059699789 -0.015265033
0.32779256 -0.0048344191 -0.015271952
0.32782707 -0.0036988552 -0.015278872
0.32786158 -0.0025632952 -0.015285792
0.32789609 -0.0014277278 -0.015292712
0.3279306 -0.0002921678 -0.015299631
0.32796511 0.00084339594 -0.015306551
0.32799965 0.0019789559 -0.015313471
0.32803416 0.0031145196 -0.015320391
0.32806867 0.0042500836 -0.015327311
0.32810318 0.0053856433 -0.015334231
0.3281377 0.0065212073 -0.015341151
0.32817221 0.0076567708 -0.01534807
0.32820675 0.0087923324 -0.01535499
0.32824126 0.0099278949 -0.01536191
0.32827577 0.01106346 -0.015368829
0.32831028 0.012199022 -0.015375749
0.32834479 0.013334583 -0.015382669
0.3283793 0.014470146 -0.015389589
0.32841384 0.01560571 -0.015396509
0.32844836 0.016741272 -0.015403429
0.32759196 0.017872119 -0.015901331
0.32762653 0.019009275 -0.01590826
0.3276611 0.020146428 -0.015915189
0.32769567 0.021283586 -0.015922118
0.32773021 0.02242074 -0.015929049
0.32776478 0.023557896 -0.015935978
0.32779935 0.02469505 -0.015942907
0.32783392 0.025832206 -0.015949836
0.32786849 0.02696936 -0.015956767
0.3287935 0.028096896 -0.015472626
0.32882801 0.029232459 -0.015479547
0.32886255 0.030368023 -0.015486467
0.32889706 0.031503584 -0.015493386
0.32893157 0.032639146 -0.015500306
0.32985637 0.033757128 -0.015016082
0.32989082 0.034891095 -0.015022992
0.3299253 0.036025066 -0.015029903
0.32995975 0.037159037 -0.015036812
0.32999423 0.038293008 -0.015043722
0.33002868 0.039426975 -0.015050633
0.33006316 0.040560946 -0.015057542
0.33009762 0.041694917 -0.015064453
0.3301321 0.042828884 -0.015071363
0.33016655 0.043962855 -0.015078273
0.32931125 0.045130335 -0.015576424
0.32934576 0.0462659 -0.015583344
0.32938027 0.047401462 -0.015590264
0.32941478 0.048537023 -0.015597183
0.40349579 0.0533862 0.025127366
0.40352628 0.054389574 0.025121251
0.40444595 0.055338729 0.025606504
0.40447637 0.056340512 0.0256004
0.40539584 0.057284892 0.026085654
0.40542623 0.058285076 0.02607956
0.40634558 0.05922468 0.026564838
0.40637591 0.060223278 0.026558753
0.40729508 0.061158102 0.027044067
0.40732539 0.062155105 0.027037991
0.4073557 0.063152105 0.027031915
0.40827471 0.064080559 0.027517295
0.40830496 0.065075964 0.02751123
0.40833524 0.066071376 0.027505163
0.40836549 0.067066781 0.027499098
0.40839574 0.068062194 0.027493032
0.40842599 0.069057606 0.027486967
0.40934464 0.069974907 0.027972382
0.40937483 0.070968725 0.027966324
0.40940505 0.071962543 0.027960269
0.40943527 0.072956353 0.027954213
0.40946546 0.073950171 0.027948156
0.40949568 0.07494399 0.027942101
0.40952587 0.075937808 0.027936045
0.41044414 0.076842368 0.028421536
0.4104743 0.077834599 0.02841549
0.41050446 0.078826822 0.028409444
0.41053462 0.079819039 0.028403398
0.40967691 0.08090689 0.027905764
0.40970713 0.081900708 0.027899709
0.40973732 0.082894519 0.027893651
0.40976754 0.083888337 0.027887596
0.40979776 0.084882148 0.02788154
0.40982795 0.085875966 0.027875485
0.40985817 0.086869784 0.027869428
0.40988836 0.087863602 0.027863372
0.40991858 0.08885742 0.027857317
0.40906137 0.089961194 0.027359586
0.40909162 0.090956599 0.02735352
0.40912187 0.091952004 0.027347453
0.40915215 0.092947416 0.027341388
0.4091824 0.093942821 0.027335322
0.40921265 0.094938233 0.027329257
0.4092429 0.095933639 0.02732319
0.40927315 0.096929051 0.027317125
0.40841633 0.098047167 0.026819276
0.40844664 0.099044167 0.0268132
0.40847695 0.10004117 0.026807124
0.40850726 0.10103817 0.026801048
0.40853757 0.10203516 0.026794974
0.40856785 0.10303217 0.026788898
0.40771142 0.10416143 0.026291005
0.40774179 0.10516002 0.026284922
0.40777212 0.10615861 0.026278837
0.40780249 0.10715721 0.026272751
0.40783283 0.1081558 0.026266666
0.4078632 0.1091544 0.026260581
0.40789354 0.11015299 0.026254496
0.40792391 0.11115158 0.02624841
0.40795425 0.11215018 0.026242325
0.40709829 0.11329536 0.025744341
0.40712869 0.11429554 0.025738247
0.40715912 0.11529573 0.025732152
0.40718952 0.11629592 0.025726058
0.4063338 0.11744907 0.02522802
0.40547815 0.1186054 0.024729937
0.40462264 0.11976492 0.024231868
0.40465319 0.12076987 0.024225743
0.33037001 0.13857467 -0.017127868
0.33129033 0.13954772 -0.016642788
0.33132491 0.14068489 -0.016649717
0.33135948 0.14182204 -0.016656647
0.33227959 0.14278872 -0.016171528
0.3323141 0.14392428 -0.016178448
0.33234864 0.14505984 -0.016185367
0.33238316 0.1461954 -0.016192287
0.33241767 0.14733097 -0.016199207
0.33245218 0.14846653 -0.016206127
0.33248669 0.14960209 -0.016213046
0.3325212 0.15073766 -0.016219966
0.33255574 0.15187322 -0.016226886
0.33170512 0.15319359 -0.016725942
0.33173966 0.15433075 -0.016732872
0.33177423 0.1554679 -0.016739801
0.33180881 0.15660505 -0.01674673
0.33184338 0.1577422 -0.016753661
0.33187792 0.15887937 -0.01676059
0.33191249 0.16001652 -0.016767519
0.33194706 0.16115367 -0.016774449
0.33198163 0.16229083 -0.016781379
0.3320162 0.16342798 -0.016788308
0.33205074 0.16456515 -0.016795237
0.33208531 0.1657023 -0.016802168
0.33211988 0.16683947 -0.016809097
0.33303896 0.16777109 -0.016323764
0.33307347 0.16890666 -0.016330684
0.33310798 0.17004222 -0.016337603
0.33314249 0.17117777 -0.016344523
0.333177 0.17231335 -0.016351443
0.33409584 0.17323542 -0.015866024
0.33413032 0.17436939 -0.015872935
0.33416477 0.17550336 -0.015879845
0.33419925 0.17663734 -0.015886756
0.33511779 0.17755145 -0.015401327
0.33515221 0.17868383 -0.015408227
0.33518663 0.1798162 -0.015415127
0.33522105 0.18094859 -0.015422028
0.33525547 0.18208095 -0.015428929
0.3352899 0.18321334 -0.015435829
0.33532432 0.18434572 -0.015442729
0.33535874 0.18547809 -0.015449629
0.33539316 0.18661048 -0.01545653
0.33542758 0.18774284 -0.01546343
0.33546197 0.18887523 -0.015470331
0.3354964 0.1900076 -0.015477231
0.33553082 0.19113998 -0.015484132
0.33556524 0.19227235 -0.015491032
0.33559966 0.19340473 -0.015497932
0.33563408 0.1945371 -0.015504832
0.3356685 0.19566949 -0.015511733
0.33570293 0.19680186 -0.015518634
0.33573735 0.19793424 -0.015525534
0.33577177 0.19906661 -0.015532434
0.33580619 0.20019899 -0.015539334
0.33584058 0.20133136 -0.015546235
0.33675802 0.20220888 -0.015060572
0.33679238 0.20333965 -0.015067463
0.33682677 0.20447044 -0.015074354
0.33686113 0.20560122 -0.015081244
0.3368955 0.206732 -0.015088134
0.33692986 0.20786278 -0.015095025
0.33696425 0.20899357 -0.015101916
0.33788127 0.20985834 -0.014616176
0.33703297 0.21125515 -0.015115698
0.33794993 0.21211672 -0.014629938
0.33798423 0.2132459 -0.014636818
0.33713609 0.2146475 -0.01513637
0.33717048 0.21577829 -0.01514326
0.33720484 0.21690907 -0.015150151
0.33723921 0.21803984 -0.015157041
0.33727357 0.21917064 -0.015163932
0.33730796 0.22030142 -0.015170823
0.33734232 0.22143221 -0.015177714
0.33737668 0.22256297 -0.015184605
0.33741108 0.22369379 -0.015191495
0.33744544 0.22482456 -0.015198385
0.3383618 0.22566701 -0.014712509
0.3383961 0.22679619 -0.01471939
0.33843043 0.2279254 -0.014726271
0.33846477 0.22905459 -0.014733152
0.33938092 0.22988905 -0.0142472
0.33941519 0.23101667 -0.014254072
0.33944947 0.23214427 -0.014260943
0.33948374 0.23327185 -0.014267814
0.34039962 0.23409837 -0.013781841
0.34043384 0.2352244 -0.013788703
0.34046808 0.2363504 -0.013795564
0.34050229 0.23747639 -0.013802426
0.33965513 0.23890987 -0.014302171
0.3396894 0.24003746 -0.014309042
0.33972368 0.24116506 -0.014315913
0.33887663 0.24260488 -0.014815724
0.33891094 0.24373409 -0.014822605
0.33894527 0.24486327 -0.014829486
0.33809847 0.24630946 -0.015329309
0.33813286 0.24744025 -0.0153362
0.33816722 0.24857104 -0.015343091
0.33820158 0.24970183 -0.015349981
0.33823594 0.25083259 -0.015356871
0.33827034 0.25196341 -0.015363762
0.3383047 0.25309417 -0.015370653
0.33833906 0.25422496 -0.015377544
0.33837345 0.25535575 -0.015384435
0.3392885 0.25615519 -0.014898296
0.33932281 0.25728437 -0.014905177
0.33935714 0.25841358 -0.014912058
0.34027204 0.25920665 -0.014425854
0.34030631 0.26033422 -0.014432725
0.34034058 0.26146182 -0.014439597
0.34125525 0.26224858 -0.01395338
0.34128949 0.26337457 -0.013960242
0.3404434 0.26484463 -0.014460211
0.34047768 0.26597223 -0.014467082
0.34051198 0.26709983 -0.014473953
0.34142637 0.26787859 -0.013987688
0.34146062 0.26900458 -0.013994549
0.34149483 0.27013057 -0.014001411
0.34152907 0.27125663 -0.014008273
0.34156328 0.27238262 -0.014015134
0.34159753 0.27350861 -0.014021996
0.34163174 0.27463463 -0.014028857
0.34166595 0.27576065 -0.014035719
0.3417002 0.27688664 -0.014042581
0.34173441 0.27801263 -0.014049442
0.34176865 0.27913865 -0.014056304
0.34180287 0.28026465 -0.014063166
0.34183708 0.28139067 -0.014070028
0.34187132 0.28251669 -0.014076889
0.34190553 0.28364268 -0.014083751
0.34193978 0.28476867 -0.014090612
0.34197399 0.28589469 -0.014097474
0.3420082 0.28702071 -0.014104335
0.34204245 0.2881467 -0.014111197
0.34207666 0.2892727 -0.014118058
0.3421109 0.29039872 -0.01412492
0.34214512 0.29152474 -0.014131782
0.34217936 0.29265073 -0.014138643
0.34221357 0.29377675 -0.014145505
0.34224778 0.29490277 -0.014152366
0.34228203 0.29602873 -0.014159228
0.34231624 0.29715475 -0.014166089
0.34235048 0.29828078 -0.014172951
0.3423847 0.29940677 -0.014179813
0.34241891 0.30053279 -0.014186674
0.34245315 0.30165878 -0.014193536
0.34248737 0.30278477 -0.014200397
0.34252161 0.30391079 -0.014207259
0.34255582 0.30503678 -0.01421412
0.34259003 0.3061628 -0.014220982
0.34262428 0.30728883 -0.014227844
0.34265849 0.30841485 -0.014234705
0.34181437 0.30994862 -0.014735062
0.34184864 0.31107622 -0.014741933
0.34188291 0.31220379 -0.014748804
0.34191719 0.3133314 -0.014755676
0.34282961 0.31404486 -0.014269013
0.34286386 0.31517088 -0.014275875
0.34289807 0.31629688 -0.014282736
0.34293231 0.3174229 -0.014289598
0.34296653 0.31854889 -0.014296459
0.34387869 0.31925276 -0.01380975
0.34391287 0.32037717 -0.013816602
0.34394702 0.32150158 -0.013823453
0.344859 0.32219914 -0.013336694
0.34489313 0.32332194 -0.013343536
0.34580493 0.32401469 -0.012856747
0.34583902 0.32513595 -0.01286358
0.25020438 0.40243757 -0.067346074
0.25287321 0.40232429 -0.065872371
0.25554177 0.40220147 -0.064398564
0.25821003 0.40206909 -0.062924735
0.26000169 0.4024018 -0.061944716
0.26179314 0.4027282 -0.060964696
0.26446065 0.40257034 -0.059490688
0.26625165 0.4028824 -0.058510572
0.2680425 0.40318799 -0.057530399
0.27070925 0.40300468 -0.056056224
0.27337563 0.4028118 -0.05458203
0.27604181 0.40260932 -0.05310775
0.27783167 0.40288475 -0.052127406
0.28049731 0.40266475 -0.050653022
0.28316265 0.40243521 -0.049178567
0.28582767 0.40219614 -0.047704089
0.28849241 0.4019475 -0.04622953
0.29115689 0.40168929 -0.0447549
0.29382101 0.40142152 -0.043280248
0.2956093 0.40164277 -0.042299561
0.29827288 0.40135753 -0.040824793
0.30006075 0.40156442 -0.039844017
0.3027238 0.40126166 -0.038369153
0.30451122 0.40145421 -0.03738828
0.30629838 0.40164044 -0.036407396
0.30808541 0.40182027 -0.035426456
0.31074747 0.40148404 -0.033951387
0.31253406 0.40164956 -0.03297035
0.31432042 0.40180871 -0.03198931
0.31610662 0.40196145 -0.031008193
0.31789255 0.40210786 -0.030027065
0.31967834 0.40224791 -0.02904591
0.32146394 0.40238154 -0.028064677
0.32324934 0.40250885 -0.027083443
0.32503456 0.40262973 -0.026102135
0.32594472 0.40326834 -0.025615016
0.32772958 0.4033781 -0.024633676
0.32863957 0.40400872 -0.024146482
0.32954937 0.40463614 -0.023659294
0.33045912 0.40526047 -0.023172101
0.33136874 0.40588152 -0.022684874
0.33227828 0.40649942 -0.02219763
0.33318779 0.40711409 -0.021710338
0.33409712 0.4077256 -0.021223066
0.33500636 0.40833396 -0.020735763
0.33504117 0.40947905 -0.02074274
0.33098239 -0.099226557 -0.012622227
0.3310166 -0.09810055 -0.012629088
0.33105084 -0.096974552 -0.01263595
0.33108506 -0.095848538 -0.012642812
0.3311193 -0.094722532 -0.012649673
0.33115351 -0.093596533 -0.012656535
0.33118775 -0.092470512 -0.012663396
0.33122197 -0.091344513 -0.012670258
0.33125618 -0.090218499 -0.012677119
0.33129042 -0.089092493 -0.012683981
0.33043021 -0.088120945 -0.013182146
0.33046448 -0.086993352 -0.013189017
0.33049875 -0.085865758 -0.013195887
0.33053303 -0.084738158 -0.013202759
0.3305673 -0.083610557 -0.01320963
0.33060157 -0.082482956 -0.013216501
0.32974166 -0.081500269 -0.01371476
0.32977596 -0.080371074 -0.013721641
0.32981029 -0.079241894 -0.013728522
0.32895061 -0.078252822 -0.014226781
0.32898498 -0.07712204 -0.014233672
0.32901934 -0.075991258 -0.014240562
0.32905373 -0.074860469 -0.014247453
0.32908809 -0.073729686 -0.014254344
0.32912245 -0.072598897 -0.014261235
0.3282631 -0.071598686 -0.014759573
0.32829753 -0.070466302 -0.014766473
0.32833195 -0.069333933 -0.014773374
0.32836637 -0.068201549 -0.014780275
0.32840079 -0.06706918 -0.014787175
0.32843521 -0.065936796 -0.014794075
0.32846963 -0.064804412 -0.014800976
0.32850406 -0.063672043 -0.014807876
0.32853848 -0.062539659 -0.014814776
0.3285729 -0.061407294 -0.014821677
0.32860732 -0.06027491 -0.014828578
0.32864171 -0.059142541 -0.014835478
0.32867613 -0.058010157 -0.014842378
0.32871056 -0.056877781 -0.014849278
0.32874498 -0.055745404 -0.014856179
0.3287794 -0.054613028 -0.014863079
0.32881382 -0.053480651 -0.01486998
0.32884824 -0.052348275 -0.01487688
0.32888266 -0.051215898 -0.014883781
0.32891709 -0.050083514 -0.014890681
0.32895151 -0.048951138 -0.014897581
0.32898593 -0.047818761 -0.014904481
0.32902032 -0.046686385 -0.014911382
0.32905474 -0.045554008 -0.014918283
0.32908916 -0.044421632 -0.014925183
0.32912359 -0.043289255 -0.014932083
0.32915801 -0.042156879 -0.014938984
0.32919243 -0.041024502 -0.014945884
0.32922685 -0.039892126 -0.014952784
0.32926127 -0.038759749 -0.014959685
0.32929569 -0.037627373 -0.014966586
0.32933012 -0.036494996 -0.014973486
0.32936454 -0.035362616 -0.014980386
0.32939896 -0.03423024 -0.014987286
0.32943335 -0.033097863 -0.014994187
0.32946777 -0.031965487 -0.015001087
0.3295022 -0.030833108 -0.015007988
0.32953662 -0.029700732 -0.015014888
0.32957104 -0.028568355 -0.015021788
0.32960546 -0.027435979 -0.015028689
0.32963988 -0.026303595 -0.015035589
0.3296743 -0.025171218 -0.015042489
0.32970873 -0.024038844 -0.01504939
0.32974315 -0.022906467 -0.015056291
0.32977757 -0.021774091 -0.015063191
0.32981196 -0.020641714 -0.015070091
0.32984638 -0.019509338 -0.015076991
0.3298808 -0.018376961 -0.015083892
0.32991523 -0.017244577 -0.015090792
0.32994965 -0.016112201 -0.015097693
0.32998407 -0.014979824 -0.015104593
0.33001849 -0.013847448 -0.015111494
0.33005291 -0.012715071 -0.015118394
0.33008733 -0.011582695 -0.015125294
0.33012176 -0.010450318 -0.015132194
0.33015618 -0.009317942 -0.015139095
0.33019057 -0.008185558 -0.015145996
0.33022499 -0.007053182 -0.015152896
0.33025941 -0.0059208055 -0.015159796
0.33029383 -0.004788429 -0.015166697
0.33032826 -0.0036560528 -0.015173597
0.33036268 -0.0025236765 -0.015180497
0.3303971 -0.0013912963 -0.015187398
0.33043152 -0.0002589199 -0.015194299
0.33046594 0.00087345653 -0.015201199
0.33050036 0.002005833 -0.015208099
0.33053479 0.003138213 -0.015214999
0.33056918 0.0042705894 -0.0152219
0.3306036 0.0054029659 -0.0152288
0.33063802 0.0065353424 -0.015235701
0.33067244 0.0076677203 -0.015242601
0.33070686 0.0088000968 -0.015249502
0.33074129 0.0099324733 -0.015256402
0.33077571 0.011064852 -0.015263302
0.33081013 0.01219723 -0.015270202
0.33084455 0.013329607 -0.015277104
0.33087897 0.014461983 -0.015284004
0.33091339 0.015594361 -0.015290904
0.33094779 0.016726738 -0.015297804
0.33098221 0.017859114 -0.015304705
0.33012679 0.018988332 -0.015803829
0.33016127 0.020122303 -0.015810739
0.33019572 0.021256272 -0.01581765
0.33023021 0.022390241 -0.01582456
0.33026466 0.023524212 -0.01583147
0.33029914 0.024658181 -0.015838381
0.33122316 0.025785755 -0.015353007
0.33125758 0.026918132 -0.015359907
0.331292 0.02805051 -0.015366809
0.3313264 0.029182887 -0.015373709
0.33136082 0.030315263 -0.015380609
0.33139524 0.031447642 -0.015387509
0.33231893 0.032564066 -0.014902069
0.33235329 0.033694852 -0.014908959
0.33238766 0.034825638 -0.01491585
0.33242205 0.03595642 -0.014922741
0.33156735 0.037109528 -0.015422012
0.33249077 0.038217992 -0.014936523
0.33252513 0.039348774 -0.014943413
0.33255953 0.040479559 -0.014950303
0.331705 0.041639037 -0.015449613
0.33173943 0.042771414 -0.015456514
0.33177385 0.04390379 -0.015463414
0.33180827 0.045036167 -0.015470314
0.33184269 0.046168543 -0.015477215
0.33187711 0.047300924 -0.015484115
0.40232456 0.052457567 0.023371898
0.40324336 0.053413134 0.023858313
0.40327391 0.054418098 0.023852188
0.40419254 0.055368889 0.024338638
0.40422302 0.056372263 0.024332523
0.40514159 0.057318274 0.024819029
0.40605998 0.058261096 0.025305523
0.40609041 0.059261285 0.025299426
0.40612081 0.060261473 0.025293332
0.40703902 0.061197929 0.025779864
0.40706936 0.062196523 0.025773779
0.40798742 0.063128203 0.026260339
0.40801772 0.064125203 0.026254263
0.4089357 0.0650521 0.026740884
0.40896595 0.066047512 0.02673482
0.40899619 0.067042917 0.026728753
0.40902647 0.068038329 0.026722688
0.40905672 0.069033735 0.026716622
0.40908697 0.070029147 0.026710557
0.40911722 0.071024552 0.02670449
0.4091475 0.072019964 0.026698425
0.40917775 0.073015369 0.026692359
0.409208 0.074010782 0.026686294
0.40923825 0.075006187 0.026680227
0.41015559 0.075913981 0.02716694
0.41018578 0.076907799 0.027160883
0.410216 0.077901609 0.027154827
0.41024622 0.078895427 0.027148772
0.41027641 0.079889245 0.027142715
0.41030663 0.080883063 0.027136659
0.41033682 0.081876881 0.027130604
0.4094803 0.082969464 0.026631702
0.40951055 0.083964869 0.026625637
0.4095408 0.084960274 0.02661957
0.40957108 0.085955687 0.026613504
0.40960133 0.086951099 0.026607439
0.40963158 0.087946504 0.026601372
0.40966183 0.088941917 0.026595308
0.40969208 0.089937329 0.026589241
0.40972236 0.090932734 0.026583176
0.40886626 0.092041254 0.026084151
0.40889654 0.093038253 0.026078075
0.40892684 0.094035253 0.026071999
0.40895715 0.095032252 0.026065925
0.40898746 0.096029259 0.026059849
0.40901777 0.097026259 0.026053773
0.40816206 0.098145917 0.025554713
0.4081924 0.099144511 0.025548628
0.40822276 0.1001431 0.025542542
0.4082531 0.10114171 0.025536457
0.40828347 0.10214029 0.025530372
0.40831381 0.10313889 0.025524287
0.40834418 0.10413748 0.025518201
0.40837452 0.10513608 0.025512116
0.40751925 0.10627007 0.025012968
0.40754965 0.10727026 0.025006874
0.40758005 0.10827044 0.025000779
0.40761045 0.10927063 0.024994684
0.40764084 0.11027082 0.024988588
0.40767124 0.111271 0.024982493
0.40770164 0.11227119 0.024976399
0.40773204 0.11327138 0.024970304
0.40687722 0.11441971 0.024471069
0.40690765 0.11542148 0.024464965
0.40605292 0.1165746 0.023965668
0.40608341 0.11757798 0.023959553
0.40522885 0.11873585 0.023460254
0.40437442 0.11989693 0.02296094
0.404405 0.12090348 0.022954807
0.40266579 0.12222861 0.021962255
0.33381483 0.14032312 -0.016543211
0.33384928 0.14145708 -0.01655012
0.33388376 0.14259104 -0.01655703
0.33391821 0.14372501 -0.016563941
0.33483714 0.14468537 -0.016077548
0.33487156 0.14581774 -0.016084449
0.33490598 0.14695013 -0.01609135
0.3349404 0.14808249 -0.01609825
0.33497483 0.14921488 -0.016105151
0.33500925 0.15034726 -0.016112052
0.33504367 0.15147963 -0.016118951
0.33507809 0.15261202 -0.016125852
0.33422843 0.15393074 -0.016626131
0.33426288 0.15506472 -0.016633041
0.33429736 0.15619868 -0.016639952
0.33433184 0.15733266 -0.016646862
0.33436629 0.15846662 -0.016653772
0.33440077 0.1596006 -0.016660683
0.33443522 0.16073456 -0.016667591
0.33446971 0.16186853 -0.016674502
0.33450416 0.16300251 -0.016681412
0.33453864 0.16413647 -0.016688323
0.33457309 0.16527045 -0.016695233
0.33460757 0.16640441 -0.016702143
0.33552554 0.16733292 -0.016215557
0.33555993 0.16846529 -0.016222458
0.33559436 0.16959767 -0.016229358
0.33562878 0.17073004 -0.016236259
0.3356632 0.17186242 -0.016243158
0.33569762 0.17299479 -0.016250059
0.33661523 0.17391215 -0.015763406
0.33664963 0.17504293 -0.015770296
0.33668399 0.17617372 -0.015777187
0.33760142 0.17708468 -0.015290505
0.33763576 0.17821388 -0.015297387
0.33767009 0.17934307 -0.015304267
0.33770439 0.18047225 -0.015311149
0.33773872 0.18160145 -0.01531803
0.33777305 0.18273064 -0.01532491
0.33780736 0.18385984 -0.015331792
0.33784169 0.18498904 -0.015338672
0.33787599 0.18611822 -0.015345554
0.33791032 0.18724741 -0.015352434
0.33794466 0.18837661 -0.015359315
0.33797896 0.18950579 -0.015366197
0.33801329 0.190635 -0.015373077
0.33804762 0.19176419 -0.015379959
0.33808193 0.19289337 -0.015386839
0.33811626 0.19402257 -0.01539372
0.33815059 0.19515176 -0.015400602
0.33818489 0.19628096 -0.015407482
0.33821923 0.19741014 -0.015414364
0.33825356 0.19853933 -0.015421244
0.33828786 0.19966851 -0.015428125
0.33832219 0.20079772 -0.015435006
0.33923855 0.20167205 -0.014948064
0.33927283 0.20279965 -0.014954936
0.33930713 0.20392725 -0.014961807
0.3393414 0.20505485 -0.014968678
0.33937567 0.20618244 -0.01497555
0.33940995 0.20731004 -0.014982421
0.33944422 0.20843765 -0.014989292
0.33947849 0.20956524 -0.014996164
0.33951277 0.21069284 -0.015003035
0.33954704 0.21182045 -0.015009906
0.33958131 0.21294804 -0.015016777
0.33961558 0.21407564 -0.015023649
0.33964986 0.21520326 -0.01503052
0.33968413 0.21633084 -0.015037391
0.3397184 0.21745843 -0.015044262
0.33975267 0.21858606 -0.015051134
0.33978695 0.21971364 -0.015058005
0.33982122 0.22084123 -0.015064876
0.33985549 0.22196883 -0.015071747
0.33988976 0.22309643 -0.015078618
0.33992404 0.22422403 -0.015085489
0.33995831 0.22535163 -0.015092361
0.34087351 0.22618935 -0.014605222
0.34090775 0.22731535 -0.014612083
0.34094197 0.22844136 -0.014618945
0.34185699 0.22927269 -0.014131768
0.34189117 0.23039712 -0.014138619
0.34192532 0.23152153 -0.014145471
0.34195951 0.23264594 -0.014152323
0.34199369 0.23377034 -0.014159175
0.34202787 0.23489478 -0.014166027
0.34206206 0.23601919 -0.014172879
0.34209621 0.23714361 -0.014179731
0.34213039 0.23826802 -0.014186583
0.34216458 0.23939243 -0.014193434
0.34219876 0.24051684 -0.014200286
0.34223291 0.24164125 -0.014207138
0.34138691 0.24307945 -0.014708146
0.34142113 0.24420546 -0.014715008
0.34145534 0.24533147 -0.014721869
0.34148958 0.24645747 -0.014728731
0.34064379 0.24790362 -0.015229787
0.34067807 0.24903122 -0.015236658
0.34071234 0.25015882 -0.015243529
0.34074661 0.25128642 -0.015250401
0.34078088 0.25241402 -0.015257272
0.34169492 0.2532135 -0.0147699
0.34172916 0.25433952 -0.014776762
0.34176338 0.25546551 -0.014783623
0.34179759 0.25659153 -0.014790485
0.34271142 0.25738305 -0.014303064
0.34274557 0.25850746 -0.014309916
0.34277976 0.25963187 -0.014316768
0.34281394 0.26075628 -0.01432362
0.34284812 0.26188073 -0.014330472
0.34288228 0.26300511 -0.014337324
0.34291646 0.26412952 -0.014344175
0.34295064 0.26525393 -0.014351027
0.34298483 0.26637837 -0.014357879
0.34301901 0.26750278 -0.014364731
0.34305316 0.2686272 -0.014371583
0.34308735 0.26975161 -0.014378435
0.34312153 0.27087602 -0.014385287
0.34403467 0.27164525 -0.013897742
0.3440688 0.27276808 -0.013904584
0.34410292 0.27389091 -0.013911426
0.34413704 0.27501372 -0.013918268
0.34417117 0.27613652 -0.013925111
0.34420529 0.27725935 -0.013931952
0.34423944 0.27838218 -0.013938795
0.34427357 0.27950501 -0.013945637
0.34430769 0.28062782 -0.013952479
0.34434181 0.28175065 -0.013959321
0.34437594 0.28287348 -0.013966164
0.34441006 0.28399628 -0.013973006
0.34444422 0.28511912 -0.013979848
0.34447834 0.28624195 -0.01398669
0.34451246 0.28736475 -0.013993532
0.34454659 0.28848758 -0.014000375
0.34458071 0.28961042 -0.014007216
0.34461483 0.29073322 -0.014014059
0.34377089 0.2922399 -0.014515473
0.34380507 0.29336432 -0.014522324
0.34383926 0.29448873 -0.014529176
0.34387341 0.29561311 -0.014536028
0.34390759 0.29673752 -0.01454288
0.34394178 0.29786196 -0.014549731
0.34397596 0.29898638 -0.014556583
0.34401011 0.30011079 -0.014563436
0.3440443 0.3012352 -0.014570287
0.34407848 0.30235964 -0.014577139
0.34411266 0.30348405 -0.014583991
0.34414685 0.30460843 -0.014590843
0.344181 0.30573285 -0.014597694
0.34421518 0.30685726 -0.014604546
0.34424937 0.30798167 -0.014611398
0.34428355 0.30910608 -0.014618251
0.34431773 0.31023052 -0.014625102
0.34435189 0.31135494 -0.014631954
0.34438607 0.31247935 -0.014638806
0.34442025 0.31360373 -0.014645658
0.34445444 0.31472817 -0.014652509
0.34536567 0.31543526 -0.014164587
0.3453998 0.31655809 -0.014171428
0.34543392 0.31768093 -0.01417827
0.34546807 0.31880376 -0.014185113
0.34637904 0.31950289 -0.01369713
0.34729001 0.32019883 -0.0132091
0.34732404 0.32131851 -0.013215923
0.34735808 0.32243812 -0.013222746
0.34826878 0.32312772 -0.012734716
0.34830275 0.32424578 -0.012741529
0.25015026 0.40287477 -0.068844482
0.25281617 0.40276316 -0.067367062
0.25548178 0.40264207 -0.065889575
0.25727168 0.40298441 -0.064907186
0.25993672 0.40284577 -0.063429587
0.2617262 0.40317383 -0.062447105
0.2635155 0.40349549 -0.061464552
0.26617977 0.4033314 -0.059986845
0.26796865 0.40363872 -0.059004202
0.26975727 0.40393969 -0.05802156
0.27242079 0.40375009 -0.056543648
0.27508399 0.40355092 -0.055065725
0.27774692 0.40334222 -0.053587697
0.28040957 0.40312394 -0.052109621
0.28219706 0.40338668 -0.051126745
0.28573397 0.40265873 -0.04915332
0.28839573 0.40241182 -0.047675069
0.29105717 0.40215534 -0.046196785
0.29284373 0.40238619 -0.045213677
0.29550463 0.40211219 -0.043735288
0.29816529 0.40182865 -0.042256813
0.30082569 0.40153548 -0.040778283
0.30261126 0.40173611 -0.03979503
0.30527112 0.40142548 -0.03831638
0.30705625 0.40161178 -0.037333038
0.30884129 0.40179166 -0.036349632
0.31062603 0.40196523 -0.035366204
0.31241062 0.40213245 -0.034382746
0.3150692 0.40178037 -0.032903854
0.31685337 0.40193319 -0.031920269
0.31863731 0.4020797 -0.030936688
0.32042107 0.4022198 -0.029953064
0.32220468 0.40235353 -0.028969366
0.32398805 0.4024809 -0.027985666
0.32577124 0.40260187 -0.027001889
0.32755423 0.40271649 -0.026018111
0.32846323 0.40335035 -0.025529731
0.3293722 0.403981 -0.025041305
0.33028102 0.40460846 -0.024552895
0.33118975 0.40523282 -0.024064455
0.33209836 0.40585393 -0.023575997
0.33300689 0.40647185 -0.023087529
0.33391538 0.40708655 -0.022599006
0.3348237 0.40769812 -0.022110488
0.33573195 0.40830648 -0.021621963
0.33576676 0.4094516 -0.021628942
0.3334837 -0.098912708 -0.012508761
0.33351782 -0.097789884 -0.012515604
0.33355194 -0.096667066 -0.012522446
0.33358607 -0.095544234 -0.012529287
0.33362019 -0.094421424 -0.01253613
0.33365431 -0.093298592 -0.012542972
0.33279482 -0.092336647 -0.0130423
0.332829 -0.091212235 -0.013049152
0.33286318 -0.090087816 -0.013056003
0.33289737 -0.088963404 -0.013062855
0.33293152 -0.087838985 -0.013069707
0.3329657 -0.086714581 -0.013076559
0.33299989 -0.085590161 -0.013083411
0.33303407 -0.08446575 -0.013090263
0.33306825 -0.083341338 -0.013097115
0.33220923 -0.082363449 -0.013596551
0.33224347 -0.08123745 -0.013603413
0.33227769 -0.080111437 -0.013610275
0.3323119 -0.078985438 -0.013617136
0.33145314 -0.077999592 -0.014116621
0.33148742 -0.076871999 -0.014123492
0.33152169 -0.07574439 -0.014130363
0.33155596 -0.07461679 -0.014137235
0.33159024 -0.073489197 -0.014144106
0.33162451 -0.072361596 -0.014150977
0.33165878 -0.071234003 -0.014157848
0.33080035 -0.070235424 -0.014657426
0.33083466 -0.069106236 -0.014664306
0.33086899 -0.067977041 -0.014671187
0.33090332 -0.066847853 -0.014678068
0.33093762 -0.065718658 -0.014684949
0.33097196 -0.064589463 -0.014691831
0.33100629 -0.063460276 -0.014698711
0.33104059 -0.062331077 -0.014705592
0.33107492 -0.061201897 -0.014712473
0.33110926 -0.060072698 -0.014719354
0.33114356 -0.05894351 -0.014726236
0.33117789 -0.057814315 -0.014733116
0.33121222 -0.056685116 -0.014739998
0.33124653 -0.055555928 -0.014746878
0.33128086 -0.05442673 -0.014753759
0.33131519 -0.053297549 -0.01476064
0.33134949 -0.052168354 -0.014767521
0.33138382 -0.051039163 -0.014774402
0.33141816 -0.049909968 -0.014781283
0.33145246 -0.048780777 -0.014788164
0.33148679 -0.047651589 -0.014795045
0.33152112 -0.046522394 -0.014801926
0.33155543 -0.045393202 -0.014808807
0.33158976 -0.044264007 -0.014815688
0.33162406 -0.04313482 -0.014822569
0.33165839 -0.042005621 -0.01482945
0.33080134 -0.040964041 -0.015329274
0.3308357 -0.039833259 -0.015336165
0.33087006 -0.038702477 -0.015343056
0.33179569 -0.037488859 -0.014856974
0.33182999 -0.036359668 -0.014863855
0.33186433 -0.035230473 -0.014870736
0.33189866 -0.034101281 -0.014877617
0.33193296 -0.032972086 -0.014884498
0.33196729 -0.031842899 -0.014891379
0.33200163 -0.030713709 -0.01489826
0.33203593 -0.029584512 -0.014905141
0.33207026 -0.028455323 -0.014912022
0.33210459 -0.027326133 -0.014918903
0.3321389 -0.026196936 -0.014925784
0.33217323 -0.025067749 -0.014932665
0.33220756 -0.023938552 -0.014939546
0.33224186 -0.022809362 -0.014946427
0.3322762 -0.021680169 -0.014953308
0.33231053 -0.020550981 -0.014960188
0.33145437 -0.019479137 -0.015460198
0.33148873 -0.018348355 -0.015467089
0.33152312 -0.017217563 -0.015473979
0.33155748 -0.016086778 -0.015480869
0.33159184 -0.014955995 -0.01548776
0.33162621 -0.013825212 -0.015494651
0.3316606 -0.01269443 -0.015501542
0.33169496 -0.011563643 -0.015508433
0.33172932 -0.01043286 -0.015515323
0.33176371 -0.0093020769 -0.015522214
0.33179808 -0.0081712874 -0.015529105
0.33183244 -0.0070405044 -0.015535995
0.3318668 -0.0059097181 -0.015542886
0.33190119 -0.0047789351 -0.015549777
0.33193555 -0.0036481523 -0.015556667
0.33196992 -0.0025173659 -0.015563558
0.33200431 -0.0013865795 -0.015570449
0.33203867 -0.00025579674 -0.01557734
0.33207303 0.000874986 -0.01558423
0.33210739 0.0020057724 -0.01559112
0.33214179 0.0031365589 -0.015598011
0.3330656 0.0042912466 -0.01511157
0.33221051 0.0053981245 -0.015611793
0.3322449 0.0065289107 -0.015618684
0.33227926 0.0076596956 -0.015625574
0.33231363 0.00879048 -0.015632465
0.33234802 0.0099212648 -0.015639355
0.33238238 0.011052052 -0.015646247
0.33241674 0.012182834 -0.015653137
0.33245111 0.013313618 -0.015660027
0.3324855 0.014444403 -0.015666919
0.33251986 0.015575189 -0.015673809
0.33255422 0.016705973 -0.015680701
0.33258861 0.017836757 -0.01568759
0.33262298 0.018967541 -0.01569448
0.33265734 0.020098327 -0.015701372
0.3326917 0.021229111 -0.015708262
0.33272609 0.022359895 -0.015715154
0.33276045 0.02349068 -0.015722044
0.33279482 0.024621464 -0.015728934
0.33371773 0.025745893 -0.015242309
0.33375207 0.026875084 -0.01524919
0.33378637 0.028004276 -0.015256071
0.3338207 0.029133467 -0.015262952
0.33474344 0.030249931 -0.014776263
0.33477771 0.031377532 -0.014783135
0.33481199 0.032505129 -0.014790006
0.33573446 0.033615224 -0.014303293
0.33488053 0.03476033 -0.014803749
0.3349148 0.035887927 -0.01481062
0.33494908 0.037015527 -0.014817491
0.33498335 0.038143124 -0.014824362
0.33501762 0.039270725 -0.014831234
0.3341639 0.040425386 -0.015331762
0.33419824 0.041554581 -0.015338643
0.33423257 0.042683773 -0.015345524
0.33337912 0.043844804 -0.015846075
0.33341348 0.044975586 -0.015852967
0.33344787 0.046106372 -0.015859857
0.3325946 0.047273774 -0.016360449
0.40207511 0.052482791 0.022099165
0.40299293 0.05343999 0.022586804
0.40302354 0.054446548 0.02258067
0.40394121 0.055398971 0.023068339
0.40397176 0.056403935 0.023062214
0.40488929 0.057351578 0.023549911
0.4049198 0.058354951 0.023543796
0.40583724 0.059297811 0.024031555
0.40675455 0.060237493 0.0245193
0.40678495 0.061237678 0.024513206
0.40770209 0.062172581 0.02500098
0.40773246 0.063171178 0.024994895
0.40864944 0.064101301 0.025482703
0.40867975 0.065098301 0.025476629
0.40871006 0.0660953 0.025470553
0.40962693 0.067019053 0.025958423
0.40965718 0.068014458 0.025952356
0.40968743 0.06900987 0.025946289
0.40971768 0.070005283 0.025940225
0.40974796 0.071000688 0.025934158
0.40977821 0.0719961 0.025928093
0.40980846 0.072991505 0.025922026
0.40983871 0.073986918 0.025915962
0.40986896 0.074982323 0.025909895
0.40989923 0.075977735 0.02590383
0.40992948 0.07697314 0.025897764
0.40995973 0.077968553 0.025891699
0.40998998 0.078963958 0.025885632
0.41002026 0.07995937 0.025879567
0.41005051 0.080954783 0.025873501
0.41008076 0.081950188 0.025867436
0.41011101 0.0829456 0.025861369
0.41014126 0.083941005 0.025855305
0.41017154 0.08493641 0.025849238
0.40931615 0.086035334 0.025349043
0.40934643 0.087032333 0.025342969
0.40937674 0.08802934 0.025336893
0.40940705 0.089026347 0.025330817
0.40943736 0.090023346 0.025324741
0.40946767 0.091020346 0.025318667
0.40949798 0.092017353 0.025312591
0.40864304 0.093129002 0.024812339
0.40867338 0.094127595 0.024806254
0.40870371 0.095126197 0.024800168
0.40873408 0.096124783 0.024794085
0.40876442 0.097123384 0.024788
0.40879479 0.098121978 0.024781914
0.40794018 0.099244788 0.0242816
0.40797058 0.10024497 0.024275506
0.40800098 0.10124516 0.024269411
0.40803137 0.10224534 0.024263315
0.40806177 0.10324553 0.02425722
0.40809217 0.10424571 0.024251126
0.4081226 0.10524591 0.024245031
0.408153 0.10624609 0.024238937
0.4081834 0.10724628 0.024232842
0.40821379 0.10824646 0.024226746
0.40824419 0.10924666 0.024220651
0.40739018 0.11038857 0.023720222
0.40742061 0.11139034 0.023714118
0.40745106 0.11239212 0.023708012
0.40748152 0.11339391 0.023701908
0.40662768 0.1145438 0.023201397
0.40665817 0.11554717 0.023195283
0.40668866 0.11655054 0.023189168
0.40583509 0.1177068 0.022688651
0.40586564 0.11871175 0.022682527
0.40501219 0.11987279 0.02218198
0.40415883 0.121037 0.021681415
0.40242165 0.12236366 0.020686354
0.40245238 0.123375 0.020680193
0.33545139 0.14126109 -0.016933182
0.33548582 0.14239347 -0.016940081
0.33640373 0.14335385 -0.016452458
0.33643812 0.14448464 -0.016459348
0.33647248 0.14561541 -0.016466238
0.33739021 0.14656943 -0.015978575
0.33742452 0.14769863 -0.015985455
0.33745885 0.14882782 -0.015992336
0.33749318 0.14995702 -0.015999218
0.33664432 0.15126933 -0.016500693
0.33667871 0.15240012 -0.016507583
0.33671308 0.1535309 -0.016514473
0.33674744 0.15466169 -0.016521364
0.3367818 0.15579247 -0.016528254
0.33681619 0.15692326 -0.016535146
0.33685055 0.15805405 -0.016542036
0.33688492 0.15918483 -0.016548926
0.33691931 0.16031562 -0.016555818
0.33695367 0.16144639 -0.016562708
0.33698803 0.16257718 -0.0165696
0.33702239 0.16370796 -0.016576489
0.33705679 0.16483876 -0.016583381
0.33709115 0.16596954 -0.016590271
0.33800802 0.16689488 -0.016102433
0.33804232 0.16802408 -0.016109314
0.33807665 0.16915327 -0.016116194
0.33811098 0.17028247 -0.016123075
0.33902764 0.17119983 -0.015635174
0.33906192 0.17232744 -0.015642045
0.33909619 0.17345503 -0.015648916
0.33913046 0.17458263 -0.015655788
0.34004685 0.17549206 -0.015167852
0.34008107 0.17661805 -0.015174713
0.34011528 0.17774408 -0.015181575
0.34014952 0.17887008 -0.015188437
0.34018373 0.17999607 -0.015195298
0.34021798 0.18112208 -0.01520216
0.34025219 0.1822481 -0.015209021
0.34028643 0.18337409 -0.015215883
0.34032065 0.1845001 -0.015222744
0.34035486 0.18562612 -0.015229606
0.3403891 0.18675213 -0.015236468
0.34042332 0.18787813 -0.015243329
0.34045756 0.18900412 -0.015250191
0.34049177 0.19013014 -0.015257052
0.34052598 0.19125615 -0.015263914
0.34056023 0.19238216 -0.015270775
0.34059444 0.19350816 -0.015277637
0.34062868 0.19463415 -0.015284498
0.3406629 0.19576018 -0.01529136
0.34069711 0.19688618 -0.015298222
0.34073135 0.19801219 -0.015305083
0.34076557 0.19913818 -0.015311945
0.34168082 0.20001099 -0.014823786
0.34171501 0.20113541 -0.014830638
0.34174919 0.20225981 -0.014837489
0.34178337 0.20338422 -0.014844342
0.34181753 0.20450863 -0.014851194
0.34185171 0.20563306 -0.014858046
0.34188589 0.20675746 -0.014864897
0.34192008 0.20788188 -0.014871749
0.34195426 0.20900631 -0.014878601
0.34198841 0.21013072 -0.014885453
0.3420226 0.21125512 -0.014892305
0.34205678 0.21237953 -0.014899157
0.34209096 0.21350396 -0.014906009
0.34212515 0.21462838 -0.01491286
0.3421593 0.21575278 -0.014919712
0.34219348 0.21687719 -0.014926564
0.34222767 0.21800162 -0.014933417
0.34226185 0.21912603 -0.014940268
0.34229603 0.22025043 -0.01494712
0.34233019 0.22137484 -0.014953972
0.34236437 0.22249927 -0.014960824
0.34239855 0.22362368 -0.014967675
0.34243274 0.22474808 -0.014974527
0.34246689 0.22587249 -0.014981379
0.34250107 0.22699693 -0.014988231
0.34341508 0.22782831 -0.014499832
0.34344921 0.22895113 -0.014506673
0.34348336 0.23007394 -0.014513516
0.34439716 0.23089896 -0.014025066
0.34443122 0.23202017 -0.014031898
0.34446532 0.23314141 -0.01403873
0.34449941 0.23426265 -0.014045564
0.34453347 0.23538387 -0.014052396
0.34456757 0.23650509 -0.014059228
0.34460163 0.23762634 -0.014066061
0.34463573 0.23874757 -0.014072893
0.34466979 0.23986878 -0.014079725
0.34382463 0.24130215 -0.014581937
0.34385875 0.24242498 -0.01458878
0.3438929 0.2435478 -0.014595622
0.34392703 0.24467061 -0.014602464
0.3430821 0.24611197 -0.015104713
0.34311625 0.24723637 -0.015111565
0.34315044 0.24836078 -0.015118416
0.34318462 0.24948519 -0.015125268
0.3432188 0.25060961 -0.015132121
0.34325299 0.25173402 -0.015138973
0.34328714 0.25285843 -0.015145824
0.34420004 0.2536532 -0.014657201
0.34423417 0.25477603 -0.014664044
0.34426829 0.25589883 -0.014670885
0.34430245 0.25702164 -0.014677728
0.34521508 0.25780845 -0.014189045
0.34524915 0.25892967 -0.014195877
0.34528324 0.26005089 -0.01420271
0.3453173 0.26117215 -0.014209542
0.3453514 0.26229337 -0.014216375
0.34538549 0.26341459 -0.014223207
0.34541956 0.26453581 -0.01423004
0.34545365 0.26565704 -0.014236872
0.34548771 0.26677826 -0.014243704
0.34552181 0.26789948 -0.014250537
0.34555587 0.26902074 -0.01425737
0.34558997 0.27014196 -0.014264202
0.34562403 0.27126318 -0.014271035
0.34653607 0.27202767 -0.013782189
0.3465701 0.27314731 -0.013789012
0.34660414 0.27426693 -0.013795835
0.34663814 0.27538657 -0.013802658
0.34667218 0.27650619 -0.013809481
0.34670621 0.27762583 -0.013816303
0.34674025 0.27874547 -0.013823126
0.34677428 0.27986512 -0.013829948
0.34680831 0.28098476 -0.013836771
0.34684235 0.2821044 -0.013843594
0.34687638 0.28322402 -0.013850417
0.34691042 0.28434366 -0.01385724
0.34694445 0.2854633 -0.013864063
0.34697849 0.28658295 -0.013870886
0.34701252 0.28770256 -0.013877708
0.34704652 0.2888222 -0.01388453
0.34708056 0.28994182 -0.013891353
0.34711459 0.29106146 -0.013898176
0.34714863 0.2921811 -0.013904999
0.34718266 0.29330075 -0.013911822
0.3472167 0.29442036 -0.013918645
0.34725073 0.29554 -0.013925467
0.34640789 0.29705146 -0.014428181
0.34644195 0.29817268 -0.014435014
0.34647605 0.29929391 -0.014441846
0.34651011 0.30041513 -0.014448678
0.34654421 0.30153638 -0.014455511
0.34657827 0.3026576 -0.014462343
0.34661236 0.3037788 -0.014469176
0.34664646 0.30490002 -0.014476008
0.34668052 0.30602127 -0.014482841
0.34671462 0.3071425 -0.014489673
0.34674868 0.30826372 -0.014496505
0.34678277 0.30938497 -0.014503338
0.34681684 0.31050619 -0.014510171
0.34685093 0.31162742 -0.014517003
0.346885 0.31274864 -0.014523835
0.34779525 0.31345418 -0.014034632
0.34782928 0.31457382 -0.014041454
0.34786329 0.31569344 -0.014048276
0.34789732 0.31681311 -0.014055099
0.34793136 0.31793272 -0.014061922
0.34884125 0.31862876 -0.013572698
0.34887525 0.31974679 -0.013579511
0.34890923 0.32086486 -0.013586324
0.34981892 0.32155448 -0.013097049
0.34985286 0.32267094 -0.013103852
0.3507624 0.32335576 -0.012614559
0.35079628 0.32447064 -0.012621353
0.2500982 0.40331185 -0.07034532
0.25276113 0.40320197 -0.068864204
0.25542369 0.40308261 -0.067383073
0.25721169 0.40342662 -0.066398188
0.25987372 0.40328971 -0.064916931
0.26166126 0.40361938 -0.063931972
0.26344857 0.40394276 -0.062946998
0.26610988 0.40378034 -0.061465561
0.26789674 0.40408933 -0.060480502
0.26968345 0.40439194 -0.059495363
0.27234399 0.40420404 -0.058013771
0.27500421 0.40400663 -0.056532159
0.27679023 0.40428692 -0.055546887
0.27944991 0.40407199 -0.054065157
0.28210935 0.40384746 -0.052583341
0.28476849 0.40361336 -0.051101469
0.28742728 0.40336975 -0.049619574
0.29008585 0.40311655 -0.048137587
0.2927441 0.40285376 -0.046655536
0.29540205 0.40258148 -0.045173459
0.29805973 0.40229964 -0.043691292
0.30071706 0.40200824 -0.042209096
0.30337417 0.40170723 -0.040726814
0.3051576 0.40190157 -0.039741032
0.30781412 0.40158311 -0.038258668
0.30959713 0.40176305 -0.037272796
0.31137988 0.40193671 -0.036286913
0.31316242 0.40210399 -0.035300978
0.31581798 0.40175205 -0.033818386
0.31760013 0.40190494 -0.032832347
0.31938207 0.40205151 -0.031846296
0.3211638 0.4021917 -0.030860208
0.32294539 0.40232548 -0.029874044
0.32472673 0.40245295 -0.028887877
0.32650793 0.402574 -0.027901646
0.32828888 0.40268871 -0.02691539
0.3291969 0.40332258 -0.026425786
0.33010483 0.40395328 -0.025936127
0.33101264 0.4045808 -0.025446473
0.33192036 0.40520516 -0.024956811
0.33282799 0.4058263 -0.024467118
0.3337355 0.40644428 -0.023977419
0.33464298 0.40705901 -0.023487661
0.33555028 0.40767062 -0.02299791
0.33645752 0.40827903 -0.022508152
0.33649233 0.40942416 -0.022515131
0.33594695 -0.099718325 -0.012383514
0.33598098 -0.098598681 -0.012390336
0.33601502 -0.097479053 -0.012397159
0.3351562 -0.096526705 -0.0128977
0.33519027 -0.095405474 -0.012904532
0.33522436 -0.094284251 -0.012911364
0.33525842 -0.093163013 -0.012918197
0.33529252 -0.092041776 -0.01292503
0.33532661 -0.09092056 -0.012931862
0.33536068 -0.089799322 -0.012938694
0.33539477 -0.088678099 -0.012945527
0.33542883 -0.087556869 -0.012952359
0.33546293 -0.086435653 -0.012959192
0.33549699 -0.085314415 -0.012966025
0.3346388 -0.084342949 -0.013466655
0.33467293 -0.083220124 -0.013473497
0.33470705 -0.082097299 -0.013480339
0.3347412 -0.080974489 -0.013487182
0.33388323 -0.079995044 -0.013987849
0.33391741 -0.078870639 -0.013994701
0.33395159 -0.07774622 -0.014001553
0.33398578 -0.076621816 -0.014008405
0.33401993 -0.075497389 -0.014015256
0.33405411 -0.074372977 -0.014022109
0.3340883 -0.073248565 -0.014028961
0.33412248 -0.072124153 -0.014035813
0.33415666 -0.070999742 -0.014042664
0.33419082 -0.069875322 -0.014049516
0.334225 -0.06875091 -0.014056368
0.33425918 -0.067626499 -0.01406322
0.33340186 -0.066626363 -0.014564025
0.33343607 -0.065500356 -0.014570887
0.33347031 -0.064374343 -0.014577748
0.33350453 -0.063248344 -0.01458461
0.33353877 -0.062122334 -0.014591471
0.33357298 -0.060996331 -0.014598333
0.33360723 -0.059870321 -0.014605194
0.33364144 -0.058744319 -0.014612056
0.33367565 -0.057618313 -0.014618918
0.3337099 -0.056492295 -0.014625779
0.33374411 -0.055366293 -0.014632641
0.33377835 -0.054240283 -0.014639502
0.33381256 -0.05311428 -0.014646364
0.33384678 -0.051988274 -0.014653225
0.33388102 -0.050862271 -0.014660087
0.33391523 -0.049736261 -0.014666948
0.33394948 -0.048610251 -0.01467381
0.33398369 -0.047484249 -0.014680672
0.33401793 -0.046358243 -0.014687533
0.33405215 -0.04523224 -0.014694395
0.33408636 -0.044106223 -0.014701257
0.3341206 -0.04298022 -0.014708119
0.33415481 -0.04185421 -0.01471498
0.33418906 -0.040728211 -0.014721842
0.33422327 -0.039602201 -0.014728704
0.33425748 -0.038476199 -0.014735565
0.33429173 -0.037350189 -0.014742427
0.33432594 -0.036224179 -0.014749288
0.33436018 -0.035098173 -0.01475615
0.3343944 -0.03397217 -0.014763011
0.33442861 -0.03284616 -0.014769873
0.33446285 -0.031720158 -0.014776734
0.33449706 -0.03059415 -0.014783596
0.33453131 -0.02946814 -0.014790458
0.33456552 -0.028342139 -0.014797319
0.33459976 -0.027216129 -0.014804181
0.33463398 -0.026090121 -0.014811042
0.33466819 -0.024964111 -0.014817904
0.33470243 -0.023838108 -0.014824765
0.33473665 -0.022712104 -0.014831627
0.33388132 -0.021646669 -0.015332819
0.33391559 -0.02051907 -0.01533969
0.33394986 -0.019391472 -0.015346562
0.33398414 -0.018263871 -0.015353433
0.33401841 -0.017136268 -0.015360304
0.33405268 -0.01600867 -0.015367175
0.33408695 -0.014881071 -0.015374046
0.33412123 -0.013753471 -0.015380917
0.3341555 -0.012625876 -0.015387788
0.33418977 -0.011498276 -0.01539466
0.33422405 -0.010370677 -0.015401531
0.33425832 -0.0092430785 -0.015408402
0.33429259 -0.0081154751 -0.015415274
0.33432686 -0.0069878763 -0.015422145
0.33436114 -0.005860277 -0.015429016
0.33439541 -0.0047326782 -0.015435888
0.33442968 -0.0036050789 -0.015442759
0.33446395 -0.0024774834 -0.01544963
0.33449823 -0.0013498806 -0.015456501
0.3345325 -0.00022228139 -0.015463373
0.33456677 0.00090531778 -0.015470244
0.33460104 0.0020329133 -0.015477115
0.33552384 0.0031860487 -0.014989443
0.33555806 0.0043120543 -0.014996304
0.33559227 0.0054380596 -0.015003166
0.33473817 0.0065433136 -0.0155046
0.33477244 0.0076709124 -0.015511472
0.33480671 0.0087985117 -0.015518343
0.33484098 0.0099261086 -0.015525214
0.33487526 0.011053712 -0.015532086
0.33490953 0.012181309 -0.015538957
0.3349438 0.013308909 -0.015545828
0.33497807 0.014436508 -0.0155527
0.33590031 0.015572122 -0.01506492
0.33593455 0.016698128 -0.015071782
