# .PCD v0.7 - Point Cloud Data file format
VERSION 0.7
FIELDS x y z
SIZE 4 4 4
TYPE F F F
COUNT 1 1 1
WIDTH 1352
HEIGHT 1
VIEWPOINT 0 0 0 1 0 0 0
POINTS 1352
DATA ascii
0.37330687 0.010007817 -0.013543051
0.37333965 0.011086047 -0.013549621
0.37337241 0.012164274 -0.013556191
0.37340519 0.0132425 -0.013562761
0.37343797 0.014320727 -0.013569332
0.37347072 0.015398954 -0.013575902
0.37350351 0.016477183 -0.013582473
0.37266454 0.017549967 -0.014103441
0.37269738 0.018629787 -0.01411002
0.3727302 0.019709606 -0.014116601
0.37276301 0.020789428 -0.014123181
0.37279585 0.021869246 -0.014129761
0.37282866 0.022949066 -0.014136341
0.37286147 0.024028884 -0.014142921
0.37289432 0.025108706 -0.014149501
0.37292713 0.026188524 -0.014156082
0.37295994 0.027268345 -0.014162662
0.37299278 0.028348163 -0.014169242
0.3730256 0.029427983 -0.014175822
0.37305841 0.030507803 -0.014182402
0.37309122 0.031587623 -0.014188983
0.37312406 0.032667443 -0.014195562
0.37315688 0.033747263 -0.014202142
0.37318969 0.034827083 -0.014208723
0.37322253 0.035906903 -0.014215303
0.37325534 0.03698672 -0.014221882
0.37328815 0.03806654 -0.014228463
0.373321 0.03914636 -0.014235043
0.37335381 0.04022618 -0.014241623
0.37338662 0.041306 -0.014248203
0.37341946 0.04238582 -0.014254783
0.37345228 0.04346564 -0.014261363
0.37348509 0.04454546 -0.014267944
0.3735179 0.045625281 -0.014274524
0.37442115 0.046667539 -0.013766444
0.37445393 0.047745764 -0.013773015
0.37448668 0.048823994 -0.013779585
0.37451947 0.049902219 -0.013786156
0.37455225 0.050980445 -0.013792726
0.374585 0.052058671 -0.013799297
0.37461779 0.0531369 -0.013805867
0.37465057 0.054215126 -0.013812438
0.37468335 0.055293355 -0.013819008
0.3747161 0.056371581 -0.013825579
0.37474889 0.057449806 -0.013832149
0.37478167 0.058528036 -0.01383872
0.37481442 0.059606262 -0.01384529
0.3748472 0.060684487 -0.013851861
0.37487999 0.061762717 -0.01385843
0.37491274 0.062840946 -0.013865001
0.37494552 0.063919172 -0.013871571
0.3749783 0.064997397 -0.013878142
0.37501106 0.066075623 -0.013884712
0.37504384 0.067153849 -0.013891282
0.37507662 0.068232074 -0.013897853
0.37510937 0.069310308 -0.013904423
0.37514216 0.070388533 -0.013910994
0.37517494 0.071466759 -0.013917564
0.37520769 0.072544985 -0.013924135
0.37524047 0.07362321 -0.013930705
0.37527326 0.074701443 -0.013937276
0.37530601 0.075779669 -0.013943846
0.37533879 0.076857895 -0.013950417
0.37537158 0.07793612 -0.013956986
0.37540436 0.079014346 -0.013963557
0.37543711 0.080092572 -0.013970127
0.37546989 0.081170797 -0.013976698
0.37550268 0.08224903 -0.013983268
0.37553543 0.083327256 -0.013989839
0.37556821 0.084405482 -0.013996409
0.37560099 0.085483715 -0.01400298
0.37563375 0.086561941 -0.01400955
0.37566653 0.087640166 -0.014016121
0.37569931 0.088718392 -0.014022691
0.37573206 0.089796618 -0.014029262
0.37576485 0.090874843 -0.014035832
0.37579763 0.091953069 -0.014042403
0.37583038 0.093031295 -0.014048973
0.37586316 0.094109528 -0.014055544
0.37676418 0.095078528 -0.013547017
0.3767969 0.096155159 -0.013553578
0.37682962 0.09723179 -0.013560139
0.37686235 0.098308429 -0.0135667
0.37776318 0.099269457 -0.013058093
0.37866384 0.1002273 -0.0125495
0.38043237 0.10106318 -0.011525739
0.39791787 0.10284109 -0.0012478342
0.40228799 0.10324575 0.0013218781
0.40492231 0.10389117 0.0028612304
0.40668875 0.10465697 0.0038854566
0.40671983 0.10567945 0.0038792258
0.40675089 0.10670194 0.003872995
0.40764946 0.10758971 0.0043820157
0.40768048 0.1086106 0.0043757944
0.40857887 0.1094936 0.0048848386
0.40860987 0.11051289 0.0048786271
0.40864083 0.1115322 0.0048724157
0.40867183 0.1125515 0.0048662042
0.40870279 0.11357079 0.0048599932
0.40873379 0.11459009 0.0048537818
0.40876478 0.11560939 0.0048475703
0.40879574 0.11662868 0.0048413593
0.40882674 0.11764798 0.0048351479
0.4088577 0.11866729 0.0048289364
0.4088887 0.11968658 0.004822725
0.40891969 0.12070589 0.004816514
0.40895066 0.12172518 0.0048103025
0.40898165 0.12274449 0.0048040911
0.40901262 0.12376378 0.0047978801
0.40904361 0.12478308 0.0047916686
0.40907457 0.12580237 0.0047854572
0.4099721 0.1266567 0.0052946815
0.41000304 0.12767442 0.0052884798
0.41003397 0.12869212 0.0052822782
0.41006491 0.12970982 0.0052760765
0.41009584 0.13072753 0.0052698753
0.41012678 0.13174523 0.0052636736
0.411024 0.1325884 0.0057729976
0.41105491 0.13360451 0.0057668057
0.41108578 0.13462064 0.0057606138
0.41111666 0.13563675 0.0057544219
0.41114756 0.13665286 0.00574823
0.41031238 0.13785148 0.0052264635
0.41034332 0.13886918 0.0052202619
0.41037425 0.13988687 0.0052140607
0.41040519 0.14090459 0.005207859
0.41043612 0.1419223 0.0052016573
0.41046706 0.14294 0.0051954556
0.41049799 0.14395772 0.0051892539
0.40966323 0.14516905 0.0046674418
0.40969422 0.14618835 0.0046612308
0.40972522 0.14720765 0.0046550194
0.40975618 0.14822695 0.0046488079
0.40978718 0.14924625 0.0046425965
0.40981814 0.15026554 0.0046363855
0.40984914 0.15128486 0.004630174
0.40988013 0.15230414 0.0046239626
0.4099111 0.15332344 0.0046177511
0.41080731 0.15413477 0.0051272376
0.41083825 0.15515247 0.005121036
0.41086918 0.15617019 0.0051148343
0.41090012 0.15718789 0.0051086331
0.41093105 0.1582056 0.0051024314
0.41096199 0.1592233 0.0050962297
0.41099292 0.16024101 0.005090028
0.41102386 0.1612587 0.0050838264
0.41105479 0.16227643 0.0050776247
0.41108572 0.16329412 0.005071423
0.41025192 0.16453575 0.0045494265
0.41028288 0.16555503 0.0045432155
0.41031387 0.16657433 0.004537004
0.41034484 0.16759363 0.0045307926
0.41037583 0.16861293 0.0045245816
0.4104068 0.16963223 0.0045183701
0.41043779 0.17065151 0.0045121587
0.41046879 0.17167082 0.0045059472
0.41049975 0.17269012 0.0044997362
0.40966642 0.17394766 0.0039776484
0.40969744 0.17496856 0.0039714272
0.40972847 0.17598943 0.0039652064
0.40975952 0.17701033 0.0039589852
0.40979055 0.17803122 0.0039527644
0.40982157 0.17905211 0.0039465432
0.40985259 0.18007299 0.0039403224
0.40988362 0.18109389 0.0039341012
0.40991467 0.18211478 0.00392788
0.4099457 0.18313569 0.0039216592
0.40997672 0.18415658 0.003915438
0.41000775 0.18517746 0.0039092172
0.40917504 0.1864557 0.0033869974
0.40920612 0.18747817 0.0033807668
0.40750986 0.18902174 0.0023424681
0.40495026 0.19083378 0.00078814063
0.4023909 0.19265538 -0.00076627714
0.39554617 0.19686106 -0.0049074008
0.39212438 0.19898301 -0.0069780792
0.38870302 0.20111769 -0.0090488028
0.38614532 0.20299345 -0.010603556
0.38445118 0.20460548 -0.011642234
0.38362041 0.20594904 -0.012164884
0.38278979 0.20729575 -0.012687521
0.38195926 0.20864566 -0.013210172
0.38112882 0.20999874 -0.013732848
0.38116151 0.21107379 -0.013739399
0.38119417 0.21214882 -0.01374595
0.38122687 0.21322387 -0.013752501
0.3803966 0.21458493 -0.014275257
0.38042936 0.21566157 -0.014281818
0.38046208 0.21673819 -0.014288378
0.3804948 0.21781485 -0.014294939
0.38052753 0.21889147 -0.014301499
0.38056025 0.21996811 -0.014308061
0.38059297 0.22104475 -0.014314621
0.38062569 0.22212137 -0.014321182
0.38065842 0.22319801 -0.014327742
0.37982872 0.22457498 -0.014850564
0.37986147 0.22565323 -0.014857135
0.37989426 0.22673145 -0.014863705
0.37992704 0.22780968 -0.014870275
0.37995979 0.22888792 -0.014876845
0.37999257 0.22996613 -0.014883416
0.38002536 0.23104435 -0.014889986
0.38005811 0.23212259 -0.014896557
0.38095292 0.23288773 -0.014386789
0.38098568 0.23396435 -0.01439335
0.3810184 0.23504099 -0.01439991
0.38105112 0.23611763 -0.014406472
0.38108385 0.23719425 -0.014413032
0.38197842 0.23794982 -0.013903174
0.38201109 0.23902486 -0.013909725
0.38204378 0.24009992 -0.013916275
0.38207644 0.24117495 -0.013922826
0.38210911 0.24225 -0.013929377
0.3821418 0.24332504 -0.013935929
0.38217446 0.24440008 -0.01394248
0.38220716 0.24547513 -0.013949031
0.38223982 0.24655016 -0.013955582
0.38227251 0.2476252 -0.013962133
0.38230518 0.24870025 -0.013968684
0.38233784 0.24977528 -0.013975235
0.38237053 0.25085035 -0.013981786
0.38240319 0.25192538 -0.013988337
0.38243589 0.25300041 -0.013994887
0.38246855 0.25407544 -0.014001438
0.38164017 0.25549707 -0.014524564
0.38167289 0.25657368 -0.014531124
0.38170561 0.25765032 -0.014537686
0.38259926 0.25837561 -0.014027643
0.38263193 0.25945067 -0.014034194
0.38266462 0.2605257 -0.014040745
0.38269728 0.26160073 -0.014047296
0.38272998 0.26267579 -0.014053847
0.38276264 0.26375082 -0.014060398
0.3827953 0.26482585 -0.014066949
0.382828 0.26590091 -0.014073499
0.38286066 0.26697597 -0.014080051
0.38289335 0.268051 -0.014086602
0.38292602 0.26912603 -0.014093153
0.38295871 0.27020109 -0.014099704
0.38385168 0.2709057 -0.013589568
0.38388431 0.27197915 -0.013596109
0.38391694 0.27305257 -0.01360265
0.38394955 0.27412605 -0.013609191
0.38484231 0.27482271 -0.013099012
0.38487488 0.27589455 -0.013105543
0.38490745 0.27696642 -0.013112076
0.38494003 0.27803826 -0.013118607
0.3849726 0.27911013 -0.013125138
0.38586506 0.27979723 -0.012614895
0.38589758 0.28086749 -0.012621417
0.38593012 0.28193778 -0.012627939
0.38596267 0.28300801 -0.012634461
0.38599518 0.2840783 -0.012640983
0.38602772 0.28514856 -0.012647505
0.38606024 0.28621882 -0.012654026
0.38609278 0.28728908 -0.012660548
0.3861253 0.28835937 -0.01266707
0.38615784 0.28942961 -0.012673592
0.38619035 0.29049987 -0.012680114
0.3862229 0.29157013 -0.012686635
0.38625544 0.29264042 -0.012693157
0.38542873 0.29411611 -0.01321658
0.3854613 0.29518798 -0.013223113
0.38549387 0.29625985 -0.013229644
0.38552648 0.29733169 -0.013236175
0.38555905 0.29840353 -0.013242707
0.38559163 0.2994754 -0.013249239
0.3856242 0.30054724 -0.01325577
0.38565677 0.30161911 -0.013262302
0.3848305 0.30310914 -0.013785806
0.38486314 0.30418262 -0.013792348
0.38489577 0.30525607 -0.013798889
0.38492841 0.30632952 -0.01380543
0.38496101 0.30740294 -0.013811972
0.38499364 0.30847642 -0.013818513
0.38502628 0.30954987 -0.013825054
0.38420039 0.31105265 -0.014348642
0.38423309 0.31212771 -0.014355194
0.38426575 0.31320274 -0.014361745
0.38429841 0.3142778 -0.014368296
0.38433111 0.3153528 -0.014374847
0.38436377 0.31642786 -0.014381398
0.38439646 0.31750292 -0.014387948
0.38442913 0.31857795 -0.014394499
0.38446182 0.319653 -0.01440105
0.38449448 0.32072803 -0.014407601
0.38452715 0.32180306 -0.014414152
0.38455984 0.32287809 -0.014420703
0.3845925 0.32395318 -0.014427255
0.3846252 0.32502818 -0.014433806
0.38465786 0.32610324 -0.014440357
0.38469055 0.3271783 -0.014446908
0.27165705 0.39343286 -0.082756206
0.27341112 0.39379257 -0.081729531
0.27345008 0.39507464 -0.081737347
0.2743465 0.39589071 -0.081227861
0.27610013 0.39623606 -0.080201104
0.27699623 0.39704421 -0.079691604
0.27703503 0.39831993 -0.079699375
0.27793103 0.39912328 -0.079189815
0.27968407 0.3994495 -0.078162938
0.28057981 0.40024489 -0.077653356
0.28147545 0.40103716 -0.077143759
0.28151399 0.40230489 -0.077151477
0.28326648 0.40261197 -0.076124467
0.28416184 0.40339467 -0.075614803
0.2850571 0.40417412 -0.075105123
0.28680912 0.40446529 -0.074078009
0.28770411 0.40523678 -0.073568285
0.28945574 0.40551686 -0.072541125
0.29120722 0.40579051 -0.071513906
0.29295847 0.4060578 -0.07048668
0.29470959 0.40631872 -0.069459379
0.29646045 0.4065733 -0.06843207
0.29906762 0.40632522 -0.066887237
0.30167449 0.40606761 -0.065342389
0.30342472 0.40629989 -0.064314909
0.30603108 0.40602472 -0.062769912
0.30863708 0.40574005 -0.061224893
0.31038666 0.40595001 -0.060197279
0.31299213 0.40564781 -0.058652155
0.31559739 0.40533605 -0.057106938
0.31820235 0.40501469 -0.055561662
0.32080698 0.40468386 -0.054016355
0.32255536 0.40485558 -0.052988514
0.32430351 0.40502095 -0.051960662
0.3269074 0.40466461 -0.050415173
0.32865512 0.40481564 -0.049387231
0.33040267 0.40496027 -0.048359226
0.33300576 0.40457845 -0.046813607
0.33475289 0.40470877 -0.045785517
0.33649978 0.40483272 -0.044757411
0.33824652 0.40495032 -0.043729238
0.339993 0.40506151 -0.042701054
0.34088382 0.40569448 -0.042190488
0.34177452 0.40632427 -0.041679896
0.34266517 0.40695083 -0.041169252
0.34355569 0.40757421 -0.040658619
0.34444609 0.40819442 -0.040147975
0.34448114 0.40934747 -0.040155001
0.3453714 0.40996292 -0.03964432
0.34540641 0.41111442 -0.039651338
0.37239924 -0.099639028 -0.01267812
0.3724319 -0.098563977 -0.012684671
0.3724646 -0.097488947 -0.012691222
0.37249726 -0.096413895 -0.012697773
0.37252995 -0.095338859 -0.012704324
0.37256262 -0.094263829 -0.012710875
0.37171954 -0.093358293 -0.013232083
0.37175226 -0.092281669 -0.013238644
0.37178499 -0.091205038 -0.013245204
0.37181771 -0.090128414 -0.013251766
0.37185043 -0.089051768 -0.013258326
0.37188315 -0.087975129 -0.013264887
0.37191588 -0.086898498 -0.013271447
0.3719486 -0.08582186 -0.013278008
0.37198132 -0.084745236 -0.013284569
0.37201408 -0.08366859 -0.01329113
0.37292206 -0.082438365 -0.012782936
0.37295473 -0.081363313 -0.012789488
0.37298742 -0.080288284 -0.012796039
0.37302008 -0.079213232 -0.01280259
0.37305278 -0.078138188 -0.012809141
0.37308544 -0.077063158 -0.012815692
0.3731181 -0.075988106 -0.012822242
0.37402567 -0.074770629 -0.012313997
0.37405831 -0.073697172 -0.012320539
0.37409091 -0.07262373 -0.012327081
0.37412354 -0.071550272 -0.012333621
0.37415618 -0.070476815 -0.012340163
0.37418881 -0.06940338 -0.012346704
0.37334684 -0.068462811 -0.0128681
0.37337953 -0.067387775 -0.012874651
0.37341219 -0.06631273 -0.012881202
0.37344489 -0.065237693 -0.012887753
0.37347755 -0.064162649 -0.012894304
0.37263584 -0.063212544 -0.013415784
0.37266856 -0.062135909 -0.013422344
0.37270129 -0.061059266 -0.013428905
0.37273401 -0.059982639 -0.013435465
0.37189257 -0.059024557 -0.013956968
0.37192535 -0.057946336 -0.013963538
0.37195814 -0.056868106 -0.013970109
0.37199089 -0.055789884 -0.013976679
0.37202367 -0.054711655 -0.01398325
0.37293035 -0.053522833 -0.013474829
0.37296307 -0.052446198 -0.013481391
0.37299579 -0.051369563 -0.013487951
0.37302852 -0.050292931 -0.013494512
0.37306124 -0.049216289 -0.013501072
0.37309396 -0.048139662 -0.013507633
0.37400037 -0.046961982 -0.01299912
0.37403306 -0.045886938 -0.013005671
0.37406573 -0.044811904 -0.013012222
0.37409839 -0.043736864 -0.013018773
0.37413108 -0.04266182 -0.013025324
0.37416375 -0.041586772 -0.013031875
0.37419644 -0.040511731 -0.013038426
0.3742291 -0.039436694 -0.013044977
0.375135 -0.038273357 -0.012536402
0.37516764 -0.037199907 -0.012542943
0.37520027 -0.036126461 -0.012549484
0.37523291 -0.035053011 -0.012556026
0.37526554 -0.033979561 -0.012562567
0.37529814 -0.032906108 -0.012569108
0.37533078 -0.031832658 -0.01257565
0.37536341 -0.03075921 -0.012582191
0.37539604 -0.029685762 -0.012588732
0.37542868 -0.028612314 -0.012595274
0.37546128 -0.027538866 -0.012601815
0.37462121 -0.026536193 -0.013123589
0.37465391 -0.025461154 -0.01313014
0.37468657 -0.024386108 -0.01313669
0.37471926 -0.023311066 -0.013143242
0.37475193 -0.022236025 -0.013149793
0.3739121 -0.021223802 -0.013671651
0.37394482 -0.020147167 -0.013678212
0.37397754 -0.019070534 -0.013684773
0.37313795 -0.018051935 -0.014206644
0.37317073 -0.01697371 -0.014213214
0.37320352 -0.015895477 -0.014219784
0.37323627 -0.014817252 -0.014226355
0.37326905 -0.013739026 -0.014232925
0.37330183 -0.012660797 -0.014239496
0.37333459 -0.011582571 -0.014246066
0.37336737 -0.010504345 -0.014252637
0.37340015 -0.0094261207 -0.014259207
0.3734329 -0.008347895 -0.014265778
0.37346569 -0.0072696619 -0.014272348
0.37349847 -0.0061914362 -0.014278919
0.37440297 -0.0050742868 -0.013770062
0.37443569 -0.0039976514 -0.013776623
0.37446842 -0.0029210194 -0.013783184
0.37450114 -0.0018443839 -0.013789744
0.37453386 -0.00076774828 -0.013796305
0.37456658 0.00030888728 -0.013802866
0.37547082 0.0014148906 -0.013293915
0.37550348 0.0024899289 -0.013300466
0.37553617 0.0035649745 -0.013307017
0.37556884 0.0046400162 -0.013313568
0.3756015 0.0057150545 -0.013320119
0.37563419 0.0067900964 -0.01332667
0.37566686 0.0078651402 -0.013333221
0.37569955 0.0089401826 -0.013339772
0.37573221 0.010015222 -0.013346323
0.37489384 0.011075232 -0.013868473
0.37492657 0.012151865 -0.013875034
0.37495929 0.013228499 -0.013881594
0.37499201 0.014305133 -0.013888155
0.37502474 0.015381768 -0.013894715
0.37505746 0.016458403 -0.013901277
0.37509018 0.017535036 -0.013907837
0.3751229 0.018611671 -0.013914398
0.37428501 0.019686012 -0.014436608
0.3743178 0.020764239 -0.014443179
0.37435055 0.021842465 -0.014449749
0.37438333 0.022920692 -0.01445632
0.37441611 0.02399892 -0.01446289
0.37444887 0.025077147 -0.014469461
0.37448165 0.026155373 -0.014476031
0.37451443 0.027233601 -0.014482602
0.37454718 0.028311828 -0.014489172
0.37457997 0.029390054 -0.014495743
0.37461275 0.030468281 -0.014502313
0.37464553 0.031546507 -0.014508883
0.37467828 0.032624736 -0.014515453
0.37471107 0.033702962 -0.014522023
0.37474385 0.034781188 -0.014528594
0.3747766 0.035859417 -0.014535164
0.37480938 0.036937643 -0.014541735
0.37484217 0.038015872 -0.014548305
0.37487492 0.039094098 -0.014554876
0.3749077 0.040172324 -0.014561446
0.37494048 0.041250553 -0.014568017
0.37584284 0.042297628 -0.014058733
0.37587556 0.043374259 -0.014065295
0.37590829 0.044450898 -0.014071855
0.37594101 0.045527529 -0.014078416
0.37597376 0.046604164 -0.014084976
0.37600648 0.047680799 -0.014091537
0.37603921 0.048757434 -0.014098098
0.37607193 0.049834069 -0.014104659
0.37610465 0.0509107 -0.014111219
0.37613738 0.051987335 -0.01411778
0.3761701 0.05306397 -0.01412434
0.37620282 0.054140605 -0.014130902
0.37710461 0.055166971 -0.013621465
0.3771373 0.056242015 -0.013628016
0.37716997 0.057317056 -0.013634567
0.37720266 0.058392096 -0.013641119
0.37723532 0.059467141 -0.01364767
0.37726799 0.060542181 -0.013654221
0.37643188 0.061677046 -0.014176826
0.37646461 0.062753677 -0.014183387
0.37649733 0.063830316 -0.014189947
0.3773987 0.064842351 -0.013680425
0.37743139 0.065917388 -0.013686975
0.37746406 0.066992432 -0.013693526
0.37749675 0.068067476 -0.013700077
0.37752941 0.069142513 -0.013706628
0.37756208 0.070217557 -0.01371318
0.37759477 0.071292594 -0.013719731
0.37762743 0.072367638 -0.013726282
0.37766013 0.073442683 -0.013732833
0.37769279 0.074517719 -0.013739384
0.37772548 0.075592764 -0.013745935
0.37775815 0.076667808 -0.013752486
0.37779081 0.077742845 -0.013759037
0.3778235 0.078817889 -0.013765587
0.37785617 0.079892933 -0.013772138
0.37788886 0.08096797 -0.01377869
0.37792152 0.082043014 -0.013785241
0.37795421 0.083118051 -0.013791792
0.37798688 0.084193096 -0.013798343
0.37801954 0.08526814 -0.013804894
0.37805223 0.086343184 -0.013811445
0.3780849 0.087418221 -0.013817996
0.37811759 0.088493265 -0.013824547
0.37815025 0.089568309 -0.013831098
0.37818295 0.090643346 -0.013837649
0.37821561 0.091718383 -0.013844199
0.3782483 0.092793427 -0.013850751
0.37828097 0.093868472 -0.013857302
0.37831363 0.094943516 -0.013863853
0.37834632 0.09601856 -0.013870404
0.37837899 0.097093597 -0.013876955
0.37841168 0.098168641 -0.013883506
0.38017842 0.099012554 -0.012857321
0.380211 0.10008441 -0.012863852
0.38284445 0.10080002 -0.011321195
0.39507702 0.10227188 -0.004110808
0.39857581 0.10281619 -0.0020514429
0.40207422 0.10334776 7.9941392e-06
0.40470552 0.10399488 0.0015510367
0.40733662 0.10463245 0.0030941695
0.40736771 0.10565493 0.0030879388
0.40739876 0.10667742 0.003081708
0.40742984 0.10769991 0.0030754772
0.40832734 0.10858613 0.0035857409
0.40835837 0.10960701 0.0035795199
0.40838939 0.11062791 0.0035732987
0.40842041 0.1116488 0.0035670777
0.40845147 0.11266969 0.0035608567
0.40848249 0.11369058 0.0035546357
0.40851352 0.11471147 0.0035484147
0.40854454 0.11573236 0.0035421937
0.40944159 0.11660425 0.0040525445
0.40947258 0.11762355 0.004046333
0.40950355 0.11864286 0.004040122
0.40953454 0.11966214 0.0040339106
0.40956554 0.12068145 0.0040276991
0.4095965 0.12170074 0.0040214877
0.4096275 0.12272005 0.0040152767
0.40965846 0.12373934 0.0040090652
0.40968946 0.12475864 0.0040028538
0.40972042 0.12577793 0.0039966428
0.40975142 0.12679723 0.0039904313
0.40978241 0.12781654 0.0039842199
0.40981337 0.12883584 0.0039780084
0.40984437 0.12985514 0.0039717974
0.41074067 0.13070312 0.0044822879
0.41077161 0.13172084 0.0044760862
0.41080254 0.13273853 0.0044698846
0.41083348 0.13375625 0.0044636829
0.41086441 0.13477395 0.0044574817
0.41089535 0.13579166 0.00445128
0.41092628 0.13680936 0.0044450783
0.41095722 0.13782707 0.0044388766
0.4101232 0.13902883 0.0039158952
0.41015419 0.14004812 0.0039096838
0.41018516 0.14106742 0.0039034726
0.41021615 0.14208671 0.0038972613
0.41024712 0.14310601 0.0038910501
0.41027811 0.14412533 0.0038848387
0.41030908 0.14514461 0.0038786274
0.40947545 0.14635912 0.0033555627
0.4095065 0.14737999 0.0033493417
0.40953752 0.1484009 0.0033431205
0.40956855 0.14942178 0.0033368997
0.40959957 0.15044267 0.0033306784
0.4096306 0.15146357 0.0033244574
0.40966165 0.15248445 0.0033182364
0.40969267 0.15350536 0.0033120154
0.4097237 0.15452623 0.0033057944
0.4106189 0.1553376 0.003816514
0.4106499 0.1563569 0.0038103028
0.41068086 0.1573762 0.0038040914
0.41071185 0.1583955 0.0037978801
0.41074285 0.1594148 0.0037916687
0.41077381 0.1604341 0.0037854575
0.41080481 0.1614534 0.003779246
0.41083577 0.1624727 0.0037730348
0.41086677 0.16349198 0.0037668236
0.41089776 0.16451131 0.0037606121
0.41006503 0.16575605 0.003237363
0.41009608 0.16677694 0.0032311419
0.4101271 0.16779783 0.0032249209
0.41015813 0.16881873 0.0032186999
0.41018915 0.16983962 0.0032124789
0.41022018 0.1708605 0.0032062579
0.41025123 0.17188139 0.0032000369
0.41028225 0.17290229 0.0031938157
0.41031328 0.17392318 0.0031875947
0.4103443 0.17494407 0.0031813737
0.41037533 0.17596495 0.0031751527
0.41040638 0.17698584 0.0031689317
0.41043741 0.17800675 0.0031627107
0.40960535 0.1792738 0.0026393256
0.40963644 0.18029627 0.002633095
0.40966752 0.18131876 0.0026268642
0.40969861 0.18234125 0.0026206335
0.40972969 0.18336374 0.0026144027
0.40976074 0.18438621 0.0026081719
0.40979183 0.1854087 0.0026019411
0.40982291 0.18643118 0.0025957106
0.40899131 0.18771257 0.002072244
0.40729713 0.18925764 0.0010314689
0.4047406 0.19107114 -0.00052656815
0.40218431 0.19289424 -0.0020846899
0.39962831 0.19472688 -0.0036428755
0.39707267 0.19656906 -0.0052010873
0.39451724 0.19842082 -0.0067593893
0.39109978 0.20055217 -0.0088350587
0.38854501 0.20242463 -0.010393482
0.3868528 0.20403339 -0.011434613
0.38602298 0.2053737 -0.011958438
0.38519329 0.20671719 -0.012482289
0.38436362 0.20806392 -0.013006186
0.38439614 0.20913416 -0.013012708
0.38356668 0.21048562 -0.013536607
0.38359925 0.21155746 -0.013543138
0.38276994 0.21291372 -0.014067067
0.38280258 0.21398716 -0.014073608
0.38283518 0.21506061 -0.01408015
0.38200605 0.21642321 -0.014604117
0.38203874 0.21749827 -0.014610668
0.38207141 0.2185733 -0.014617219
0.3821041 0.21964835 -0.01462377
0.38213676 0.22072339 -0.014630321
0.38216946 0.22179842 -0.014636872
0.38220212 0.22287346 -0.014643423
0.38223478 0.22394851 -0.014649974
0.38226748 0.22502355 -0.014656525
0.38230014 0.2260986 -0.014663076
0.38233283 0.22717363 -0.014669627
0.38236549 0.22824869 -0.014676178
0.38239819 0.22932373 -0.014682729
0.38243085 0.23039876 -0.01468928
0.38246351 0.23147379 -0.014695831
0.38249621 0.23254885 -0.014702382
0.38338986 0.23330924 -0.014191352
0.38342249 0.23438269 -0.014197893
0.38345513 0.23545615 -0.014204434
0.38348776 0.23652959 -0.014210976
0.38352036 0.23760304 -0.014217517
0.383553 0.23867647 -0.014224058
0.38358563 0.23974995 -0.0142306
0.38361827 0.24082339 -0.014237141
0.38451147 0.24156946 -0.013726023
0.38454407 0.24264131 -0.013732555
0.38457665 0.24371317 -0.013739087
0.38460922 0.24478503 -0.013745618
0.3846418 0.24585688 -0.013752149
0.38467437 0.24692875 -0.013758682
0.38384664 0.24833754 -0.01428293
0.38387927 0.24941097 -0.014289471
0.38391191 0.25048444 -0.014296013
0.38394454 0.25155789 -0.014302554
0.38397717 0.25263134 -0.014309095
0.38400981 0.25370476 -0.014315637
0.38404241 0.25477824 -0.014322178
0.38407505 0.25585169 -0.014328719
0.38410768 0.25692511 -0.014335261
0.38414031 0.25799856 -0.014341801
0.38417295 0.25907204 -0.014348343
0.38420555 0.26014549 -0.014354885
0.38509792 0.26086286 -0.013843592
0.38513049 0.26193473 -0.013850124
0.38516307 0.2630066 -0.013856655
0.38519564 0.26407844 -0.013863187
0.38522825 0.26515028 -0.013869719
0.38526082 0.26622215 -0.01387625
0.38529339 0.26729402 -0.013882781
0.38618535 0.26799867 -0.013371412
0.38621789 0.26906896 -0.013377934
0.38625041 0.27013919 -0.013384456
0.38628295 0.27120945 -0.013390978
0.38631549 0.27227971 -0.013397499
0.38634801 0.27335 -0.013404021
0.38638055 0.27442026 -0.013410543
0.38641307 0.27549052 -0.013417065
0.38730466 0.27618083 -0.012905582
0.38733715 0.27724949 -0.012912094
0.38736963 0.27831817 -0.012918605
0.38740212 0.27938682 -0.012925118
0.3874346 0.2804555 -0.01293163
0.38746709 0.28152418 -0.012938143
0.38749954 0.28259283 -0.012944655
0.38753203 0.28366151 -0.012951166
0.38756451 0.2847302 -0.012957679
0.38759699 0.28579885 -0.012964191
0.38762948 0.28686753 -0.012970704
0.38766196 0.28793621 -0.012977215
0.38769445 0.28900489 -0.012983728
0.38772693 0.29007351 -0.01299024
0.38775942 0.2911422 -0.012996752
0.3877919 0.29221088 -0.013003265
0.38782439 0.29327956 -0.013009776
0.38785687 0.29434821 -0.013016289
0.38788936 0.29541689 -0.013022801
0.38792184 0.29648557 -0.013029313
0.38795432 0.29755422 -0.013035825
0.38712877 0.29903629 -0.013560547
0.38716128 0.30010659 -0.013567069
0.38719383 0.30117685 -0.013573591
0.38722634 0.30224711 -0.013580113
0.38725889 0.30331737 -0.013586635
0.3872914 0.30438766 -0.013593156
0.38732395 0.30545789 -0.013599678
0.38735646 0.30652815 -0.0136062
0.387389 0.30759844 -0.013612722
0.38656399 0.30909643 -0.014137514
0.38659656 0.31016827 -0.014144045
0.38662913 0.31124011 -0.014150578
0.38666174 0.31231198 -0.014157109
0.38669431 0.31338385 -0.01416364
0.38672689 0.31445569 -0.014170172
0.38675946 0.31552756 -0.014176704
0.38593483 0.31703827 -0.014701573
0.38596746 0.31811172 -0.014708115
0.3860001 0.31918517 -0.014714656
0.38603273 0.32025862 -0.014721197
0.38606536 0.32133207 -0.014727739
0.38609797 0.32240549 -0.01473428
0.38698754 0.32303053 -0.014222424
0.38702011 0.3241024 -0.014228957
0.38705269 0.32517424 -0.014235488
0.38708526 0.32624611 -0.01424202
0.38711783 0.32731795 -0.014248551
0.27508 0.39329904 -0.082203209
0.27597538 0.39411515 -0.081692524
0.27687061 0.39492813 -0.081181817
0.27776578 0.39573792 -0.080671087
0.27866089 0.39654446 -0.080160312
0.27955586 0.3973479 -0.079649538
0.28045073 0.39814809 -0.079138756
0.28134552 0.39894512 -0.078627951
0.28224018 0.39973897 -0.078117125
0.28227872 0.40100676 -0.078124851
0.2840293 0.40131709 -0.077095389
0.2849237 0.40210137 -0.076584503
0.28496209 0.40336439 -0.0765922
0.28585634 0.40414387 -0.076081291
0.28760633 0.40443513 -0.07505171
0.28935608 0.40472001 -0.074022122
0.29110572 0.40499854 -0.072992466
0.2919994 0.40576053 -0.072481446
0.29374865 0.40602791 -0.071451753
0.29549772 0.40628892 -0.070421986
0.29724655 0.40654355 -0.069392212
0.29985073 0.4062956 -0.067843691
0.30159912 0.40653589 -0.066813827
0.30420277 0.40627044 -0.065265194
0.30595073 0.40649641 -0.06423524
0.30855381 0.40621343 -0.062686503
0.31030133 0.40642506 -0.061656468
0.31290391 0.40612456 -0.060107619
0.31550619 0.4058145 -0.058558714
0.31810811 0.4054949 -0.057009779
0.31985477 0.40567628 -0.055979531
0.32160118 0.40585127 -0.054949272
0.32420242 0.40550613 -0.053400151
0.32594839 0.40566683 -0.052369811
0.32854906 0.40530422 -0.050820582
0.33029461 0.40545052 -0.049790151
0.33289474 0.40507039 -0.048240818
0.33463988 0.40520242 -0.047210298
0.33638483 0.40532804 -0.046179704
0.33812955 0.4054473 -0.04514911
0.33987415 0.40556017 -0.044118445
0.34076396 0.40619475 -0.043606646
0.34250817 0.40629652 -0.042575944
0.3433978 0.40692312 -0.042064067
0.34428731 0.40754652 -0.041552208
0.34432241 0.40870121 -0.041559245
0.34521174 0.40931985 -0.04104735
0.34610102 0.40993533 -0.040535439
0.346136 0.4110868 -0.040542454
0.37483037 -0.099306576 -0.012478477
0.37486297 -0.098234713 -0.012485009
0.37489554 -0.097162865 -0.012491541
0.37492812 -0.096091002 -0.012498072
0.37496069 -0.095019139 -0.012504604
0.37411854 -0.094118446 -0.01302699
0.37415117 -0.093044989 -0.013033532
0.3741838 -0.091971546 -0.013040072
0.37421641 -0.090898097 -0.013046614
0.37424904 -0.089824654 -0.013053156
0.37340719 -0.088914379 -0.013575594
0.37343985 -0.087839335 -0.013582145
0.37347251 -0.086764298 -0.013588696
0.37437955 -0.085530847 -0.01307932
0.37441218 -0.084457405 -0.013085862
0.37444481 -0.083383948 -0.013092403
0.37447745 -0.082310505 -0.013098944
0.37451008 -0.081237055 -0.013105486
0.37454268 -0.080163613 -0.013112027
0.37544939 -0.078941301 -0.012602578
0.37548196 -0.077869445 -0.012609109
0.37551454 -0.07679759 -0.012615641
0.37554711 -0.075725727 -0.012622173
0.37645358 -0.074511394 -0.012112675
0.37648609 -0.073441125 -0.012119197
0.37651864 -0.072370864 -0.012125718
0.37655115 -0.071300596 -0.01213224
0.3765837 -0.070230328 -0.012138763
0.37661624 -0.069160074 -0.012145285
0.37577519 -0.068222731 -0.012667893
0.37580776 -0.067150883 -0.012674426
0.37584034 -0.066079021 -0.012680957
0.37499949 -0.065135323 -0.013203605
0.37503213 -0.064061865 -0.013210147
0.37506473 -0.062988423 -0.013216687
0.37509736 -0.061914969 -0.013223229
0.37425676 -0.060963292 -0.01374592
0.37428942 -0.059888259 -0.013752471
0.37432212 -0.058813218 -0.013759022
0.37435478 -0.057738174 -0.013765573
0.37438747 -0.056663133 -0.013772124
0.37442014 -0.055588096 -0.013778675
0.3744528 -0.054513048 -0.013785226
0.37448549 -0.053438008 -0.013791777
0.37451816 -0.052362964 -0.013798328
0.37455085 -0.051287923 -0.013804879
0.37545627 -0.050107032 -0.013295183
0.37548891 -0.049033582 -0.013301725
0.37552154 -0.047960132 -0.013308266
0.37555417 -0.046886686 -0.013314807
0.37558678 -0.045813236 -0.013321348
0.37561941 -0.04473979 -0.01332789
0.37565205 -0.04366634 -0.013334431
0.37655708 -0.042498183 -0.012824652
0.37658966 -0.041426327 -0.012831184
0.37662226 -0.040354464 -0.012837715
0.37665483 -0.039282613 -0.012844247
0.37668741 -0.038210757 -0.012850778
0.37671998 -0.037138902 -0.01285731
0.37675256 -0.036067046 -0.012863842
0.37765723 -0.034911636 -0.012353985
0.37768975 -0.033841368 -0.012360507
0.37772229 -0.032771099 -0.012367029
0.37775481 -0.031700838 -0.012373551
0.37778735 -0.030630579 -0.012380073
0.37781987 -0.029560311 -0.012386595
0.37698063 -0.028564051 -0.012909563
0.37701321 -0.027492195 -0.012916095
0.37704578 -0.02642034 -0.012922626
0.37707835 -0.025348483 -0.012929157
0.37711093 -0.024276624 -0.01293569
0.37627196 -0.023270804 -0.013458716
0.3763046 -0.022197356 -0.013465257
0.37633723 -0.021123908 -0.013471799
0.37549844 -0.020111719 -0.013994859
0.37553114 -0.019036677 -0.01400141
0.3755638 -0.017961634 -0.01400796
0.37559649 -0.016886596 -0.014014511
0.37562916 -0.015811548 -0.014021062
0.37479064 -0.014789805 -0.014544212
0.37482336 -0.013713173 -0.014550773
0.37572718 -0.012586425 -0.014040715
0.37575987 -0.011511383 -0.014047266
0.37579253 -0.010436345 -0.014053818
0.37582523 -0.0093613025 -0.014060369
0.37585789 -0.008286261 -0.01406692
0.37589058 -0.0072112153 -0.014073471
0.37592325 -0.0061361734 -0.014080022
0.37595591 -0.0050611314 -0.014086572
0.3759886 -0.0039860932 -0.014093123
0.37602127 -0.0029110513 -0.014099674
0.37605396 -0.0018360094 -0.014106225
0.37695715 -0.00072837656 -0.013596083
0.37698978 0.00034507172 -0.013602625
0.37702242 0.00141852 -0.013609166
0.37705505 0.0024919682 -0.013615707
0.37708768 0.0035654202 -0.013622249
0.37712029 0.0046388684 -0.01362879
0.37715292 0.0057123168 -0.013635331
0.37718555 0.0067857648 -0.013641872
0.37721819 0.007859217 -0.013648414
0.37725082 0.008932665 -0.013654955
0.37728342 0.010006114 -0.013661496
0.37731606 0.011079564 -0.013668038
0.37734869 0.012153012 -0.013674579
0.37738132 0.013226461 -0.01368112
0.37654409 0.014289616 -0.014204491
0.37657678 0.015364658 -0.014211042
0.37660944 0.0164397 -0.014217593
0.37664214 0.017514739 -0.014224144
0.3766748 0.018589783 -0.014230695
0.37670746 0.019664824 -0.014237246
0.37674016 0.020739865 -0.014243796
0.37677282 0.021814907 -0.014250347
0.37680551 0.022889949 -0.014256898
0.37683818 0.02396499 -0.014263449
0.37600145 0.025045665 -0.014786959
0.37603417 0.026122298 -0.01479352
0.37606689 0.027198933 -0.01480008
0.37609962 0.028275568 -0.014806641
0.37613234 0.029352201 -0.014813202
0.37703425 0.030415241 -0.014302756
0.37706691 0.031490281 -0.014309307
0.3770996 0.032565325 -0.014315858
0.37713227 0.033640366 -0.014322408
0.37716493 0.034715407 -0.014328959
0.37719762 0.035790447 -0.01433551
0.37723029 0.036865491 -0.014342062
0.37726298 0.037940532 -0.014348613
0.37729564 0.039015573 -0.014355164
0.37732834 0.040090617 -0.014361715
0.377361 0.041165657 -0.014368266
0.37739369 0.042240698 -0.014374817
0.37742636 0.043315738 -0.014381368
0.37745902 0.044390783 -0.014387919
0.37749171 0.045465823 -0.01439447
0.37752438 0.046540864 -0.01440102
0.37755707 0.047615904 -0.014407572
0.37758973 0.048690949 -0.014414123
0.37762243 0.049765989 -0.014420674
0.37765509 0.050841033 -0.014427225
0.37768775 0.051916074 -0.014433776
0.37858856 0.052944075 -0.013923149
0.37862119 0.054017525 -0.01392969
0.37865379 0.055090971 -0.013936231
0.37868643 0.056164421 -0.013942773
0.37871906 0.057237871 -0.013949314
0.3787517 0.058311321 -0.013955855
0.37878433 0.059384771 -0.013962396
0.37794918 0.060516406 -0.014486184
0.37798184 0.061591446 -0.014492735
0.3788822 0.062605113 -0.01398202
0.37891483 0.063678563 -0.013988562
0.37894747 0.064752012 -0.013995103
0.3789801 0.065825462 -0.014001644
0.3790127 0.066898912 -0.014008186
0.37904534 0.067972362 -0.014014727
0.37907797 0.069045812 -0.014021268
0.3791106 0.070119254 -0.01402781
0.37914324 0.071192712 -0.01403435
0.37917584 0.072266154 -0.014040892
0.37920848 0.073339604 -0.014047434
0.37924111 0.074413054 -0.014053974
0.37927374 0.075486504 -0.014060516
0.37930638 0.076559953 -0.014067058
0.37933898 0.077633403 -0.014073598
0.37937161 0.078706853 -0.01408014
0.37940425 0.079780303 -0.014086681
0.37943688 0.080853745 -0.014093222
0.37946951 0.081927195 -0.014099764
0.37950215 0.083000645 -0.014106305
0.37953475 0.084074095 -0.014112846
0.37956738 0.085147545 -0.014119388
0.37960002 0.086220995 -0.014125929
0.37963265 0.087294444 -0.01413247
0.37966529 0.088367894 -0.014139012
0.37969789 0.089441344 -0.014145553
0.37973052 0.090514787 -0.014152094
0.37976316 0.091588236 -0.014158635
0.37979579 0.092661686 -0.014165177
0.37982842 0.093735144 -0.014171719
0.38072726 0.094699435 -0.013660697
0.38075984 0.09577129 -0.013667229
0.38079241 0.096843146 -0.01367376
0.38082498 0.097915001 -0.013680291
0.38258967 0.098755807 -0.012651594
0.38348815 0.099707358 -0.012140501
0.38525245 0.10053702 -0.011111767
0.38874835 0.1011197 -0.0090477075
0.39224389 0.10168964 -0.0069835703
0.40272814 0.10332301 -0.00079069281
0.40535644 0.10397026 0.0007560497
0.40711889 0.1047378 0.0017851937
0.40715003 0.10576187 0.0017789532
0.40804663 0.10665291 0.0022904153
0.40807772 0.10767539 0.0022841846
0.4081088 0.10869788 0.0022779538
0.40813988 0.10972036 0.002271723
0.40817097 0.11074284 0.0022654922
0.4090673 0.11162432 0.0027770184
0.40909833 0.11264522 0.0027707973
0.40912935 0.1136661 0.0027645763
0.40916038 0.114687 0.0027583551
0.4091914 0.11570789 0.0027521341
0.40922245 0.11672878 0.0027459131
0.40925348 0.11774968 0.0027396921
0.4092845 0.11877057 0.0027334711
0.40931553 0.11979146 0.0027272501
0.40934655 0.12081235 0.0027210289
0.4093776 0.12183324 0.0027148079
0.40940863 0.12285414 0.0027085869
0.40943965 0.12387502 0.0027023659
0.40947068 0.12489592 0.0026961449
0.4095017 0.12591681 0.0026899239
0.40953276 0.1269377 0.0026837029
0.40956378 0.1279586 0.0026774816
0.4095948 0.12897947 0.0026712606
0.41049021 0.1298307 0.0031829653
0.41052121 0.13084999 0.0031767541
0.41055217 0.1318693 0.0031705427
0.41058317 0.13288859 0.0031643314
0.41061416 0.13390788 0.00315812
0.41064513 0.1349272 0.0031519087
0.41067612 0.1359465 0.0031456973
0.41070709 0.1369658 0.0031394861
0.41073808 0.13798508 0.0031332746
0.41076905 0.13900439 0.0031270634
0.41080004 0.14002368 0.0031208522
0.40996718 0.14123018 0.0025966084
0.40999821 0.14225106 0.0025903874
0.41002923 0.14327197 0.0025841664
0.40919656 0.14448482 0.0020598779
0.40922764 0.14550729 0.0020536473
0.40925872 0.14652979 0.0020474165
0.40928981 0.14755227 0.0020411857
0.40932089 0.14857475 0.002034955
0.40935194 0.14959724 0.0020287242
0.40938303 0.15061973 0.0020224934
0.40941411 0.15164222 0.0020162628
0.4094452 0.15266469 0.0020100321
0.40947628 0.15368718 0.0020038013
0.40950733 0.15470965 0.0019975705
0.40953842 0.15573214 0.0019913397
0.4095695 0.15675463 0.0019851092
0.41046366 0.15756443 0.0024970719
0.41049469 0.15858534 0.0024908506
0.41052571 0.15960622 0.0024846299
0.41055676 0.16062713 0.0024784086
0.40972489 0.16186705 0.0019539553
0.40975598 0.16288954 0.0019477246
0.40978706 0.16391201 0.0019414939
0.40981814 0.1649345 0.0019352632
0.40984923 0.16595697 0.0019290325
0.40988028 0.16697946 0.0019228017
0.40991136 0.16800195 0.0019165709
0.40994245 0.16902444 0.0019103402
0.40997353 0.17004693 0.0019041095
0.41000462 0.1710694 0.0018978788
0.4100357 0.17209189 0.001891648
0.41006675 0.17311436 0.0018854174
0.41009784 0.17413686 0.0018791866
0.41012892 0.17515935 0.0018729558
0.41016001 0.17618184 0.001866725
0.41019109 0.17720431 0.0018604944
0.41022217 0.1782268 0.0018542636
0.41025323 0.17924929 0.0018480328
0.41028431 0.18027176 0.0018418022
0.41031539 0.18129425 0.0018355714
0.40948457 0.18256761 0.0013109201
0.40951568 0.18359169 0.0013046797
0.40954682 0.18461578 0.0012984392
0.40957794 0.18563986 0.0012921987
0.40960908 0.18666394 0.0012859582
0.40877849 0.18794689 0.00076121092
0.4070864 0.18949346 -0.0002820027
0.40539452 0.1910464 -0.001325255
0.40284127 0.19286938 -0.0028870767
0.40028831 0.19470191 -0.0044489624
0.39773569 0.19654398 -0.0060108681
0.3951833 0.19839562 -0.0075728702
0.3926312 0.20025681 -0.009134925
0.39007944 0.20212755 -0.010697011
0.3892504 0.20346147 -0.011222064
0.38842151 0.20479855 -0.011747109
0.38673156 0.20641519 -0.012790749
0.38676399 0.20748229 -0.012797251
0.3859354 0.20882893 -0.01332235
0.38596788 0.20989759 -0.013328861
0.38513935 0.21124902 -0.01385402
0.38517189 0.2123193 -0.013860542
0.38520443 0.21338956 -0.013867064
0.38523695 0.21445982 -0.013873586
0.38526949 0.21553007 -0.013880108
0.38530201 0.21660036 -0.013886631
0.38533455 0.2176706 -0.013893152
0.38450646 0.21903478 -0.014418363
0.38453907 0.22010663 -0.014424894
0.38457164 0.22117849 -0.014431425
0.38460422 0.22225034 -0.014437957
0.38463679 0.2233222 -0.014444489
0.38466936 0.22439405 -0.01445102
0.38470194 0.22546592 -0.014457552
0.38473454 0.22653776 -0.014464083
0.38476712 0.22760963 -0.014470615
0.38479969 0.22868149 -0.014477147
0.38483226 0.22975333 -0.014483678
0.38486484 0.23082519 -0.01449021
0.38575745 0.23158406 -0.013977936
0.38578999 0.2326543 -0.013984459
0.3858225 0.23372456 -0.013990981
0.38585505 0.23479484 -0.013997503
0.38588756 0.2358651 -0.014004025
0.38592011 0.23693535 -0.014010546
0.38595265 0.23800562 -0.014017068
0.38598517 0.23907588 -0.01402359
0.38601771 0.24014616 -0.014030112
0.38605022 0.24121641 -0.014036634
0.38608277 0.2422867 -0.014043156
0.38611528 0.24335694 -0.014049677
0.38614783 0.2444272 -0.014056199
0.38618034 0.24549747 -0.014062721
0.38621289 0.24656774 -0.014069243
0.38624543 0.247638 -0.014075765
0.38627794 0.24870826 -0.014082287
0.38631049 0.24977852 -0.014088809
0.386343 0.2508488 -0.014095331
0.38637555 0.25191906 -0.014101853
0.38640806 0.25298929 -0.014108375
0.3864406 0.25405958 -0.014114897
0.38647312 0.25512984 -0.014121418
0.38650566 0.2562001 -0.01412794
0.38653821 0.25727037 -0.014134462
0.38657072 0.25834066 -0.014140984
0.38660327 0.25941089 -0.014147506
0.38749456 0.26012513 -0.013634934
0.38752705 0.26119381 -0.013641447
0.38755953 0.26226249 -0.013647959
0.38759202 0.26333115 -0.013654471
0.3876245 0.2643998 -0.013660983
0.38765699 0.26546848 -0.013667496
0.38768944 0.26653716 -0.013674008
0.38858032 0.26723868 -0.013161391
0.38861275 0.26830575 -0.013167894
0.3886452 0.26937282 -0.013174396
0.38867763 0.27043989 -0.013180899
0.38871005 0.27150697 -0.013187401
0.38874248 0.27257407 -0.013193903
0.38877493 0.27364114 -0.013200406
0.38880736 0.27470821 -0.013206908
0.38883978 0.27577528 -0.013213411
0.38887224 0.27684239 -0.013219913
0.38890466 0.27790946 -0.013226416
0.38893709 0.27897653 -0.013232918
0.38896954 0.28004363 -0.013239421
0.38900197 0.28111067 -0.013245923
0.38903439 0.28217775 -0.013252425
0.3899245 0.28285381 -0.012739647
0.38995686 0.28391927 -0.01274614
0.38998926 0.28498477 -0.012752634
0.39002165 0.28605026 -0.012759126
0.39005402 0.28711572 -0.012765619
0.389229 0.28858024 -0.01329144
0.38926142 0.28964731 -0.013297943
0.38929388 0.29071438 -0.013304445
0.3893263 0.29178149 -0.013310948
0.38935873 0.29284856 -0.01331745
0.38939118 0.29391563 -0.013323952
0.38942361 0.2949827 -0.013330455
0.38945603 0.29604977 -0.013336957
0.38948849 0.29711685 -0.01334346
0.38952091 0.29818395 -0.013349962
0.38955334 0.29925105 -0.013356465
0.38958579 0.30031809 -0.013362967
0.38961822 0.30138516 -0.01336947
0.38965064 0.30245227 -0.013375972
0.38882634 0.30394065 -0.013901934
0.38885882 0.30500931 -0.013908447
0.38889131 0.30607796 -0.013914959
0.38892379 0.30714667 -0.013921471
0.38895628 0.30821532 -0.013927983
0.38898876 0.309284 -0.013934495
0.38902125 0.31035265 -0.013941008
0.38819727 0.31185383 -0.014467078
0.38822982 0.31292409 -0.0144736
0.38826233 0.31399432 -0.014480122
0.38829488 0.31506461 -0.014486644
0.38832739 0.31613487 -0.014493166
0.38835993 0.31720513 -0.014499688
0.38839248 0.31827539 -0.01450621
0.38842499 0.31934565 -0.014512732
0.38845754 0.32041594 -0.014519254
0.38849005 0.3214862 -0.014525776
0.3885226 0.32255647 -0.014532298
0.38855511 0.32362673 -0.01453882
0.38858765 0.32469699 -0.014545341
0.389476 0.32531407 -0.014032179
0.38950849 0.32638273 -0.01403869
0.27849656 0.39315587 -0.081642807
0.27853534 0.39443162 -0.081650577
0.2794295 0.3952398 -0.081138581
0.28117877 0.39557573 -0.080106832
0.28121743 0.39684671 -0.080114581
0.28211123 0.39764535 -0.079602554
0.28300494 0.39844084 -0.079090506
0.28389862 0.39923307 -0.078578405
0.28479216 0.40002221 -0.078066327
0.28568557 0.40080813 -0.077554218
0.28572395 0.40207109 -0.077561915
0.28661725 0.40285224 -0.077049777
0.28836533 0.40314677 -0.076017752
0.28925836 0.40391994 -0.07550557
0.2901513 0.40468994 -0.074993372
0.29189891 0.40496853 -0.073961243
0.29364625 0.40524077 -0.072929114
0.2945388 0.40599802 -0.072416835
0.29628587 0.40625909 -0.071384601
0.2980327 0.40651381 -0.070352368
0.30063382 0.40626597 -0.068800144
0.3023802 0.40650633 -0.067767814
0.30412644 0.40674034 -0.066735424
0.30587244 0.406968 -0.065703019
0.30847257 0.40668669 -0.064150587
0.31021813 0.40690002 -0.0631181
0.31281772 0.40660119 -0.061565563
0.31541696 0.40629289 -0.060013
0.31716189 0.40648386 -0.058980342
0.31976065 0.40615797 -0.057427641
0.3215051 0.40633467 -0.056394931
0.32324934 0.40650499 -0.05536218
0.32584733 0.40615362 -0.053809319
0.32759115 0.4063096 -0.052776482
0.3301886 0.40594071 -0.05122352
0.33193204 0.40608233 -0.050190561
0.33452892 0.40569595 -0.048637521
0.33627191 0.40582323 -0.047604479
0.33801466 0.40594417 -0.046571422
0.33975726 0.4060587 -0.045538306
0.34149966 0.40616691 -0.044505175
0.34238836 0.40679839 -0.043992124
0.34327701 0.40742663 -0.043479055
0.34501895 0.40751886 -0.042445805
0.34505403 0.40867352 -0.042452838
0.34594238 0.40929219 -0.041939713
0.34683064 0.40990773 -0.041426569
0.34686562 0.4110592 -0.041433588
0.37725753 -0.098973952 -0.012273869
0.37729001 -0.097905278 -0.012280381
0.37732249 -0.096836619 -0.012286894
0.37735498 -0.095767945 -0.012293406
0.37651363 -0.09487205 -0.012817022
0.37654614 -0.093801796 -0.012823544
0.37657869 -0.092731528 -0.012830066
0.37661123 -0.091661274 -0.012836588
0.37664375 -0.090591006 -0.01284311
0.37667629 -0.089520752 -0.012849632
0.37670881 -0.088450484 -0.012856154
0.37674135 -0.087380208 -0.012862676
0.37677386 -0.086309955 -0.012869198
0.37680641 -0.085239686 -0.012875719
0.37683892 -0.084169425 -0.012882241
0.37687147 -0.083099157 -0.012888763
0.37690401 -0.082028896 -0.012895285
0.37693653 -0.080958627 -0.012901807
0.37696907 -0.079888374 -0.012908329
0.37700158 -0.078818105 -0.01291485
0.37703413 -0.077747837 -0.012921372
0.37706664 -0.076677576 -0.012927894
0.37797216 -0.075463191 -0.012417138
0.37800464 -0.074394524 -0.012423649
0.37803712 -0.07332585 -0.012430162
0.37806961 -0.072257183 -0.012436674
0.37810206 -0.071188502 -0.012443187
0.37813455 -0.070119828 -0.012449699
0.37816703 -0.069051169 -0.01245621
0.37819952 -0.067982487 -0.012462723
0.378232 -0.066913828 -0.012469235
0.37739196 -0.065974936 -0.012993113
0.37742451 -0.064904675 -0.012999635
0.37745702 -0.063834406 -0.013006157
0.37748957 -0.062764153 -0.013012679
0.37752208 -0.061693888 -0.013019201
0.37755463 -0.06062362 -0.013025723
0.37671497 -0.059673585 -0.013549638
0.37674755 -0.058601722 -0.013556169
0.37678012 -0.057529874 -0.013562701
0.3768127 -0.056458011 -0.013569232
0.37684527 -0.055386163 -0.013575763
0.37687787 -0.054314304 -0.013582296
0.37691045 -0.053242441 -0.013588827
0.37694302 -0.052170593 -0.013595358
0.3769756 -0.05109873 -0.013601891
0.37787992 -0.049920987 -0.013090942
0.37791246 -0.048850719 -0.013097464
0.37794501 -0.047780458 -0.013103986
0.37797752 -0.046710189 -0.013110507
0.37801006 -0.045639928 -0.013117029
0.37804258 -0.044569667 -0.013123551
0.37807512 -0.043499406 -0.013130073
0.37810764 -0.042429138 -0.013136595
0.37814018 -0.04135887 -0.013143118
0.3781727 -0.040288609 -0.013149639
0.37820524 -0.039218348 -0.013156161
0.37910903 -0.038059708 -0.012645064
0.37914151 -0.036991034 -0.012651577
0.37917399 -0.035922367 -0.012658088
0.37920648 -0.034853697 -0.0126646
0.37923896 -0.033785023 -0.012671113
0.37927145 -0.032716349 -0.012677625
0.37930393 -0.031647682 -0.012684138
0.37933642 -0.030579006 -0.012690649
0.3793689 -0.02951034 -0.012697161
0.37940139 -0.028441666 -0.012703674
0.37943387 -0.027372997 -0.012710186
0.37859562 -0.026375188 -0.013234423
0.37862813 -0.025304923 -0.013240946
0.37866068 -0.024234654 -0.013247468
0.37869319 -0.02316439 -0.01325399
0.37785524 -0.02215861 -0.013778243
0.37788782 -0.021086754 -0.013784776
0.37792042 -0.020014895 -0.013791307
0.37708265 -0.019002749 -0.014315605
0.37711528 -0.017929299 -0.014322147
0.37714791 -0.016855851 -0.014328688
0.37718052 -0.015782395 -0.014335229
0.37721315 -0.014708947 -0.014341771
0.37724578 -0.013635499 -0.014348312
0.37727842 -0.01256205 -0.014354853
0.37731105 -0.011488602 -0.014361395
0.37734365 -0.010415155 -0.014367936
0.37737629 -0.0093417056 -0.014374477
0.37740892 -0.0082682576 -0.014381018
0.37744156 -0.0071948059 -0.01438756
0.37747419 -0.0061213574 -0.014394101
0.37837651 -0.0050089052 -0.013882749
0.37840909 -0.0039370507 -0.013889281
0.37844169 -0.002865196 -0.013895812
0.37847427 -0.0017933415 -0.013902344
0.37937635 -0.00068885024 -0.013390949
0.3794089 0.00038141067 -0.013397471
0.37944141 0.0014516753 -0.013403993
0.37947395 0.0025219363 -0.013410515
0.37950647 0.0035922048 -0.013417036
0.37953901 0.0046624658 -0.013423558
0.37957156 0.0057327286 -0.01343008
0.37960407 0.0068029934 -0.013436602
0.37963662 0.0078732576 -0.013443124
0.37966913 0.0089435205 -0.013449647
0.37970167 0.010013783 -0.013456168
0.37973419 0.01108405 -0.01346269
0.37889779 0.012140795 -0.013987254
0.37893036 0.013212651 -0.013993787
0.37896296 0.014284506 -0.014000318
0.37899554 0.015356364 -0.014006849
0.37902811 0.016428221 -0.014013381
0.37819201 0.01749452 -0.01453801
0.37822461 0.018567972 -0.014544551
0.37825724 0.01964142 -0.014551093
0.37828988 0.02071487 -0.014557634
0.37832251 0.021788318 -0.014564175
0.37835515 0.022861768 -0.014570717
0.37838775 0.023935216 -0.014577257
0.37755203 0.025014259 -0.015101958
0.3775847 0.026089299 -0.015108509
0.37848565 0.027155561 -0.014596881
