# .PCD v0.7 - Point Cloud Data file format
VERSION 0.7
FIELDS x y z
SIZE 4 4 4
TYPE F F F
COUNT 1 1 1
WIDTH 1358
HEIGHT 1
VIEWPOINT 0 0 0 1 0 0 0
POINTS 1358
DATA ascii
0.28914317 0.16694406 -0.016437331
0.28917935 0.16813377 -0.016444581
0.28921551 0.16932347 -0.01645183
0.28925169 0.17051318 -0.016459081
0.28928784 0.17170289 -0.016466331
0.28932399 0.17289262 -0.01647358
0.28936017 0.17408232 -0.01648083
0.28939632 0.17527203 -0.016488079
0.28943247 0.17646176 -0.01649533
0.29037121 0.17744209 -0.016032485
0.29040733 0.1786302 -0.016039725
0.29044345 0.17981832 -0.016046965
0.29047957 0.18100645 -0.016054206
0.29051566 0.18219456 -0.016061446
0.29055178 0.18338268 -0.016068686
0.2905879 0.1845708 -0.016075926
0.29062402 0.18575892 -0.016083166
0.29066011 0.18694705 -0.016090406
0.29069623 0.18813516 -0.016097646
0.29073235 0.18932329 -0.016104886
0.2916705 0.19028449 -0.015641926
0.29170656 0.19147103 -0.015649157
0.29174262 0.19265755 -0.015656387
0.29177871 0.19384408 -0.015663616
0.29181477 0.19503061 -0.015670847
0.29185084 0.19621713 -0.015678078
0.2918869 0.19740365 -0.015685309
0.29192296 0.19859019 -0.015692538
0.29195902 0.19977672 -0.015699768
0.2910935 0.20120448 -0.016177287
0.29203117 0.20214976 -0.01571423
0.29206723 0.2033363 -0.015721461
0.29210329 0.20452283 -0.01572869
0.29213935 0.20570937 -0.015735921
0.29217541 0.20689587 -0.015743151
0.29221147 0.20808241 -0.015750382
0.29224753 0.20926893 -0.015757611
0.29228362 0.21045546 -0.015764842
0.29231969 0.211642 -0.015772073
0.29235575 0.21282852 -0.015779303
0.29239181 0.21401505 -0.015786534
0.29242787 0.21520157 -0.015793763
0.29246393 0.21638809 -0.015800994
0.29249999 0.21757463 -0.015808225
0.29253608 0.21876116 -0.015815455
0.29257214 0.2199477 -0.015822684
0.2926082 0.2211342 -0.015829915
0.29354504 0.22205082 -0.015366657
0.29358107 0.22323576 -0.015373877
0.29361707 0.2244207 -0.015381099
0.2936531 0.22560564 -0.015388319
0.2936891 0.22679055 -0.01539554
0.29372513 0.22797549 -0.01540276
0.29376116 0.22916044 -0.015409981
0.29379717 0.23034537 -0.015417201
0.2938332 0.23153029 -0.015424422
0.2947695 0.23243098 -0.014961093
0.29480547 0.23361434 -0.014968304
0.29484144 0.23479769 -0.014975515
0.29487741 0.23598102 -0.014982725
0.29491338 0.23716435 -0.014989937
0.29494935 0.23834771 -0.014997148
0.29408529 0.23982483 -0.015474967
0.29412133 0.24100977 -0.015482187
0.29415733 0.24219473 -0.015489409
0.29329342 0.24367824 -0.015967293
0.29332951 0.24486475 -0.015974523
0.29336557 0.24605128 -0.015981754
0.29340163 0.24723783 -0.015988983
0.29253802 0.24872929 -0.01646689
0.29257414 0.2499174 -0.01647413
0.29261026 0.25110555 -0.01648137
0.29264635 0.25229365 -0.01648861
0.29268247 0.25348178 -0.01649585
0.29181916 0.2549828 -0.016973816
0.29185531 0.25617251 -0.016981065
0.29189149 0.25736222 -0.016988315
0.29192764 0.25855193 -0.016995564
0.29196382 0.25974166 -0.017002815
0.29199997 0.26093137 -0.017010065
0.29293525 0.26179862 -0.016546531
0.29297137 0.26298672 -0.016553771
0.29300749 0.26417485 -0.016561011
0.29304361 0.26536298 -0.016568251
0.2930797 0.26655108 -0.016575491
0.29311582 0.26773924 -0.016582731
0.29405078 0.26859531 -0.01611913
0.29408684 0.26978186 -0.016126361
0.29412293 0.27096835 -0.016133592
0.294159 0.2721549 -0.016140822
0.29419506 0.27334142 -0.016148051
0.29512978 0.27418795 -0.015684366
0.29516581 0.27537289 -0.015691588
0.29520181 0.27655783 -0.015698807
0.29523784 0.27774274 -0.015706029
0.29617226 0.27858132 -0.01524232
0.29620823 0.27976468 -0.015249532
0.29714251 0.28059849 -0.014785795
0.29717842 0.28178024 -0.014792996
0.29721436 0.28296196 -0.014800197
0.29725027 0.28414375 -0.014807398
0.29818431 0.28496957 -0.014343613
0.29822019 0.28614974 -0.014350805
0.29825604 0.28732991 -0.014357996
0.29829192 0.28851005 -0.014365188
0.2983278 0.2896902 -0.01437238
0.29836366 0.29087034 -0.01437957
0.29839954 0.29205051 -0.014386762
0.29843542 0.29323068 -0.014393954
0.29847127 0.29441082 -0.014401145
0.29850715 0.295591 -0.014408337
0.29854301 0.29677114 -0.014415529
0.2976813 0.29832473 -0.014893813
0.29771721 0.29950649 -0.014901015
0.29775316 0.30068824 -0.014908216
0.29778907 0.30186996 -0.014915417
0.29782498 0.30305171 -0.014922619
0.29786089 0.30423346 -0.01492982
0.29789683 0.30541521 -0.014937021
0.29793274 0.30659696 -0.014944222
0.29796866 0.30777872 -0.014951424
0.29800457 0.30896047 -0.014958625
0.29893762 0.30975288 -0.014494635
0.29897347 0.31093302 -0.014501827
0.29900935 0.3121132 -0.014509019
0.29904521 0.31329337 -0.01451621
0.29908109 0.31447351 -0.014523402
0.29911697 0.31565365 -0.014530594
0.30004969 0.31643489 -0.01406651
0.30008551 0.31761345 -0.014073691
0.30101806 0.31838992 -0.013609605
0.30105385 0.31956688 -0.013616777
0.30198625 0.32033861 -0.013152662
0.30202195 0.32151395 -0.013159825
0.3029542 0.32228088 -0.012695679
0.3029899 0.32345468 -0.012702833
0.2507439 0.39883223 -0.041291568
0.25346601 0.3986755 -0.039884131
0.25618783 0.39850917 -0.038476638
0.25801492 0.39881188 -0.037540846
0.2607362 0.39862806 -0.036133248
0.26256287 0.39891642 -0.035197381
0.26438931 0.39919844 -0.034261461
0.26621562 0.39947405 -0.033325478
0.2680417 0.39974332 -0.032389484
0.28632516 -0.099953204 -0.013381533
0.28636107 -0.098771445 -0.013388734
0.28639698 -0.097589694 -0.013395936
0.28552017 -0.096566506 -0.013872222
0.28555614 -0.09538316 -0.013879433
0.28559211 -0.094199814 -0.013886645
0.28562808 -0.093016475 -0.013893855
0.28566402 -0.09183313 -0.013901066
0.28569999 -0.090649784 -0.013908277
0.28573596 -0.08946646 -0.013915488
0.28577194 -0.088283114 -0.013922699
0.28580791 -0.087099753 -0.01392991
0.28584388 -0.085916422 -0.013937121
0.28587985 -0.084733076 -0.013944332
0.28591582 -0.083549738 -0.013951543
0.28595179 -0.082366392 -0.013958754
0.28598773 -0.081183061 -0.013965964
0.28511164 -0.080135964 -0.014442397
0.28514767 -0.078951031 -0.014449618
0.28427166 -0.077899173 -0.014926105
0.28430772 -0.076712646 -0.014933336
0.28434378 -0.075526118 -0.014940565
0.28346801 -0.074467883 -0.015417054
0.28259233 -0.073406465 -0.015893573
0.28262851 -0.072216749 -0.015900824
0.28175297 -0.071150556 -0.016377373
0.28178918 -0.069959238 -0.016384631
0.28091383 -0.068888262 -0.01686121
0.28095007 -0.067695364 -0.016868478
0.28098634 -0.066502459 -0.016875748
0.28102258 -0.065309569 -0.016883017
0.28197023 -0.064002708 -0.016420929
0.28200644 -0.062811412 -0.016428189
0.28204265 -0.061620101 -0.016435448
0.28207886 -0.060428791 -0.016442707
0.28302628 -0.059129905 -0.015980572
0.28306246 -0.057940189 -0.015987821
0.2840097 -0.056646083 -0.015525656
0.28404582 -0.055457961 -0.015532896
0.28408194 -0.054269843 -0.015540136
0.28502902 -0.052982092 -0.015077943
0.28506508 -0.051795568 -0.015085173
0.28510115 -0.050609037 -0.015092404
0.28604808 -0.04932766 -0.014630134
0.28608409 -0.048142724 -0.014637355
0.28612012 -0.046957787 -0.014644575
0.28615612 -0.045772858 -0.014651796
0.28619215 -0.044587921 -0.014659017
0.28622815 -0.043402981 -0.014666238
0.28626418 -0.042218052 -0.014673458
0.28630018 -0.041033115 -0.014680679
0.28633621 -0.039848186 -0.0146879
0.28637221 -0.038663249 -0.01469512
0.28549784 -0.037557233 -0.015171938
0.28553393 -0.03637071 -0.015179168
0.28557 -0.035184179 -0.015186398
0.28560606 -0.033997655 -0.015193629
0.28564212 -0.032811124 -0.015200859
0.28567818 -0.0316246 -0.01520809
0.28571424 -0.030438069 -0.01521532
0.2857503 -0.029251546 -0.01522255
0.28578639 -0.028065015 -0.015229781
0.28582245 -0.026878484 -0.015237011
0.28585851 -0.02569196 -0.015244242
0.28589457 -0.024505436 -0.015251472
0.28593063 -0.023318905 -0.015258702
0.28596669 -0.022132378 -0.015265932
0.28600276 -0.020945851 -0.015273163
0.28512922 -0.019814357 -0.015750097
0.28516534 -0.018626228 -0.015757337
0.28429195 -0.017489955 -0.016234314
0.28341866 -0.016350497 -0.01671131
0.28254545 -0.01520785 -0.017188324
0.2816723 -0.014062024 -0.017665382
0.27988997 -0.012958479 -0.018612212
0.27901712 -0.011804686 -0.019089293
0.27814436 -0.010647709 -0.019566394
0.27727163 -0.0094875395 -0.020043543
0.27548996 -0.0083632953 -0.020990485
0.27461752 -0.0071951663 -0.021467654
0.27374515 -0.0060238559 -0.021944869
0.27287292 -0.0048493599 -0.022422079
0.2729097 -0.0036389425 -0.022429453
0.41833255 0.031238439 0.052096952
0.41836163 0.032195624 0.052091118
0.41839072 0.033152811 0.052085288
0.41841984 0.034109995 0.052079454
0.41844893 0.035067182 0.05207362
0.41847801 0.036024366 0.052067786
0.41853619 0.037938736 0.052056123
0.41765821 0.038925301 0.051580034
0.41768736 0.039884079 0.051574189
0.41771647 0.040842857 0.051568348
0.28094909 0.051756557 -0.019476619
0.28189218 0.052913703 -0.019013617
0.28283519 0.054067668 -0.018550599
0.2837781 0.055218443 -0.018087558
0.28472096 0.056366034 -0.017624475
0.28475723 0.057558931 -0.017631743
0.2847935 0.058751829 -0.017639013
0.28573608 0.059893053 -0.017175917
0.28577232 0.061084356 -0.017183175
0.28580853 0.062275663 -0.017190434
0.28584474 0.063466966 -0.017197695
0.28588095 0.064658277 -0.017204953
0.28591716 0.06584958 -0.017212214
0.28504729 0.067102112 -0.017689897
0.28508356 0.068295017 -0.017697167
0.2851198 0.069487914 -0.017704437
0.28515607 0.070680812 -0.017711705
0.28519234 0.07187371 -0.017718975
0.28613442 0.072997414 -0.01725577
0.28617063 0.074188717 -0.017263031
0.28620684 0.07538002 -0.017270289
0.28714871 0.076497354 -0.016807046
0.28718489 0.07768707 -0.016814297
0.28722104 0.078876778 -0.016821546
0.28725719 0.080066487 -0.016828796
0.28729337 0.081256203 -0.016836045
0.28823498 0.082363978 -0.016372744
0.28827107 0.0835521 -0.016379984
0.28830719 0.084740222 -0.016387224
0.28834331 0.085928343 -0.016394464
0.28837943 0.087116465 -0.016401704
0.28841552 0.088304579 -0.016408945
0.28845164 0.089492701 -0.016416185
0.28939286 0.090587735 -0.015952818
0.28942895 0.091774262 -0.015960049
0.28946501 0.092960797 -0.01596728
0.28950107 0.094147325 -0.015974509
0.28953713 0.095333852 -0.015981739
0.28957319 0.096520379 -0.01598897
0.28960925 0.097706906 -0.015996201
0.28964531 0.098893434 -0.01600343
0.28968138 0.10007995 -0.016010661
0.28971747 0.10126648 -0.016017891
0.28975353 0.10245302 -0.016025122
0.28978959 0.10363954 -0.016032353
0.28982565 0.10482607 -0.016039582
0.28986171 0.1060126 -0.016046813
0.28989777 0.10719912 -0.016054044
0.28993383 0.10838565 -0.016061274
0.28996992 0.10957217 -0.016068503
0.29000598 0.11075871 -0.016075734
0.28913781 0.11206698 -0.016553747
0.2891739 0.11325511 -0.016560987
0.28921002 0.11444323 -0.016568227
0.28924614 0.11563134 -0.016575467
0.28928226 0.11681947 -0.016582707
0.28931838 0.11800759 -0.016589947
0.28845054 0.11932702 -0.01706804
0.28848672 0.12051672 -0.017075289
0.28852287 0.12170645 -0.017082538
0.28946283 0.12276007 -0.016618907
0.28949893 0.12394819 -0.016626148
0.28953505 0.1251363 -0.016633388
0.28957117 0.12632443 -0.016640628
0.28960729 0.12751254 -0.016647868
0.28964338 0.12870066 -0.016655108
0.2896795 0.12988879 -0.016662348
0.28971562 0.13107692 -0.016669588
0.28975174 0.13226503 -0.016676828
0.28978783 0.13345315 -0.016684068
0.28982395 0.13464127 -0.016691308
0.28986007 0.1358294 -0.016698549
0.28989619 0.1370175 -0.016705789
0.28993228 0.13820563 -0.016713029
0.29087153 0.13923536 -0.016249264
0.29090759 0.1404219 -0.016256494
0.29094365 0.14160842 -0.016263723
0.29097971 0.14279495 -0.016270954
0.2910158 0.14398147 -0.016278185
0.29105186 0.14516801 -0.016285416
0.29108793 0.14635454 -0.016292647
0.29112399 0.14754106 -0.016299875
0.29116005 0.1487276 -0.016307106
0.29119611 0.1499141 -0.016314337
0.29123217 0.15110065 -0.016321568
0.29126826 0.15228716 -0.016328797
0.29130432 0.15347369 -0.016336028
0.29134038 0.15466022 -0.016343258
0.29137644 0.15584674 -0.016350489
0.2914125 0.15703328 -0.01635772
0.29144856 0.1582198 -0.016364949
0.29148462 0.15940633 -0.01637218
0.29152071 0.16059285 -0.01637941
0.29155678 0.16177939 -0.016386641
0.29159284 0.16296591 -0.01639387
0.2916289 0.16415244 -0.016401101
0.29166496 0.16533898 -0.016408332
0.29170102 0.1665255 -0.016415562
0.29173708 0.16771203 -0.016422793
0.29177314 0.16889854 -0.016430022
0.29271114 0.16988529 -0.015965957
0.29274714 0.1710702 -0.015973179
0.29278317 0.17225514 -0.015980398
0.29281917 0.17344008 -0.01598762
0.2928552 0.17462502 -0.015994841
0.2928912 0.17580996 -0.016002061
0.29292724 0.17699488 -0.016009282
0.29296324 0.17817982 -0.016016502
0.29299927 0.17936476 -0.016023723
0.29303527 0.1805497 -0.016030943
0.2930713 0.18173464 -0.016038164
0.29400864 0.18270224 -0.015574009
0.29404461 0.18388559 -0.01558122
0.29408059 0.18506894 -0.015588432
0.29411653 0.18625228 -0.015595643
0.2941525 0.18743561 -0.015602853
0.29418847 0.18861897 -0.015610064
0.29422444 0.1898023 -0.015617276
0.29426041 0.19098563 -0.015624486
0.29429638 0.192169 -0.015631698
0.29433236 0.19335233 -0.015638908
0.29436833 0.19453567 -0.015646119
0.2944043 0.19571902 -0.015653331
0.29444024 0.19690236 -0.015660541
0.29447621 0.1980857 -0.015667751
0.29451218 0.19926904 -0.015674964
0.29454815 0.20045239 -0.015682174
0.29458413 0.20163572 -0.015689384
0.2946201 0.20281908 -0.015696596
0.29465607 0.20400241 -0.015703807
0.29469204 0.20518576 -0.015711017
0.29472801 0.20636909 -0.015718229
0.29476395 0.20755243 -0.015725439
0.29479992 0.20873578 -0.015732652
0.2948359 0.20991912 -0.015739862
0.29487187 0.21110247 -0.015747072
0.29490784 0.2122858 -0.015754284
0.29494381 0.21346916 -0.015761495
0.29497978 0.21465248 -0.015768705
0.29501575 0.21583582 -0.015775917
0.29505172 0.21701917 -0.015783127
0.29508767 0.21820252 -0.015790338
0.29512364 0.21938586 -0.01579755
0.29515961 0.22056921 -0.01580476
0.29519558 0.22175254 -0.01581197
0.29523155 0.22293587 -0.015819183
0.29526752 0.22411923 -0.015826393
0.29620308 0.22502793 -0.015361879
0.29623899 0.22620967 -0.01536908
0.2962749 0.22739142 -0.015376282
0.29631084 0.22857319 -0.015383483
0.29634675 0.22975494 -0.015390684
0.29728201 0.23065408 -0.014926112
0.29731786 0.23183422 -0.014933303
0.29735374 0.23301437 -0.014940495
0.29738963 0.23419453 -0.014947686
0.29742548 0.23537467 -0.014954878
0.29746136 0.23655483 -0.01496207
0.29749724 0.237735 -0.014969261
0.29753309 0.23891516 -0.014976453
0.29667002 0.24039067 -0.015455496
0.29670593 0.24157244 -0.015462697
0.29674187 0.24275416 -0.015469898
0.29677778 0.24393591 -0.015477099
0.29591495 0.24541938 -0.015956191
0.29595092 0.24660273 -0.015963402
0.29508823 0.24809097 -0.016442522
0.29512423 0.24927591 -0.016449742
0.29516026 0.25046083 -0.016456963
0.29519626 0.25164577 -0.016464183
0.29433376 0.253142 -0.016943378
0.29436982 0.25432852 -0.016950609
0.29440591 0.25551507 -0.01695784
0.29444197 0.25670159 -0.016965071
0.29447803 0.25788811 -0.016972302
0.29451409 0.25907466 -0.01697953
0.29455015 0.26026118 -0.016986761
0.29458621 0.2614477 -0.016993992
0.29462227 0.26263422 -0.017001223
0.29465836 0.26382077 -0.017008452
0.29469442 0.26500729 -0.017015683
0.29562846 0.265865 -0.016550831
0.29566449 0.26704994 -0.016558053
0.29570049 0.26823488 -0.016565273
0.29663432 0.26908624 -0.01610041
0.29667029 0.27026957 -0.016107621
0.29670623 0.27145293 -0.016114831
0.2967422 0.27263626 -0.016122043
0.29767579 0.27347964 -0.015657131
0.2977117 0.27466142 -0.015664332
0.29774761 0.27584314 -0.015671533
0.29868099 0.27668017 -0.015206582
0.29871684 0.27786034 -0.015213774
0.29875273 0.27904052 -0.015220965
0.29968596 0.27987114 -0.014755949
0.29972178 0.2810497 -0.014763132
0.2997576 0.28222826 -0.014770313
0.29979342 0.28340682 -0.014777495
0.30072635 0.28422952 -0.014312456
0.30076215 0.2854065 -0.014319628
0.30079791 0.28658348 -0.014326802
0.3008337 0.28776044 -0.014333974
0.30086946 0.28893739 -0.014341146
0.30090523 0.29011437 -0.014348318
0.30094102 0.29129136 -0.01435549
0.30097678 0.29246831 -0.014362662
0.30101255 0.29364526 -0.014369834
0.30104834 0.29482228 -0.014377006
0.3010841 0.29599923 -0.014384178
0.30022329 0.29754961 -0.014863677
0.30025911 0.29872814 -0.014870859
0.30029494 0.29990673 -0.014878041
0.30033076 0.30108529 -0.014885223
0.30036658 0.30226386 -0.014892405
0.3004024 0.30344242 -0.014899586
0.30043826 0.30462098 -0.014906769
0.30047408 0.30579954 -0.01491395
0.3005099 0.30697811 -0.014921132
0.30054572 0.30815667 -0.014928314
0.30058154 0.30933523 -0.014935495
0.3015134 0.31012291 -0.014470244
0.30154917 0.31129989 -0.014477416
0.30158496 0.31247684 -0.014484588
0.30162072 0.3136538 -0.01449176
0.30165651 0.31483078 -0.014498932
0.30169228 0.31600776 -0.014506104
0.30262381 0.31678426 -0.014040785
0.30265954 0.31795964 -0.014047948
0.30359092 0.31873137 -0.013582598
0.3036266 0.31990516 -0.013589752
0.30455783 0.32067209 -0.013124374
0.30548903 0.32143584 -0.01265895
0.30552462 0.32260647 -0.012666083
0.3055602 0.32377708 -0.012673217
0.2515482 0.3988018 -0.042273898
0.25426728 0.39864516 -0.040862761
0.25698608 0.39847896 -0.03945158
0.25881115 0.39878178 -0.038513321
0.26152939 0.39859805 -0.037102021
0.26335403 0.39888647 -0.036163677
0.26517844 0.39916858 -0.035225295
0.26700276 0.39944425 -0.034286857
0.26882681 0.39971361 -0.033348393
0.27065071 0.39997655 -0.032409865
0.28889775 -0.099654794 -0.013355471
0.28893358 -0.098476216 -0.013362654
0.2889694 -0.097297654 -0.013369835
0.28900522 -0.096119091 -0.013377017
0.28904104 -0.094940528 -0.013384199
0.28907686 -0.093761966 -0.013391381
0.28911269 -0.092583403 -0.013398563
0.28914851 -0.09140484 -0.013405745
0.28918433 -0.090226278 -0.013412926
0.28922015 -0.089047715 -0.013420109
0.28925598 -0.087869152 -0.01342729
0.2892918 -0.086690575 -0.013434472
0.28932765 -0.085512012 -0.013441654
0.28845215 -0.084476121 -0.013919277
0.28848803 -0.083295971 -0.013926469
0.28852388 -0.082115807 -0.01393366
0.28855976 -0.080935657 -0.013940852
0.28768456 -0.079891786 -0.014418499
0.2877205 -0.078710034 -0.0144257
0.28684545 -0.077661395 -0.014903375
0.28688142 -0.076478057 -0.014910585
0.28600651 -0.075424641 -0.015388289
0.28604254 -0.074239694 -0.015395511
0.28516772 -0.07318151 -0.01587327
0.28429306 -0.072120123 -0.016351011
0.28432918 -0.070932016 -0.016358251
0.2843653 -0.069743887 -0.016365491
0.28349084 -0.068676122 -0.016843284
0.28352699 -0.06748642 -0.016850533
0.28356314 -0.066296704 -0.016857782
0.28359932 -0.065106995 -0.016865032
0.28363547 -0.063917279 -0.016872283
0.28367165 -0.062727571 -0.016879532
0.28461808 -0.061427046 -0.016416172
0.2846542 -0.06023892 -0.016423412
0.28560051 -0.058943179 -0.015960034
0.28563657 -0.057756647 -0.015967265
0.28567263 -0.056570124 -0.015974496
0.2866188 -0.055280741 -0.015511042
0.28665483 -0.054095812 -0.015518262
0.28760079 -0.052811209 -0.015054805
0.28763676 -0.051627867 -0.015062016
0.28767273 -0.050444532 -0.015069227
0.28770867 -0.049261186 -0.015076438
0.28774464 -0.048077844 -0.015083648
0.28869033 -0.046802796 -0.014620134
0.28872624 -0.045621052 -0.014627335
0.28876215 -0.044439305 -0.014634536
0.28879809 -0.043257553 -0.014641738
0.28883401 -0.042075802 -0.014648939
0.28886992 -0.040894054 -0.01465614
0.28890583 -0.039712302 -0.014663341
0.28894177 -0.038530562 -0.014670542
0.28897768 -0.037348803 -0.014677743
0.28901359 -0.036167052 -0.014684944
0.2881403 -0.035061076 -0.015162969
0.28817627 -0.033877734 -0.01517018
0.28821224 -0.032694399 -0.015177391
0.28824821 -0.031511053 -0.015184602
0.28828418 -0.030327709 -0.015191813
0.28832015 -0.029144367 -0.015199024
0.28835613 -0.027961023 -0.015206235
0.28839207 -0.026777679 -0.015213446
0.28842804 -0.025594342 -0.015220657
0.28846401 -0.024410998 -0.015227868
0.28849998 -0.023227656 -0.015235079
0.28853595 -0.022044316 -0.01524229
0.28766328 -0.020917634 -0.01572044
0.2886079 -0.019677632 -0.015256712
0.2868267 -0.018601241 -0.016205868
0.28686279 -0.017414713 -0.016213099
0.28599039 -0.016278476 -0.016691295
0.2851181 -0.015139056 -0.017169524
0.28424591 -0.013996448 -0.017647771
0.28246546 -0.01289617 -0.018597072
0.28068528 -0.011789518 -0.019546386
0.27890524 -0.010676499 -0.020495728
0.27803355 -0.0095163677 -0.020974107
0.41943881 0.017820595 0.051909111
0.41946787 0.018776186 0.051903289
0.41949689 0.019731781 0.051897466
0.41952595 0.020687371 0.051891644
0.41955498 0.021642964 0.051885821
0.41958404 0.022598557 0.051879995
0.41961309 0.023554152 0.051874172
0.41964212 0.024509743 0.051868349
0.41967118 0.025465336 0.051862527
0.41970024 0.026420929 0.051856704
0.41972926 0.027376521 0.051850881
0.41975832 0.028332112 0.051845059
0.41978735 0.029287705 0.051839232
0.4198164 0.030243298 0.05183341
0.41984546 0.031198891 0.051827587
0.41987449 0.032154486 0.051821765
0.41990355 0.033110075 0.051815942
0.41902632 0.034087047 0.051338702
0.4190554 0.035044231 0.051332872
0.41908452 0.036001418 0.051327039
0.41911361 0.036958601 0.051321205
0.41914269 0.037915789 0.051315371
0.41917178 0.038872972 0.051309541
0.41920087 0.039830159 0.051303707
0.41922998 0.040787343 0.051297873
0.41925907 0.04174453 0.051292039
0.41928816 0.042701714 0.051286209
0.2835567 0.052842908 -0.019468954
0.28540429 0.053951636 -0.018533112
0.28544056 0.055144537 -0.018540382
0.28638232 0.056290574 -0.018076081
0.28641853 0.057481878 -0.01808334
0.28736013 0.058623139 -0.01761901
0.28830165 0.059761211 -0.01715466
0.28833777 0.060949333 -0.0171619
0.28837386 0.062137455 -0.01716914
0.28750479 0.063381992 -0.01764801
0.2884461 0.064513691 -0.01718362
0.28757709 0.065761417 -0.017662508
0.28761327 0.066951126 -0.017669758
0.28764942 0.068140842 -0.017677009
0.28768557 0.069330551 -0.017684259
0.28772175 0.070520267 -0.017691508
0.2877579 0.071709983 -0.017698757
0.28779408 0.072899692 -0.017706007
0.288735 0.074018657 -0.017241541
0.28877112 0.075206771 -0.017248781
0.28880721 0.076394893 -0.017256021
0.28974798 0.077507488 -0.016791528
0.28978404 0.078694016 -0.016798757
0.2898201 0.079880543 -0.016805988
0.28985617 0.08106707 -0.016813219
0.29079673 0.082171693 -0.01634864
0.29083273 0.083356626 -0.016355859
0.29086876 0.084541567 -0.016363081
0.29090476 0.0857265 -0.0163703
0.29094079 0.086911432 -0.016377522
0.29097679 0.088096365 -0.016384741
0.29101282 0.089281298 -0.016391963
0.29104882 0.090466239 -0.016399184
0.29198888 0.091556527 -0.015934542
0.29202485 0.09273988 -0.015941754
0.29206082 0.093923219 -0.015948964
0.29209679 0.095106564 -0.015956175
0.29213277 0.096289903 -0.015963387
0.29216874 0.097473241 -0.015970597
0.29220471 0.098656587 -0.015977807
0.29224068 0.099839926 -0.01598502
0.29227662 0.10102327 -0.01599223
0.29231259 0.10220662 -0.01599944
0.29234856 0.10338996 -0.016006652
0.29238454 0.1045733 -0.016013863
0.29242051 0.10575664 -0.016021075
0.29245648 0.10693998 -0.016028285
0.29249245 0.10812332 -0.016035495
0.29252842 0.10930666 -0.016042707
0.29256439 0.11049 -0.016049918
0.29260033 0.11167336 -0.016057128
0.29173315 0.11298 -0.016536376
0.29176915 0.11416493 -0.016543597
0.29180518 0.11534987 -0.016550817
0.29184121 0.1165348 -0.016558038
0.29187721 0.11771974 -0.01656526
0.29191324 0.11890467 -0.016572479
0.29194924 0.12008961 -0.016579701
0.29198527 0.12127455 -0.01658692
0.29202127 0.12245948 -0.016594142
0.29205731 0.12364441 -0.016601361
0.29209331 0.12482934 -0.016608583
0.29212934 0.12601428 -0.016615804
0.29216534 0.12719922 -0.016623024
0.29220137 0.12838416 -0.016630245
0.29223737 0.12956908 -0.016637465
0.2922734 0.13075402 -0.016644686
0.2923094 0.13193895 -0.016651906
0.29234543 0.13312389 -0.016659128
0.29238144 0.13430883 -0.016666347
0.29241747 0.13549377 -0.016673569
0.29245347 0.1366787 -0.01668079
0.2924895 0.13786364 -0.01668801
0.2925255 0.13904856 -0.016695231
0.29256153 0.1402335 -0.016702451
0.29259753 0.14141843 -0.016709672
0.29353553 0.14244024 -0.016244614
0.29357147 0.14362358 -0.016251825
0.29360744 0.14480694 -0.016259035
0.29364341 0.14599028 -0.016266247
0.29367939 0.14717361 -0.016273458
0.29371536 0.14835696 -0.016280668
0.29375133 0.14954031 -0.01628788
0.2937873 0.15072364 -0.01629509
0.29382327 0.15190698 -0.016302301
0.29385924 0.15309033 -0.016309513
0.29389518 0.15427367 -0.016316723
0.29393116 0.155457 -0.016323935
0.29396713 0.15664035 -0.016331146
0.2940031 0.1578237 -0.016338356
0.29403907 0.15900704 -0.016345568
0.29407504 0.16019037 -0.016352778
0.29411101 0.16137372 -0.016359989
0.29414698 0.16255707 -0.016367201
0.29418296 0.1637404 -0.016374411
0.2942189 0.16492376 -0.016381621
0.29425487 0.16610709 -0.016388834
0.29429084 0.16729043 -0.016396044
0.29522771 0.16827561 -0.015930763
0.29526362 0.16945736 -0.015937964
0.29529956 0.17063911 -0.015945164
0.29533547 0.17182086 -0.015952365
0.29537138 0.17300262 -0.015959568
0.2954073 0.17418437 -0.015966769
0.29544324 0.17536612 -0.01597397
0.29637972 0.17633855 -0.015508611
0.29641557 0.17751871 -0.015515802
0.29645145 0.17869887 -0.015522994
0.29648733 0.17987902 -0.015530186
0.29652318 0.1810592 -0.015537377
0.29655907 0.18223934 -0.015544568
0.29659492 0.1834195 -0.01555176
0.2966308 0.18459965 -0.015558952
0.29666668 0.18577981 -0.015566143
0.29670253 0.18695995 -0.015573335
0.29673842 0.18814011 -0.015580527
0.29767436 0.18909343 -0.015115025
0.29771018 0.190272 -0.015122206
0.297746 0.19145057 -0.015129388
0.29778183 0.19262913 -0.01513657
0.29781765 0.19380769 -0.015143751
0.29785347 0.19498625 -0.015150934
0.29788929 0.19616482 -0.015158115
0.29792511 0.19734338 -0.015165297
0.29796094 0.19852194 -0.015172479
0.29799676 0.19970052 -0.015179661
0.29803258 0.20087907 -0.015186843
0.2980684 0.20205764 -0.015194025
0.29810423 0.20323621 -0.015201206
0.29814008 0.20441477 -0.015208389
0.2981759 0.20559333 -0.01521557
0.29821172 0.2067719 -0.015222752
0.29824755 0.20795046 -0.015229934
0.29828337 0.20912902 -0.015237115
0.29741997 0.21056311 -0.015717166
0.29745585 0.21174327 -0.015724357
0.2974917 0.21292341 -0.015731549
0.29752758 0.21410356 -0.015738741
0.29756346 0.21528372 -0.015745932
0.29759932 0.21646388 -0.015753124
0.2976352 0.21764404 -0.015760316
0.29767108 0.21882421 -0.015767507
0.29770693 0.22000435 -0.015774699
0.29774281 0.22118452 -0.015781891
0.2977787 0.22236466 -0.01578908
0.29781455 0.22354484 -0.015796272
0.29785043 0.22472499 -0.015803464
0.29788631 0.22590515 -0.015810655
0.2988207 0.22680748 -0.015344843
0.29885653 0.22798605 -0.015352026
0.29889235 0.22916462 -0.015359207
0.29892817 0.23034318 -0.015366388
0.29986227 0.23123758 -0.014900554
0.29989806 0.23241456 -0.014907726
0.29993382 0.23359153 -0.014914898
0.29996958 0.23476849 -0.01492207
0.30000538 0.23594545 -0.014929242
0.30004114 0.23712245 -0.014936415
0.30007693 0.2382994 -0.014943587
0.30011269 0.23947638 -0.014950759
0.29925057 0.24095026 -0.015431025
0.2992864 0.24212882 -0.015438207
0.29932222 0.24330738 -0.015445389
0.29846025 0.24478763 -0.01592572
0.2984961 0.24596781 -0.015932912
0.29853198 0.24714796 -0.015940104
0.29767025 0.24863458 -0.016420448
0.29770616 0.24981633 -0.016427649
0.29684457 0.25130773 -0.016908022
0.29688054 0.25249106 -0.016915234
0.29691651 0.25367439 -0.016922444
0.29695249 0.25485775 -0.016929654
0.29698846 0.25604111 -0.016936867
0.29702443 0.25722444 -0.016944077
0.2970604 0.25840777 -0.016951289
0.29709637 0.25959113 -0.016958499
0.29713231 0.26077446 -0.01696571
0.29716828 0.26195779 -0.016972922
0.29720426 0.26314116 -0.016980132
0.29724023 0.26432449 -0.016987342
0.29817313 0.26517907 -0.016521266
0.29820904 0.26636085 -0.016528467
0.29824495 0.2675426 -0.016535668
0.29917768 0.2683908 -0.016069552
0.29921353 0.26957095 -0.016076744
0.29924941 0.27075112 -0.016083935
0.30018196 0.27159292 -0.015617753
0.30021778 0.27277148 -0.015624936
0.3002536 0.27395007 -0.015632117
0.30028942 0.27512863 -0.0156393
0.3012217 0.2759625 -0.015173095
0.30125746 0.27713946 -0.015180267
0.30129325 0.27831647 -0.01518744
0.30222532 0.27914396 -0.014721209
0.30226105 0.28031933 -0.014728371
0.30229679 0.28149471 -0.014735534
0.30322865 0.28231585 -0.014269252
0.30326435 0.28348964 -0.014276406
0.30330002 0.28466341 -0.014283558
0.3033357 0.28583723 -0.014290711
0.30337137 0.287011 -0.014297863
0.30340704 0.28818479 -0.014305016
0.30344272 0.28935856 -0.014312169
0.30347839 0.29053238 -0.014319322
0.30351409 0.29170614 -0.014326475
0.30354977 0.29287991 -0.014333627
0.30358544 0.29405373 -0.01434078
0.30272549 0.29559925 -0.014821483
0.30276123 0.29677463 -0.014828646
0.30279696 0.29795 -0.014835807
0.30283266 0.2991254 -0.01484297
0.3028684 0.30030078 -0.014850133
0.30290413 0.30147615 -0.014857295
0.30293986 0.30265155 -0.014864458
0.30297557 0.30382693 -0.014871621
0.3030113 0.3050023 -0.014878782
0.30304703 0.30617768 -0.014885945
0.30308276 0.30735305 -0.014893107
0.30311847 0.30852842 -0.01490027
0.3031542 0.3097038 -0.014907432
0.30408493 0.31048673 -0.014440918
0.3041206 0.3116605 -0.014448071
0.30415627 0.31283429 -0.014455223
0.30419195 0.31400806 -0.014462376
0.30422762 0.31518188 -0.01446953
0.30426332 0.31635568 -0.014476682
0.30519369 0.31712741 -0.0140101
0.30522931 0.31829959 -0.014017243
0.30615959 0.31906658 -0.013550606
0.30619517 0.32023719 -0.013557739
0.30623075 0.32140779 -0.013564872
0.30716079 0.32216841 -0.013098222
0.30719632 0.32333741 -0.013105346
0.30812621 0.32409325 -0.012638667
0.25145999 0.39924505 -0.043730412
0.25417608 0.39909011 -0.042315584
0.25689185 0.39892563 -0.040900737
0.25960734 0.39875165 -0.039485797
0.26232257 0.39856803 -0.038070798
0.2641452 0.39885655 -0.037129998
0.26596761 0.39913872 -0.036189146
0.26778987 0.39941448 -0.035248231
0.26961192 0.39968389 -0.034307312
0.2714338 0.39994693 -0.033366319
0.2914663 -0.099356242 -0.013324515
0.291502 -0.098180853 -0.013331677
0.29153773 -0.097005479 -0.01333884
0.29248419 -0.09567146 -0.01287445
0.29251987 -0.094497681 -0.012881603
0.29255554 -0.093323901 -0.012888756
0.29259121 -0.0921501 -0.012895908
0.29262692 -0.09097632 -0.012903061
0.29266259 -0.089802541 -0.012910213
0.29178783 -0.088777833 -0.013388976
0.29182354 -0.087602444 -0.013396139
0.29185927 -0.086427055 -0.013403301
0.291895 -0.085251682 -0.013410464
0.29193074 -0.0840763 -0.013417627
0.29196644 -0.082900934 -0.013424789
0.29109204 -0.081865065 -0.01390362
0.2911278 -0.080688097 -0.013910792
0.29116356 -0.079511121 -0.013917964
0.29028934 -0.078468882 -0.014396833
0.29032516 -0.077290319 -0.014404016
0.28945103 -0.076243319 -0.01488294
0.28857705 -0.075193129 -0.015361846
0.28861296 -0.074011371 -0.015369048
0.28773913 -0.072956398 -0.015847996
0.2877751 -0.07177306 -0.015855206
0.28690138 -0.070713304 -0.016334184
0.28693742 -0.069528371 -0.016341403
0.28606379 -0.068463847 -0.016820434
0.28609988 -0.06727732 -0.016827665
0.28613594 -0.066090792 -0.016834896
0.286172 -0.064904265 -0.016842127
0.28620806 -0.063717738 -0.016849356
0.28624412 -0.06253121 -0.016856587
0.28718951 -0.061233822 -0.016391948
0.28722554 -0.060048886 -0.016399169
0.28726155 -0.058863956 -0.016406389
0.2882067 -0.05757295 -0.015941737
0.28824267 -0.056389611 -0.015948949
0.28918767 -0.05510338 -0.015484268
0.28922358 -0.053921636 -0.01549147
0.28925952 -0.052739877 -0.015498671
0.29020435 -0.051460028 -0.015033963
0.2902402 -0.050279871 -0.015041155
0.29027608 -0.049099714 -0.015048346
0.29031193 -0.047919556 -0.015055537
0.29034781 -0.046739396 -0.015062729
0.2903837 -0.045559239 -0.015069921
0.29041955 -0.044379082 -0.015077112
0.29045543 -0.043198925 -0.015084304
0.29049131 -0.042018767 -0.015091496
0.29143569 -0.040754832 -0.014626653
0.29147151 -0.03957627 -0.014633834
0.29150733 -0.038397707 -0.014641016
0.29154316 -0.037219137 -0.014648198
0.29157898 -0.036040574 -0.01465538
0.2916148 -0.034862012 -0.014662562
0.2907424 -0.033757675 -0.015141836
0.29077828 -0.032577518 -0.015149028
0.29081413 -0.031397361 -0.015156219
0.29085001 -0.030217204 -0.01516341
0.2908859 -0.029037049 -0.015170602
0.29092175 -0.027856885 -0.015177794
0.29095763 -0.026676727 -0.015184985
0.29099351 -0.025496572 -0.015192177
0.29102936 -0.024316415 -0.015199369
0.29106525 -0.02313626 -0.01520656
0.29110113 -0.021956103 -0.015213751
0.29022935 -0.020832647 -0.015693104
0.29117286 -0.019595791 -0.015228135
0.29030117 -0.018469142 -0.015707508
0.28942963 -0.017339315 -0.016186912
0.28855816 -0.016206302 -0.016666334
0.41873091 0.0043913554 0.050778758
0.41876 0.005348539 0.050772928
0.41878909 0.0063057267 0.050767094
0.41881818 0.0072629126 0.05076126
0.41884729 0.0082200961 0.05075543
0.41887638 0.0091772815 0.050749596
0.41981193 0.010152943 0.051216163
0.41984099 0.011108536 0.05121034
0.41987005 0.012064128 0.051204517
0.41989908 0.013019722 0.051198695
0.42083439 0.013987419 0.051665314
0.42086339 0.014941419 0.051659502
0.42089239 0.015895417 0.051653687
0.42092139 0.016849419 0.051647875
0.42095038 0.017803418 0.05164206
0.42097938 0.018757418 0.051636249
0.42010239 0.01970887 0.051157933
0.42103738 0.020665418 0.051624622
0.42106637 0.021619419 0.051618807
0.42109537 0.022573419 0.051612996
0.42112437 0.023527419 0.05160718
0.42115337 0.024481419 0.051601369
0.42118236 0.02543542 0.051595554
0.42121136 0.026389418 0.051589742
0.42124036 0.027343418 0.051583927
0.42036381 0.028309202 0.051105522
0.42129835 0.029251417 0.0515723
0.42132735 0.030205417 0.051566485
0.42045096 0.03117598 0.051088054
0.42047998 0.032131571 0.051082231
0.42050904 0.033087164 0.051076408
0.42053807 0.034042757 0.051070586
0.42056713 0.03499835 0.051064763
0.42059618 0.035953943 0.051058937
0.42062521 0.036909536 0.051053114
0.4197492 0.037892841 0.050574612
0.41977829 0.038850024 0.050568778
0.42071235 0.039776314 0.051035646
0.42074141 0.040731907 0.051029824
0.41986558 0.041721579 0.05055128
0.41989467 0.042678766 0.050545447
0.41992375 0.043635949 0.050539613
0.28706473 0.053879399 -0.018983506
0.28891003 0.054980248 -0.018045189
0.28894612 0.056168366 -0.018052429
0.28988668 0.057308074 -0.017586855
0.28992274 0.058494601 -0.017594086
0.2899588 0.059681129 -0.017601315
0.29089922 0.060814459 -0.017135678
0.29003096 0.062054183 -0.017615777
0.29006702 0.063240707 -0.017623007
0.29100728 0.064369261 -0.017157339
0.29013914 0.065613762 -0.017637467
0.2901752 0.066800289 -0.017644698
0.29021126 0.067986824 -0.017651929
0.29024732 0.069173343 -0.017659159
0.29028341 0.070359871 -0.017666388
0.29031947 0.071546398 -0.017673619
0.29125938 0.072663806 -0.017207883
0.29129541 0.073848739 -0.017215105
0.29133141 0.07503368 -0.017222324
0.29136744 0.076218612 -0.017229546
0.29140344 0.077403545 -0.017236765
0.29234305 0.078511402 -0.016770998
0.29237899 0.07969474 -0.01677821
0.29241496 0.080878079 -0.01678542
0.29335436 0.081979565 -0.016319614
0.29339027 0.083161317 -0.016326815
0.29342619 0.084343068 -0.016334016
0.29346213 0.085524812 -0.016341219
0.29349804 0.086706564 -0.01634842
0.29353395 0.087888315 -0.016355621
0.29356989 0.089070059 -0.016362822
0.2936058 0.090251811 -0.016370023
0.29454476 0.091338955 -0.015904142
0.29458064 0.092519119 -0.015911331
0.29461649 0.093699276 -0.015918523
0.29465237 0.094879434 -0.015925715
0.29468825 0.096059583 -0.015932906
0.29472411 0.09723974 -0.015940098
0.29475999 0.098419897 -0.01594729
0.29479587 0.099600054 -0.015954481
0.29483172 0.10078021 -0.015961673
0.2948676 0.10196038 -0.015968865
0.29490346 0.10314053 -0.015976056
0.29493934 0.10432069 -0.015983248
0.29497522 0.10550085 -0.01599044
0.29501107 0.106681 -0.015997631
0.29504696 0.10786116 -0.016004823
0.29508284 0.10904131 -0.016012015
0.29511869 0.11022147 -0.016019206
0.29515457 0.11140162 -0.016026396
0.29519045 0.11258178 -0.016033588
0.29522631 0.11376194 -0.01604078
0.29526219 0.1149421 -0.016047971
0.29529807 0.11612225 -0.016055163
0.29533392 0.11730241 -0.016062355
0.29446787 0.1186138 -0.016542854
0.29450378 0.11979555 -0.016550055
0.29453972 0.1209773 -0.016557256
0.29457563 0.12215905 -0.016564457
0.29461154 0.1233408 -0.016571658
0.29464746 0.12452255 -0.016578859
0.2946834 0.12570429 -0.016586062
0.29471931 0.12688604 -0.016593263
0.29475522 0.12806779 -0.016600464
0.29479116 0.12924954 -0.016607665
0.29482707 0.13043131 -0.016614866
0.29486299 0.13161305 -0.016622066
0.2948989 0.1327948 -0.016629267
0.29493484 0.13397655 -0.01663647
0.29497075 0.1351583 -0.016643671
0.29500666 0.13634005 -0.016650872
0.29504257 0.13752179 -0.016658073
0.29507852 0.13870354 -0.016665274
0.29511443 0.13988529 -0.016672475
0.29515034 0.14106704 -0.016679676
0.29518625 0.14224879 -0.016686879
0.29522219 0.14343053 -0.01669408
0.29615897 0.14444602 -0.016227761
0.29619485 0.14562619 -0.016234953
0.2962307 0.14680633 -0.016242145
0.29626659 0.1479865 -0.016249334
0.29630244 0.14916664 -0.016256526
0.29633832 0.15034682 -0.016263718
0.2963742 0.15152696 -0.016270909
0.29641005 0.15270713 -0.016278101
0.29644594 0.15388727 -0.016285293
0.29648182 0.15506743 -0.016292484
0.29651767 0.15624759 -0.016299676
0.29655355 0.15742774 -0.016306868
0.29658943 0.1586079 -0.016314059
0.29662529 0.15978806 -0.016321251
0.29666117 0.16096821 -0.016328443
0.29669702 0.16214837 -0.016335635
0.2967329 0.16332853 -0.016342826
0.29676878 0.1645087 -0.016350018
0.2977047 0.16549389 -0.015883476
0.29774052 0.16667247 -0.015890658
0.29777634 0.16785103 -0.01589784
0.29781216 0.16902959 -0.015905021
0.29784799 0.17020816 -0.015912203
0.29788381 0.17138672 -0.015919385
0.2988193 0.17236079 -0.015452802
0.2988551 0.17353776 -0.015459974
0.29889086 0.17471474 -0.015467146
0.29892665 0.1758917 -0.015474319
0.29896241 0.17706868 -0.015481491
0.29899818 0.17824565 -0.015488663
0.29903397 0.17942262 -0.015495835
0.29996908 0.18038395 -0.015029174
0.30000481 0.18155932 -0.015036337
0.30004054 0.1827347 -0.0150435
0.30007628 0.18391007 -0.015050662
0.30011198 0.18508548 -0.015057825
0.30014771 0.18626085 -0.015064986
0.30018345 0.18743622 -0.015072149
0.30021918 0.1886116 -0.015079312
0.30025491 0.18978699 -0.015086474
0.30029061 0.19096236 -0.015093637
0.30032635 0.19213773 -0.015100799
0.30036208 0.19331312 -0.015107961
0.30039781 0.19448848 -0.015115124
0.30043352 0.19566388 -0.015122286
0.30046925 0.19683926 -0.015129449
0.30050498 0.19801463 -0.015136611
0.30054072 0.19919002 -0.015143774
0.30057642 0.20036539 -0.015150936
0.30061215 0.20154077 -0.015158098
0.30064788 0.20271614 -0.015165261
0.30068362 0.20389153 -0.015172424
0.30071932 0.20506689 -0.015179586
0.30075505 0.20624228 -0.015186748
0.30079079 0.20741767 -0.01519391
0.30082652 0.20859304 -0.015201073
0.2999641 0.21002388 -0.015682312
0.29999986 0.21120083 -0.015689483
0.30003566 0.21237783 -0.015696656
0.30007142 0.2135548 -0.015703827
0.30010718 0.21473177 -0.015711
0.30014297 0.21590874 -0.015718171
0.30017874 0.2170857 -0.015725344
0.30021453 0.21826269 -0.015732516
0.30025029 0.21943966 -0.015739689
0.30028605 0.22061662 -0.01574686
0.30032185 0.22179359 -0.015754033
0.30035761 0.22297056 -0.015761204
0.3003934 0.22414754 -0.015768377
0.30132669 0.22504835 -0.015301347
0.3013624 0.22622372 -0.01530851
0.30139813 0.22739911 -0.015315672
0.30143386 0.2285745 -0.015322834
0.30236691 0.22946733 -0.014855756
0.30240259 0.23064111 -0.014862909
0.30243826 0.23181491 -0.014870062
0.30247393 0.23298869 -0.014877215
0.30340675 0.23387356 -0.0144101
0.30344239 0.23504575 -0.014417243
0.303478 0.23621796 -0.014424386
0.30261666 0.23768383 -0.014905826
0.30265233 0.23885761 -0.014912979
0.302688 0.24003141 -0.014920131
0.30272368 0.2412052 -0.014927284
0.30186257 0.24267903 -0.015408784
0.3018983 0.2438544 -0.015415946
0.30193403 0.24502979 -0.015423109
0.3010731 0.24651 -0.015904646
0.30110887 0.24768695 -0.015911819
0.30024812 0.24917196 -0.016393388
0.30028394 0.25035053 -0.016400568
0.29942325 0.25184029 -0.016882192
0.29945913 0.25302047 -0.016889384
0.29949498 0.25420064 -0.016896576
0.29953086 0.25538075 -0.016903767
0.29956675 0.25656092 -0.016910957
0.2996026 0.25774109 -0.016918149
0.29963848 0.25892124 -0.016925341
0.29967436 0.26010138 -0.016932532
0.29971021 0.26128155 -0.016939724
0.2997461 0.26246172 -0.016946916
0.29978198 0.26364186 -0.016954107
0.30071381 0.26449329 -0.016486751
0.30074963 0.26567188 -0.016493933
0.30078545 0.26685041 -0.016501114
0.30082127 0.26802897 -0.016508296
0.30175281 0.26887244 -0.016040917
0.3017886 0.27004942 -0.016048091
0.30271998 0.27088812 -0.015580682
0.30275571 0.27206349 -0.015587845
0.30279145 0.2732389 -0.015595007
0.30282718 0.27441427 -0.01560217
0.30375832 0.27524501 -0.015134714
0.303794 0.27641878 -0.015141866
0.3038297 0.27759257 -0.015149019
0.30476066 0.27841693 -0.014681535
0.30479628 0.27958912 -0.014688678
0.30483192 0.2807613 -0.014695821
0.30486754 0.28193352 -0.014702965
0.30490318 0.2831057 -0.014710107
0.30583391 0.2839205 -0.014242527
0.30586949 0.2850911 -0.014249661
0.30590507 0.28626171 -0.014256794
0.30594066 0.28743228 -0.014263928
0.30597621 0.28860289 -0.014271061
0.30511695 0.2901389 -0.014752965
0.3051526 0.29131109 -0.014760109
0.30518821 0.29248324 -0.014767251
0.30522385 0.29365546 -0.014774394
0.30525947 0.29482764 -0.014781537
0.30529511 0.29599983 -0.014788681
0.30533072 0.29717201 -0.014795823
0.30536637 0.29834422 -0.014802966
0.30540198 0.29951641 -0.01481011
0.30543762 0.30068859 -0.014817253
0.30547324 0.30186084 -0.014824396
0.30550888 0.30303302 -0.014831539
0.3055445 0.30420518 -0.014838682
0.30558014 0.30537736 -0.014845825
0.30561575 0.30654958 -0.014852968
0.3056514 0.30772176 -0.01486011
0.30568701 0.30889395 -0.014867254
0.30572265 0.31006616 -0.014874397
0.30575827 0.31123835 -0.01488154
0.30668783 0.31201491 -0.014413727
0.30672342 0.31318551 -0.01442086
0.306759 0.31435612 -0.014427994
0.30679458 0.31552669 -0.014435127
0.30683017 0.3166973 -0.01444226
0.30775937 0.31746432 -0.013974416
0.30779493 0.31863335 -0.01398154
0.30872399 0.3193956 -0.013513666
0.30875948 0.32056302 -0.01352078
0.30879498 0.32173046 -0.013527894
0.30972385 0.32248631 -0.013059993
0.30975929 0.32365215 -0.013067097
0.30979472 0.32481796 -0.013074202
0.25226527 0.39921457 -0.044713974
0.25408682 0.39953503 -0.043770902
0.25769109 0.39889541 -0.041876901
0.26040357 0.39872152 -0.040458273
0.26311579 0.39853802 -0.039039582
0.26493636 0.3988266 -0.038096305
0.26764804 0.39862564 -0.03667751
0.26946819 0.39889991 -0.035734143
0.27039704 0.39965418 -0.035266232
0.27310798 0.39942929 -0.03384728
0.29403079 -0.099057533 -0.013288625
0.29497626 -0.097723469 -0.012822975
0.29501185 -0.096552864 -0.012830108
0.29504743 -0.095382266 -0.012837242
0.29508302 -0.09421166 -0.012844375
0.2951186 -0.093041062 -0.012851508
0.29515418 -0.091870472 -0.012858642
0.29518977 -0.090699874 -0.012865775
0.29522535 -0.089529268 -0.012872908
0.29526091 -0.08835867 -0.012880042
0.29529649 -0.087188058 -0.012887175
0.29533207 -0.086017452 -0.012894308
0.29445833 -0.084991202 -0.013374341
0.29449394 -0.083819002 -0.013381484
0.29452959 -0.082646817 -0.013388626
0.2945652 -0.081474617 -0.01339577
0.29369175 -0.080440387 -0.013875812
0.29372743 -0.0792666 -0.013882965
0.2928541 -0.078227587 -0.014363049
0.29288983 -0.077052213 -0.014370211
0.29201666 -0.076008424 -0.014850324
0.29205245 -0.074831456 -0.014857496
0.29117939 -0.073782884 -0.015337626
0.29030642 -0.072731152 -0.015817814
0.2903423 -0.071550988 -0.015825005
0.28946951 -0.070494458 -0.016305195
0.28950542 -0.069312714 -0.016312396
0.28954133 -0.068130955 -0.016319599
0.28866875 -0.067068063 -0.016799828
0.28870472 -0.065884709 -0.016807038
0.28874069 -0.064701378 -0.016814249
0.28968501 -0.063403964 -0.016348403
0.28972095 -0.06222222 -0.016355604
0.28975686 -0.061040461 -0.016362805
0.28979278 -0.059858702 -0.016370008
0.28982872 -0.058676962 -0.016377209
0.29077274 -0.057389103 -0.015911303
0.29080862 -0.056208946 -0.015918495
0.29175258 -0.054925855 -0.015452536
0.2917884 -0.0537473 -0.015459717
0.29182422 -0.05256873 -0.0154669
0.29276791 -0.051292021 -0.015000939
0.2928037 -0.050115053 -0.015008111
0.29283947 -0.048938084 -0.015015284
0.29287526 -0.047761105 -0.015022456
0.29291102 -0.046584129 -0.015029628
0.29294679 -0.045407161 -0.0150368
0.29298258 -0.044230193 -0.015043972
0.29301834 -0.043053221 -0.015051144
0.29396161 -0.041790847 -0.014585084
0.29399735 -0.040615465 -0.014592247
0.29403305 -0.039440088 -0.014599409
0.29406878 -0.038264714 -0.014606572
0.29410452 -0.037089325 -0.014613735
0.29414025 -0.035913948 -0.014620896
0.29417595 -0.034738574 -0.014628059
0.29421169 -0.033563189 -0.014635221
0.29334033 -0.032460477 -0.015115693
0.29337609 -0.031283509 -0.015122865
0.29341185 -0.030106533 -0.015130037
0.29344764 -0.028929563 -0.01513721
0.29348341 -0.027752588 -0.015144382
0.2935192 -0.026575619 -0.015151554
0.29355496 -0.025398649 -0.015158726
0.29359072 -0.024221674 -0.015165898
0.29362652 -0.023044704 -0.01517307
0.29366228 -0.021867735 -0.015180242
0.29369807 -0.020690762 -0.015187414
0.29282725 -0.019568937 -0.015667992
0.29195648 -0.018443923 -0.016148625
0.29289889 -0.017211804 -0.015682355
0.42018506 0.0024852939 0.050523233
0.42021412 0.0034408858 0.050517406
0.42024314 0.0043964777 0.050511584
0.4202722 0.0053520682 0.050505761
0.4193956 0.006282778 0.050026342
0.42033029 0.0072632558 0.050494116
0.42035934 0.0082188481 0.050488293
0.42038837 0.0091744401 0.050482471
0.42041743 0.010130034 0.050476648
0.42135188 0.011102546 0.050944466
0.42138088 0.012056546 0.050938655
0.42140988 0.013010547 0.05093284
0.42143887 0.013964547 0.050927024
0.42146787 0.014918547 0.050921213
0.42149687 0.015872546 0.050915398
0.42152587 0.016826548 0.050909586
0.42155486 0.017780546 0.050903771
0.42158386 0.018734546 0.05089796
0.42161286 0.019688547 0.050892144
0.42164186 0.020642547 0.050886333
0.42167085 0.021596547 0.050880518
0.42169985 0.022550546 0.050874706
0.42172885 0.023504546 0.050868891
0.42175785 0.024458546 0.05086308
0.42178684 0.025412546 0.050857265
0.42181584 0.026366547 0.050851453
0.42184484 0.027320547 0.050845638
0.42187384 0.028274545 0.050839826
0.42190284 0.029228546 0.050834011
0.42193183 0.030182546 0.050828196
0.42196083 0.031136546 0.050822385
0.42198983 0.032090545 0.050816569
0.42201883 0.033044547 0.050810758
0.42114356 0.034019846 0.050331067
0.42117262 0.034975439 0.050325245
0.42120165 0.035931032 0.050319422
0.4212307 0.036886625 0.050313599
0.42125976 0.037842218 0.050307777
0.42128879 0.038797811 0.050301954
0.42131785 0.039753404 0.050296128
0.42134687 0.040708996 0.050290305
0.42047206 0.041698631 0.049810529
0.42140499 0.042620182 0.05027866
0.42143402 0.043575775 0.050272837
0.42146307 0.044531368 0.050267015
0.29056635 0.054906569 -0.018490626
0.29150596 0.056046311 -0.018023793
0.29154196 0.057231247 -0.018031014
0.29248136 0.058366213 -0.017564189
0.29251733 0.059549551 -0.017571401
0.29255331 0.060732894 -0.017578611
0.29258928 0.06191624 -0.017585821
0.29352844 0.063043244 -0.017118938
0.29356435 0.064224988 -0.017126139
0.29360026 0.06540674 -0.01713334
0.29273316 0.066649608 -0.017614666
0.29276913 0.067832947 -0.017621877
0.29280508 0.069016293 -0.017629089
0.29284105 0.070199631 -0.017636299
0.29287702 0.071382977 -0.017643509
0.29291299 0.072566316 -0.017650722
0.2938517 0.073678985 -0.017183749
0.29388762 0.074860737 -0.01719095
0.29392356 0.076042481 -0.017198151
0.29486206 0.07714878 -0.016731141
0.29489794 0.078328937 -0.016738333
0.29493383 0.079509094 -0.016745524
0.29496968 0.080689251 -0.016752716
0.29590803 0.081787586 -0.01628563
0.29594386 0.082966149 -0.016292812
0.29597968 0.084144711 -0.016299995
0.2960155 0.085323274 -0.016307175
0.29605132 0.086501844 -0.016314358
0.29608715 0.087680407 -0.01632154
0.29612297 0.08885897 -0.01632872
0.29615879 0.090037532 -0.016335903
0.29619461 0.091216095 -0.016343085
0.2971324 0.092298508 -0.015875941
0.2971682 0.093475476 -0.015883112
0.29720396 0.094652452 -0.015890285
0.29723972 0.09582942 -0.015897457
0.29727551 0.097006395 -0.01590463
0.29731128 0.098183364 -0.015911801
0.29734707 0.099360332 -0.015918974
0.29738283 0.10053731 -0.015926145
0.29741859 0.10171428 -0.015933318
0.29745439 0.10289125 -0.015940489
0.29749015 0.10406822 -0.015947662
0.29752594 0.10524519 -0.015954833
0.29756171 0.10642216 -0.015962007
0.29759747 0.10759914 -0.015969178
0.29763326 0.10877611 -0.015976351
0.29766902 0.10995308 -0.015983522
0.29770479 0.11113005 -0.015990695
0.29774058 0.11230702 -0.015997866
0.29777634 0.113484 -0.016005039
0.29781213 0.11466096 -0.01601221
0.2978479 0.11583793 -0.016019383
