# .PCD v0.7 - Point Cloud Data file format
VERSION 0.7
FIELDS x y z
SIZE 4 4 4
TYPE F F F
COUNT 1 1 1
WIDTH 1333
HEIGHT 1
VIEWPOINT 0 0 0 1 0 0 0
POINTS 1333
DATA ascii
0.68508059 0.34089774 0.0036104934
0.68504941 0.34231248 0.0035806834
0.68501824 0.3437272 0.0035508736
0.68498707 0.34514192 0.0035210636
0.68495589 0.34655666 0.0034912536
0.68492472 0.34797135 0.0034614441
0.68489355 0.3493861 0.003431634
0.68486238 0.35080081 0.0034018243
0.6848312 0.35221556 0.003372014
0.68480003 0.35363027 0.0033422043
0.68065989 -0.099926434 -0.0040157512
0.68062782 -0.098469079 -0.0040464597
0.6805957 -0.097011723 -0.0040771677
0.68056357 -0.095554359 -0.0041078757
0.68053144 -0.094097003 -0.0041385842
0.68186516 -0.092067532 -0.0027308981
0.68183315 -0.090614051 -0.0027615246
0.68180108 -0.089160569 -0.0027921514
0.68176907 -0.08770708 -0.002822778
0.68173701 -0.086253613 -0.0028534043
0.681705 -0.084800132 -0.0028840308
0.68167299 -0.083346643 -0.0029146576
0.68164092 -0.081893161 -0.0029452841
0.68160892 -0.080439679 -0.0029759107
0.68157685 -0.07898619 -0.0030065372
0.68154484 -0.077532709 -0.003037164
0.68151283 -0.076079227 -0.0030677905
0.68216425 -0.074362949 -0.0023786863
0.68213224 -0.072911397 -0.0024092721
0.68210024 -0.071459852 -0.0024398579
0.68138468 -0.070265286 -0.0031902969
0.68135262 -0.068811804 -0.0032209235
0.68132061 -0.067358322 -0.0032515503
0.6812886 -0.065904833 -0.0032821768
0.68125653 -0.064451352 -0.0033128033
0.68122452 -0.06299787 -0.0033434299
0.68119246 -0.061544381 -0.0033740567
0.68116045 -0.060090899 -0.0034046832
0.68112844 -0.058637414 -0.0034353097
0.68178034 -0.0569444 -0.0027457154
0.68174839 -0.055492852 -0.0027763012
0.68171638 -0.054041304 -0.002806887
0.68168437 -0.052589756 -0.0028374728
0.68165243 -0.051138226 -0.0028680582
0.68162042 -0.049686678 -0.002898644
0.68158841 -0.04823513 -0.0029292298
0.68155646 -0.046783581 -0.0029598158
0.68289304 -0.044883959 -0.0015493939
0.68286109 -0.043436296 -0.0015798978
0.6828292 -0.041988622 -0.001610402
0.68279731 -0.04054096 -0.0016409059
0.68276542 -0.039093286 -0.0016714102
0.68273348 -0.037645612 -0.0017019144
0.68270159 -0.036197949 -0.0017324182
0.6826697 -0.034750275 -0.0017629224
0.68263781 -0.033302598 -0.0017934267
0.68260586 -0.031854939 -0.0018239305
0.68257397 -0.030407263 -0.0018544347
0.68254209 -0.028959602 -0.0018849387
0.68251014 -0.027511928 -0.0019154429
0.68247825 -0.026064252 -0.0019459471
0.68244636 -0.024616584 -0.0019764511
0.68241447 -0.023168908 -0.0020069554
0.68238252 -0.02172124 -0.0020374593
0.68235064 -0.020273572 -0.0020679634
0.68231875 -0.018825905 -0.0020984674
0.68228686 -0.01737823 -0.0021289717
0.68225491 -0.015930561 -0.0021594758
0.68222302 -0.014482894 -0.0021899799
0.68356156 -0.01267242 -0.00077767955
0.68352973 -0.011228632 -0.00080810185
0.68349791 -0.0097848363 -0.00083852431
0.68346614 -0.0083410414 -0.00086894678
0.68343431 -0.0068972455 -0.00089936925
0.68340248 -0.0054534576 -0.00092979154
0.68337065 -0.0040096622 -0.00096021401
0.68333882 -0.0025658668 -0.00099063641
0.68330699 -0.0011220714 -0.0010210589
0.68327522 0.00032171659 -0.0010514812
0.68324339 0.001765512 -0.0010819037
0.68389732 0.003369391 -0.000390431
0.68386555 0.0048112501 -0.00042081266
0.68383372 0.0062531019 -0.00045119415
0.68380195 0.007694961 -0.00048157581
0.68377018 0.0091368128 -0.00051195733
0.68373841 0.010578672 -0.00054233894
0.68370664 0.012020524 -0.00057272048
0.68367487 0.013462383 -0.00060310215
0.6836431 0.014904235 -0.00063348364
0.68361133 0.016346093 -0.0006638653
0.68357956 0.017787946 -0.00069424679
0.68354774 0.019229805 -0.00072462845
0.68488842 0.020945312 0.00068967318
0.68485671 0.022383291 0.0006593733
0.684825 0.023821272 0.00062907336
0.68479329 0.025259251 0.00059877348
0.68476164 0.02669723 0.0005684736
0.68541634 0.028262353 0.0012607193
0.68538469 0.029698394 0.0012304602
0.68535304 0.03113443 0.0012002012
0.68532139 0.032570474 0.0011699422
0.68528974 0.034006517 0.0011396831
0.68525809 0.035442561 0.0011094239
0.6852265 0.036878601 0.0010791648
0.68519485 0.038314644 0.0010489058
0.6851632 0.039750688 0.0010186466
0.68513155 0.041186728 0.00098838762
0.6850999 0.042622771 0.00095812848
0.68506825 0.044058815 0.00092786941
0.6850366 0.045494858 0.00089761033
0.68500495 0.046930894 0.00086735131
0.6849733 0.048366938 0.00083709217
0.68494165 0.049802981 0.00080683309
0.68491 0.051239021 0.00077657407
0.68487835 0.052675065 0.00074631494
0.68622112 0.054295611 0.0021626605
0.68618953 0.05572778 0.0021324831
0.686158 0.057159945 0.0021023056
0.68612641 0.058592111 0.0020721282
0.68609488 0.06002428 0.0020419508
0.68743807 0.061621573 0.0034587432
0.6874066 0.06304986 0.0034286475
0.68737513 0.064478152 0.0033985518
0.68734366 0.065906443 0.0033684561
0.68731219 0.067334726 0.0033383605
0.68590552 0.068617269 0.0018608863
0.68587393 0.070049442 0.0018307089
0.68584234 0.0714816 0.0018005315
0.6858108 0.072913773 0.0017703541
0.68440366 0.074215688 0.00029242883
0.68437201 0.075651735 0.00026216975
0.68434036 0.077087775 0.00023191067
0.68430871 0.078523815 0.00020165161
0.68565297 0.080074601 0.001619467
0.68562144 0.081506766 0.0015892896
0.68558985 0.082938932 0.0015591122
0.68555832 0.084371097 0.0015289348
0.68552673 0.085803263 0.0014987574
0.6854952 0.087235428 0.00146858
0.68546361 0.088667594 0.0014384026
0.68543208 0.090099759 0.0014082253
0.68540049 0.091531925 0.0013780479
0.68536896 0.09296409 0.0013478704
0.68533736 0.094396256 0.001317693
0.68530577 0.095828421 0.0012875156
0.68527424 0.097260587 0.0012573382
0.6866197 0.098757111 0.0026762541
0.68658823 0.10018539 0.0026461584
0.68655676 0.10161369 0.0026160628
0.68652529 0.10304198 0.0025859668
0.68649381 0.10447027 0.0025558711
0.68646234 0.10589856 0.0025257755
0.68643081 0.10732685 0.0024956798
0.68639934 0.10875513 0.0024655841
0.68636787 0.11018343 0.0024354884
0.6863364 0.11161172 0.0024053925
0.68630493 0.11304001 0.0023752968
0.68627346 0.1144683 0.0023452011
0.68624198 0.11589658 0.0023151054
0.68621051 0.11732487 0.0022850095
0.68617904 0.11875317 0.0022549138
0.68683672 0.12018456 0.0029499773
0.68680525 0.12161092 0.0029199223
0.68677384 0.12303726 0.0028898676
0.68674237 0.12446362 0.0028598127
0.68671095 0.12588997 0.0028297578
0.68667954 0.12731633 0.0027997028
0.68664807 0.12874268 0.0027696479
0.68592721 0.13017948 0.002014148
0.68589574 0.13160777 0.0019840524
0.68586427 0.13303606 0.0019539564
0.6858328 0.13446435 0.0019238607
0.68580133 0.13589264 0.0018937651
0.6857698 0.13732094 0.0018636694
0.68573833 0.13874923 0.0018335736
0.68570685 0.14017752 0.0018034779
0.68567538 0.14160581 0.0017733821
0.68564391 0.1430341 0.0017432864
0.68561244 0.14446238 0.0017131907
0.68558097 0.14589067 0.0016830949
0.68623942 0.14728525 0.0023789341
0.68620801 0.14871161 0.0023488794
0.6861766 0.15013796 0.0023188244
0.68614513 0.1515643 0.0022887695
0.68611372 0.15299065 0.0022587145
0.68608224 0.15441701 0.0022286596
0.68605083 0.15584336 0.0021986049
0.68601942 0.15726972 0.0021685499
0.68598795 0.15869607 0.002138495
0.68595654 0.16012242 0.00210844
0.68592513 0.16154876 0.0020783853
0.68589365 0.16297512 0.0020483304
0.68586224 0.16440147 0.0020182754
0.68583077 0.16582783 0.0019882205
0.68579936 0.16725418 0.0019581656
0.68576795 0.16868053 0.0019281107
0.68573648 0.17010689 0.0018980558
0.68570507 0.17153323 0.001868001
0.68567365 0.17295958 0.001837946
0.68564218 0.17438594 0.0018078911
0.68561077 0.17581229 0.0017778361
0.6855793 0.17723864 0.0017477813
0.68554789 0.178665 0.0017177264
0.68551648 0.18009135 0.0016876714
0.68548501 0.18151769 0.0016576166
0.68545359 0.18294404 0.0016275616
0.68542218 0.1843704 0.0015975067
0.68539071 0.18579675 0.001567452
0.6853593 0.18722311 0.0015373969
0.68532783 0.18864946 0.001507342
0.68529642 0.1900758 0.0014772873
0.685265 0.19150215 0.0014472323
0.68523353 0.19292851 0.0014171774
0.68520212 0.19435486 0.0013871226
0.68517065 0.19578122 0.0013570676
0.68513924 0.19720757 0.0013270127
0.68510783 0.19863391 0.0012969578
0.68507636 0.20006028 0.0012669029
0.68504494 0.20148663 0.001236848
0.68501353 0.20291297 0.0012067931
0.68498206 0.20433933 0.0011767382
0.68495065 0.20576568 0.0011466832
0.68491918 0.20719203 0.0011166283
0.68488777 0.20861839 0.0010865735
0.68485636 0.21004474 0.0010565185
0.68482488 0.2114711 0.0010264636
0.68617737 0.21265171 0.0024520794
0.68614602 0.21407419 0.0024221062
0.68611467 0.21549666 0.002392133
0.68608332 0.21691914 0.0023621598
0.68605196 0.21834162 0.0023321863
0.68602061 0.2197641 0.0023022131
0.68460488 0.22145554 0.00081607944
0.68457341 0.2228819 0.0007860245
0.684542 0.22430825 0.00075596949
0.68451059 0.22573461 0.00072591472
0.68447912 0.22716095 0.00069585996
0.68444771 0.2285873 0.00066580513
0.68441623 0.23001365 0.00063575001
0.68438482 0.23144001 0.00060569524
0.68435341 0.23286635 0.00057564047
0.68432194 0.23429272 0.00054558535
0.68429053 0.23571905 0.00051553053
0.68425906 0.23714541 0.00048547576
0.68422765 0.23857176 0.00045542064
0.68558174 0.23967876 0.0018825881
0.68555039 0.24110122 0.0018526149
0.68551904 0.2425237 0.0018226418
0.68618053 0.24378069 0.0025213803
0.68614924 0.24520122 0.0024914481
0.68611795 0.24662176 0.0024615156
0.68608665 0.2480423 0.0024315831
0.6860553 0.24946284 0.0024016509
0.68741024 0.25053301 0.0038295935
0.687379 0.25194967 0.0037997426
0.68734777 0.25336632 0.0037698918
0.68593013 0.25514498 0.0022819212
0.68728536 0.25619966 0.0037101905
0.68725413 0.25761631 0.0036803398
0.6872229 0.25903299 0.003650489
0.68719167 0.26044965 0.0036206383
0.68716043 0.2618663 0.0035907878
0.68712926 0.26328295 0.003560937
0.68709803 0.26469964 0.003531086
0.68706679 0.26611629 0.0035012353
0.68703556 0.26753294 0.0034713848
0.68700439 0.2689496 0.003441534
0.68697315 0.27036628 0.0034116833
0.68694192 0.27178293 0.0033818325
0.68691069 0.27319959 0.003351982
0.68687946 0.27461627 0.0033221312
0.68684828 0.27603292 0.0032922802
0.68751091 0.27723759 0.0039921217
0.68747973 0.27865231 0.0039623114
0.68744856 0.28006703 0.0039325017
0.68741739 0.28148174 0.0039026919
0.68738621 0.28289649 0.0038728819
0.68735504 0.28431121 0.0038430721
0.68732387 0.28572592 0.0038132621
0.6872927 0.28714064 0.0037834523
0.68726152 0.28855538 0.0037536423
0.68723035 0.2899701 0.0037238323
0.68719912 0.29138482 0.0036940228
0.68716794 0.29279953 0.0036642128
0.68713677 0.29421428 0.0036344028
0.68641114 0.29586619 0.0028743702
0.68637997 0.29728284 0.0028445197
0.68704325 0.29845846 0.003544973
0.68701208 0.29987317 0.0035151634
0.6869809 0.30128789 0.0034853534
0.68694973 0.30270261 0.0034555434
0.68691856 0.30411732 0.0034257337
0.68688738 0.30553207 0.0033959236
0.68685621 0.30694678 0.0033661136
0.68682504 0.3083615 0.0033363039
0.6867938 0.30977625 0.0033064941
0.68676263 0.31119096 0.0032766843
0.68673146 0.31260568 0.0032468743
0.68670028 0.3140204 0.0032170643
0.68666911 0.31543511 0.0031872545
0.68663794 0.31684986 0.0031574445
0.68660676 0.31826457 0.0031276345
0.68657559 0.31967929 0.003097825
0.68654442 0.32109404 0.003068015
0.68651325 0.32250875 0.003038205
0.68648207 0.32392347 0.0030083952
0.6864509 0.32533821 0.0029785852
0.68641967 0.32675293 0.0029487752
0.68638849 0.32816765 0.0029189656
0.68635732 0.32958236 0.0028891556
0.68632615 0.33099708 0.0028593459
0.68629497 0.33241183 0.0028295359
0.6862638 0.33382654 0.0027997259
0.68623263 0.33524126 0.0027699161
0.6875928 0.3360692 0.0042029205
0.68756175 0.33748004 0.0041731922
0.68753064 0.33889088 0.0041434639
0.68749952 0.34030172 0.0041137356
0.68746847 0.34171259 0.0040840073
0.68743736 0.34312344 0.0040542791
0.68740624 0.34453428 0.0040245513
0.68737519 0.34594512 0.0039948225
0.68734407 0.34735596 0.0039650947
0.68731296 0.34876683 0.0039353664
0.68728191 0.35017768 0.0039056381
0.68725079 0.35158852 0.0038759101
0.68721974 0.35299936 0.003846182
0.68376213 -0.099036753 -0.0028435264
0.68373013 -0.097585201 -0.0028741122
0.68369812 -0.096133657 -0.0029046983
0.68298465 -0.094972022 -0.0036557582
0.68363416 -0.09323056 -0.0029658698
0.68360215 -0.091779016 -0.0029964556
0.68357015 -0.090327464 -0.0030270414
0.6835382 -0.088875934 -0.0030576268
0.68350619 -0.087424383 -0.0030882126
0.68347418 -0.085972838 -0.0031187986
0.68344223 -0.084521286 -0.0031493844
0.68341023 -0.083069742 -0.0031799702
0.68337822 -0.08161819 -0.003210556
0.68334627 -0.08016666 -0.0032411413
0.68331426 -0.078715108 -0.0032717271
0.68328226 -0.077263564 -0.0033023129
0.68325025 -0.075812012 -0.003332899
0.6832183 -0.074360467 -0.0033634847
0.68318629 -0.072908923 -0.0033940705
0.68315428 -0.071457371 -0.0034246563
0.68312234 -0.070005842 -0.0034552417
0.68309033 -0.06855429 -0.0034858275
0.68305832 -0.067102745 -0.0035164133
0.68302637 -0.065651193 -0.0035469993
0.68299437 -0.064199649 -0.0035775851
0.68296236 -0.062748097 -0.0036081709
0.68293041 -0.061296552 -0.0036387567
0.6828984 -0.059845019 -0.003669342
0.68286639 -0.058393471 -0.0036999278
0.68283439 -0.056941923 -0.0037305136
0.68280244 -0.055490375 -0.0037610997
0.68277043 -0.054038826 -0.0037916854
0.68273842 -0.052587278 -0.0038222712
0.68407184 -0.050672174 -0.0024095464
0.68403995 -0.049224496 -0.0024400507
0.68400806 -0.047776837 -0.0024705546
0.68397617 -0.046329163 -0.0025010586
0.68394423 -0.044881485 -0.0025315629
0.68391234 -0.043433826 -0.0025620668
0.68388045 -0.041986149 -0.0025925711
0.68384856 -0.04053849 -0.0026230749
0.68518275 -0.03865825 -0.0012096148
0.68515092 -0.037214462 -0.0012400371
0.68511909 -0.035770658 -0.0012704597
0.68508726 -0.03432687 -0.001300882
0.68505543 -0.032883085 -0.0013313043
0.68502361 -0.031439282 -0.0013617269
0.68362522 -0.030404791 -0.0028366037
0.68359333 -0.02895713 -0.0028671077
0.68356138 -0.027509455 -0.0028976118
0.6835295 -0.026061781 -0.0029281161
0.68349761 -0.024614112 -0.0029586202
0.68346566 -0.023166437 -0.0029891243
0.68343377 -0.021718768 -0.0030196283
0.68340188 -0.0202711 -0.0030501324
0.68473727 -0.018445129 -0.0016355289
0.68470544 -0.017001342 -0.0016659512
0.68535739 -0.015372272 -0.00097369455
0.68532562 -0.013930413 -0.0010040762
0.68529385 -0.012488561 -0.0010344577
0.68526208 -0.011046702 -0.0010648393
0.68523031 -0.0096048499 -0.0010952208
0.68519849 -0.0081629911 -0.0011256025
0.68516672 -0.006721139 -0.001155984
0.68513495 -0.0052792798 -0.0011863656
0.68510318 -0.0038374283 -0.0012167471
0.68507141 -0.0023955691 -0.0012471288
0.68503964 -0.00095370982 -0.0012775104
0.68500787 0.00048814193 -0.0013078919
0.6849761 0.0019300011 -0.0013382736
0.68631285 0.0036920095 7.7677418e-05
0.6862812 0.0051299888 4.7377518e-05
0.68624949 0.0065679681 1.7077615e-05
0.68621778 0.0080059543 -1.3222444e-05
0.68618613 0.0094439341 -4.3522345e-05
0.68615443 0.010881913 -7.3822244e-05
0.68612272 0.012319893 -0.00010412215
0.68609107 0.013757871 -0.00013442205
0.68605936 0.015195851 -0.00016472195
0.68602765 0.016633831 -0.00019502186
0.685996 0.01807181 -0.00022532175
0.68596429 0.019509789 -0.00025562165
0.68593258 0.020947767 -0.00028592156
0.68590093 0.022385748 -0.00031622147
0.68586922 0.023823727 -0.00034652135
0.68652242 0.025392719 0.00034695762
0.68649077 0.02682876 0.00031669851
0.68645912 0.028264804 0.0002864394
0.68642747 0.029700847 0.00025618033
0.68776608 0.031383403 0.0016738487
0.68773454 0.032815568 0.0016436714
0.68770295 0.03424773 0.001613494
0.68767142 0.035679899 0.0015833166
0.68763983 0.037112072 0.0015531391
0.6876083 0.038544234 0.0015229617
0.68620598 0.039753139 4.4366752e-05
0.68617433 0.041189179 1.4107727e-05
0.68614268 0.042625222 -1.6151376e-05
0.68611103 0.044061266 -4.6410478e-05
0.68607938 0.045497309 -7.6669581e-05
0.68604773 0.046933349 -0.00010692861
0.68738735 0.048569392 0.0013117199
0.68735576 0.050001562 0.0012815425
0.68732423 0.051433727 0.0012513651
0.68866414 0.053054269 0.0026702972
0.68863267 0.054482557 0.0026402015
0.6886012 0.055910848 0.0026101058
0.68856966 0.057339139 0.0025800101
0.68853819 0.05876743 0.0025499144
0.68850672 0.060195718 0.0025198185
0.68916124 0.061706573 0.0032145227
0.68912983 0.063132927 0.0031844676
0.68909836 0.064559273 0.0031544128
0.68906695 0.065985627 0.0031243579
0.68834937 0.06733717 0.0023693398
0.68831789 0.068765461 0.0023392441
0.68828642 0.070193753 0.0023091484
0.68825489 0.071622036 0.0022790527
0.68685079 0.072916217 0.00079870393
0.6868192 0.074348383 0.00076852652
0.68678766 0.075780548 0.0007383491
0.68675607 0.077212714 0.00070817169
0.68672454 0.078644879 0.00067799428
0.68669295 0.080077045 0.00064781687
0.68666142 0.08150921 0.00061763945
0.68662983 0.082941376 0.0005874621
0.68797165 0.08447665 0.0020081911
0.68794012 0.085904934 0.0019780954
0.68790865 0.087333225 0.0019479996
0.68787718 0.088761516 0.0019179039
0.68784571 0.090189807 0.0018878081
0.68781424 0.091618098 0.0018577124
0.68778276 0.09304639 0.0018276166
0.68775129 0.094474673 0.0017975209
0.68771982 0.095902964 0.0017674251
0.68768835 0.097331256 0.0017373294
0.68834394 0.098791718 0.0024330951
0.68831253 0.10021807 0.0024030404
0.68828112 0.10164443 0.0023729855
0.68824965 0.10307077 0.0023429305
0.68821824 0.10449713 0.0023128756
0.68818676 0.10592348 0.0022828206
0.68815535 0.10734983 0.0022527659
0.68812394 0.10877618 0.002222711
0.68809247 0.11020254 0.002192656
0.68806106 0.11162889 0.0021626011
0.68802965 0.11305524 0.0021325462
0.68799818 0.11448159 0.0021024914
0.68796676 0.11590794 0.0020724365
0.68793529 0.11733429 0.0020423816
0.68790388 0.11876065 0.0020123266
0.68787247 0.120187 0.0019822717
0.687841 0.12161335 0.0019522168
0.68780959 0.1230397 0.0019221619
0.68777812 0.12446605 0.0018921071
0.6877467 0.1258924 0.0018620521
0.68771529 0.12731875 0.0018319972
0.68768382 0.12874511 0.0018019424
0.68765241 0.13017146 0.0017718874
0.687621 0.13159782 0.0017418326
0.68758953 0.13302417 0.0017117776
0.68755811 0.13445053 0.0016817227
0.68752664 0.13587686 0.0016516678
0.68749523 0.13730322 0.0016216129
0.68746382 0.13872957 0.001591558
0.68743235 0.14015593 0.001561503
0.68740094 0.14158228 0.0015314482
0.68736953 0.14300863 0.0015013933
0.68733805 0.14443499 0.0014713384
0.68730664 0.14586133 0.0014412835
0.68727517 0.14728768 0.0014112286
0.68724376 0.14871404 0.0013811737
0.68858963 0.1500652 0.0028058253
0.68855828 0.15148768 0.0027758521
0.68852693 0.15291016 0.0027458789
0.68849558 0.15433264 0.0027159057
0.68846428 0.1557551 0.0026859324
0.68843293 0.15717758 0.0026559592
0.68840158 0.15860006 0.0026259858
0.68837023 0.16002253 0.0025960128
0.68833888 0.16144501 0.0025660393
0.68830752 0.16286749 0.0025360661
0.68827617 0.16428997 0.0025060931
0.68824482 0.16571245 0.0024761197
0.68683511 0.16725661 0.00099046004
0.6868037 0.16868296 0.0009604051
0.68677223 0.17010932 0.00093035016
0.68674082 0.17153567 0.00090029533
0.6867094 0.17296202 0.00087024039
0.68667793 0.17438838 0.00084018544
0.68664652 0.17581473 0.0008101305
0.68661505 0.17724107 0.00078007573
0.68658364 0.17866743 0.00075002073
0.68655223 0.18009378 0.00071996578
0.68652076 0.18152013 0.00068991102
0.68648934 0.18294649 0.00065985607
0.6878373 0.18420462 0.0020864678
0.68780595 0.1856271 0.0020564944
0.6877746 0.18704958 0.0020265214
0.68774325 0.18847205 0.0019965481
0.68771189 0.18989453 0.0019665749
0.68768054 0.19131701 0.0019366017
0.68764919 0.19273949 0.0019066284
0.68761784 0.19416195 0.0018766552
0.68758649 0.19558443 0.0018466819
0.68755513 0.19700691 0.0018167087
0.68752378 0.19842939 0.0017867354
0.68749243 0.19985186 0.0017567622
0.68746108 0.20127434 0.0017267891
0.68742973 0.20269682 0.0016968158
0.68739837 0.20411928 0.0016668426
0.68736702 0.20554177 0.0016368693
0.68733567 0.20696424 0.0016068961
0.68730432 0.20838672 0.0015769228
0.68727303 0.20980918 0.0015469496
0.68724167 0.21123166 0.0015169765
0.68721032 0.21265414 0.0014870032
0.68717897 0.21407662 0.00145703
0.68714762 0.21549909 0.0014270567
0.68711627 0.21692157 0.0013970835
0.68708491 0.21834405 0.0013671102
0.68705356 0.21976653 0.001337137
0.68702221 0.22118901 0.0013071637
0.68699086 0.22261147 0.0012771906
0.68695951 0.22403395 0.0012472174
0.68692815 0.22545642 0.0012172442
0.6868968 0.2268789 0.001187271
0.68548346 0.22858973 -0.00030190047
0.6868341 0.22972384 0.0011273246
0.68680274 0.23114632 0.0010973514
0.68677139 0.2325688 0.0010673782
0.68674004 0.23399127 0.001037405
0.68670875 0.23541376 0.0010074315
0.6866774 0.23683624 0.00097745832
0.68664604 0.2382587 0.00094748515
0.68661469 0.23968118 0.00091751193
0.68658334 0.24110365 0.00088753871
0.68655199 0.24252613 0.00085756555
0.68652064 0.24394861 0.00082759233
0.68648928 0.24537107 0.00079761917
0.68645793 0.24679355 0.00076764595
0.68642658 0.24821605 0.00073767244
0.68708688 0.24946526 0.0014378894
0.68705553 0.25088581 0.0014079571
0.68702424 0.25230634 0.0013780246
0.68699294 0.25372687 0.0013480922
0.68696165 0.25514743 0.0013181599
0.68900591 0.25601915 0.003479453
0.68897474 0.25743386 0.003449643
0.68894356 0.25884858 0.003419833
0.68891239 0.26026329 0.0033900235
0.68888122 0.26167804 0.0033602135
0.68884999 0.26309276 0.0033304035
0.68881881 0.26450747 0.0033005937
0.68878764 0.26592222 0.0032707837
0.68875647 0.26733693 0.0032409739
0.68872529 0.26875165 0.0032111639
0.68869412 0.27016637 0.0031813539
0.68866295 0.27158108 0.0031515444
0.68863177 0.27299583 0.0031217344
0.6886006 0.27441055 0.0030919244
0.68856943 0.27582526 0.0030621146
0.68853825 0.27724001 0.0030323046
0.68850708 0.27865472 0.0030024946
0.68847591 0.28006944 0.002972685
0.68844467 0.28148416 0.002942875
0.6884135 0.2828989 0.002913065
0.68838233 0.28431362 0.0028832552
0.68835115 0.28572834 0.0028534452
0.68831998 0.28714305 0.0028236357
0.68828881 0.2885578 0.0027938257
0.68825763 0.28997251 0.0027640157
0.68822646 0.29138723 0.0027342059
0.68819529 0.29280195 0.0027043959
0.68816411 0.29421669 0.0026745859
0.68813294 0.29563141 0.0026447761
0.68810177 0.29704612 0.0026149661
0.68807054 0.29846087 0.0025851561
0.68803936 0.29987559 0.0025553466
0.68939465 0.30080038 0.0039889384
0.68936354 0.30221123 0.0039592106
0.68933243 0.30362207 0.0039294823
0.68930137 0.30503294 0.003899754
0.68927026 0.30644378 0.0038700257
0.68923914 0.30785462 0.0038402975
0.68920809 0.30926546 0.0038105694
0.68917698 0.31067631 0.0037808414
0.68914586 0.31208718 0.0037511128
0.68911481 0.31349802 0.0037213848
0.6890837 0.31490886 0.0036916563
0.68905258 0.3163197 0.0036619282
0.68902153 0.31773058 0.0036322
0.68899041 0.31914142 0.0036024719
0.68895936 0.32055226 0.0035727436
0.68892825 0.3219631 0.0035430153
0.68889713 0.32337394 0.0035132873
0.68886608 0.32478482 0.0034835588
0.68883497 0.32619566 0.0034538307
0.68880385 0.3276065 0.0034241027
0.6887728 0.32901734 0.0033943742
0.68874168 0.33042818 0.0033646461
0.68871057 0.33183905 0.0033349178
0.68867952 0.3332499 0.0033051898
0.6886484 0.33466074 0.0032754615
0.68861729 0.33607158 0.0032457332
0.68858624 0.33748242 0.0032160052
0.68994391 0.33829871 0.0046519274
0.68991292 0.33970568 0.0046222806
0.68988186 0.34111267 0.0045926343
0.68985087 0.34251964 0.0045629875
0.68981987 0.34392661 0.0045333407
0.68978888 0.34533358 0.0045036944
0.68975788 0.34674054 0.004474048
0.68972683 0.34814751 0.0044444012
0.68969584 0.34955451 0.0044147545
0.68966484 0.35096148 0.0043851081
0.6903286 0.35205176 0.0050886739
0.69029766 0.3534568 0.0050590686
0.68481618 -0.099034272 -0.0038283251
0.68478417 -0.097582728 -0.0038589109
0.68475217 -0.096131176 -0.0038894967
0.68472016 -0.094679631 -0.0039200825
0.68468821 -0.093228079 -0.0039506685
0.6846562 -0.091776535 -0.0039812541
0.6846242 -0.090324983 -0.0040118401
0.68459225 -0.088873453 -0.0040424257
0.68456024 -0.087421902 -0.0040730112
0.68452823 -0.085970357 -0.0041035973
0.68449628 -0.084518813 -0.0041341828
0.68446428 -0.083067261 -0.0041647688
0.68443227 -0.081615716 -0.0041953544
0.68440032 -0.080164179 -0.00422594
0.68436831 -0.078712635 -0.004256526
0.68569738 -0.076727755 -0.0028426412
0.68566549 -0.075280078 -0.0028731453
0.68563354 -0.073832415 -0.0029036494
0.68560165 -0.072384745 -0.0029341534
0.68556976 -0.070937067 -0.0029646577
0.68553787 -0.069489405 -0.0029951616
0.68550593 -0.068041734 -0.0030256659
0.68547404 -0.066594072 -0.0030561697
0.68544215 -0.065146394 -0.003086674
0.68541026 -0.063698716 -0.0031171781
0.68537831 -0.062251057 -0.0031476819
0.68534642 -0.060803384 -0.0031781862
0.68531454 -0.059355725 -0.0032086901
0.68528259 -0.057908047 -0.0032391944
0.6852507 -0.056460373 -0.0032696985
0.68521881 -0.05501271 -0.0033002025
0.68518692 -0.053565037 -0.0033307066
0.68515497 -0.052117363 -0.0033612109
0.68512309 -0.0506697 -0.0033917148
0.68645388 -0.048762348 -0.0019761969
0.68642205 -0.047318544 -0.0020066195
0.68639022 -0.045874756 -0.0020370418
0.68635839 -0.044430967 -0.0020674642
0.68632662 -0.042987164 -0.0020978868
0.68629479 -0.041543376 -0.0021283091
0.68626297 -0.040099587 -0.0021587315
0.68691283 -0.038439497 -0.0014658136
0.68688107 -0.036997646 -0.0014961951
0.6868493 -0.035555795 -0.0015265766
0.68681747 -0.034113929 -0.0015569584
0.6867857 -0.032672077 -0.0015873399
0.68675393 -0.031230224 -0.0016177214
0.68604022 -0.029993027 -0.0023716884
0.68600839 -0.028549224 -0.002402111
0.68597656 -0.027105436 -0.0024325333
0.6859448 -0.025661634 -0.0024629559
0.68591297 -0.024217846 -0.0024933782
0.68588114 -0.02277405 -0.0025238006
0.68584931 -0.021330254 -0.0025542232
0.68649971 -0.019695373 -0.0018607741
0.68646795 -0.01825352 -0.0018911556
0.68780077 -0.016437251 -0.00047371839
0.68776906 -0.014999272 -0.00050401827
0.68773735 -0.013561293 -0.00053431821
0.6877057 -0.012123315 -0.00056461809
0.68767399 -0.010685327 -0.00059491815
0.68764228 -0.0092473486 -0.00062521803
0.68761057 -0.0078093689 -0.00065551797
0.68757892 -0.0063713896 -0.00068581785
0.68754721 -0.0049334108 -0.00071611773
0.6875155 -0.0034954313 -0.00074641767
0.68748385 -0.002057452 -0.00077671756
0.68745214 -0.00061947288 -0.00080701744
0.68742043 0.00081850641 -0.00083731738
0.68738878 0.0022564856 -0.00086761726
0.68735707 0.0036944649 -0.00089791714
0.68732536 0.0051324442 -0.00092821708
0.68729371 0.0065704235 -0.00095851696
0.687262 0.0080084102 -0.00098881708
0.68723029 0.009446389 -0.001019117
0.68719864 0.010884369 -0.0010494168
0.68716693 0.012322348 -0.0010797167
0.68713522 0.013760327 -0.0011100166
0.68710357 0.015198306 -0.0011403165
0.68707186 0.016636286 -0.0011706165
0.68704015 0.018074265 -0.0012009164
0.68769181 0.019651005 -0.00050628616
0.68766016 0.021087041 -0.00053654512
0.68762851 0.022523085 -0.0005668042
0.68759686 0.023959126 -0.00059706334
0.68756521 0.02539517 -0.00062732241
0.68890077 0.027089352 0.00079273107
0.68886918 0.028521515 0.00076255377
0.68883765 0.029953679 0.00073237641
0.69017345 0.031632364 0.0021527126
0.69014198 0.033060651 0.0021226169
0.6901105 0.034488942 0.0020925212
0.69007897 0.035917234 0.0020624253
0.6900475 0.037345517 0.0020323298
0.69001603 0.038773809 0.0020022341
0.68861669 0.039978847 0.00052113441
0.6885851 0.041411012 0.000490957
0.68855357 0.042843174 0.00046077964
0.68852198 0.044275343 0.0004306022
0.68849045 0.045707509 0.00040042479
0.68845886 0.047139674 0.00037024738
0.68979573 0.048771836 0.0017915638
0.68976426 0.050200127 0.0017614681
0.68973273 0.051628418 0.0017313723
0.69038558 0.053150896 0.0024271463
0.69035417 0.054577246 0.0023970914
0.69032276 0.0560036 0.0023670364
0.69029129 0.057429951 0.0023369815
0.69025987 0.058856301 0.0023069268
0.69022846 0.060282655 0.0022768718
0.69019699 0.061709005 0.0022468169
0.69016558 0.063135363 0.0022167619
0.69013411 0.06456171 0.002186707
0.6901027 0.065988064 0.002156652
0.69007128 0.067414418 0.0021265971
0.69003981 0.068840764 0.0020965424
0.6900084 0.070267119 0.0020664874
0.68929207 0.07162448 0.001310032
0.6892606 0.073052764 0.0012799363
0.68922913 0.074481055 0.0012498406
0.68919766 0.075909346 0.0012197448
0.68916619 0.077337638 0.0011896491
0.68913472 0.078765929 0.0011595533
0.68910325 0.08019422 0.0011294576
0.68907171 0.081622504 0.0010993619
0.68972552 0.083104283 0.0017959934
0.68969405 0.084530637 0.0017659385
0.68966264 0.085956991 0.0017358835
0.68963116 0.087383337 0.0017058287
0.68959975 0.088809691 0.0016757738
0.68956834 0.090236045 0.0016457188
0.68953687 0.091662392 0.001615664
0.68950546 0.093088746 0.001585609
0.68947399 0.0945151 0.0015555541
0.68944257 0.095941454 0.0015254993
0.68941116 0.097367801 0.0014954443
0.68937969 0.098794155 0.0014653895
0.68934828 0.10022051 0.0014353346
0.69068843 0.10170345 0.002859839
0.69065708 0.10312592 0.0028298658
0.69062573 0.1045484 0.0027998926
0.69059438 0.10597087 0.0027699193
0.6891911 0.10735226 0.0012850601
0.68915969 0.10877862 0.0012550051
0.68912822 0.11020497 0.0012249503
0.68909681 0.11163132 0.0011948954
0.6890654 0.11305767 0.0011648404
0.69040632 0.11450573 0.00259008
0.69037497 0.11592821 0.0025601068
0.69034362 0.11735068 0.0025301336
0.69031227 0.11877316 0.0025001601
0.69028091 0.12019563 0.0024701871
0.69024956 0.12161811 0.0024402137
0.69021821 0.12304059 0.0024102405
0.69018686 0.12446307 0.0023802673
0.69015551 0.12588555 0.002350294
0.69012415 0.12730801 0.0023203208
0.6900928 0.12873049 0.0022903476
0.69006145 0.13015297 0.0022603744
0.6900301 0.13157545 0.0022304012
0.68999875 0.13299792 0.0022004279
0.68859386 0.13445295 0.0007140169
0.68856239 0.13587931 0.00068396202
0.68853098 0.13730566 0.00065390713
0.6898734 0.13868782 0.0020805351
0.68984205 0.1401103 0.0020505618
0.68981069 0.14153278 0.0020205886
0.68977934 0.14295524 0.0019906154
0.68974799 0.14437772 0.0019606422
0.68971664 0.1458002 0.001930669
0.68968529 0.14722268 0.0019006957
0.68965393 0.14864516 0.0018707224
0.68962258 0.15006763 0.0018407492
0.68959123 0.15149011 0.001810776
0.68955988 0.15291259 0.0017808027
0.68952852 0.15433507 0.0017508295
0.68949717 0.15575753 0.0017208563
0.68946582 0.15718001 0.0016908831
0.68943447 0.15860249 0.0016609099
0.68940312 0.16002496 0.0016309366
0.68937182 0.16144744 0.0016009633
0.68934047 0.16286992 0.0015709902
0.68930912 0.1642924 0.001541017
0.68927777 0.16571487 0.0015110436
0.68924642 0.16713734 0.0014810704
0.68921506 0.16855982 0.0014510972
0.68918371 0.1699823 0.001421124
0.68915236 0.17140476 0.0013911509
0.68912101 0.17282724 0.0013611774
0.68908966 0.17424972 0.0013312043
0.6890583 0.1756722 0.0013012311
0.68902695 0.17709467 0.0012712579
0.6889956 0.17851715 0.0012412847
0.68896425 0.17993963 0.0012113113
0.6889329 0.18136211 0.0011813381
0.68890154 0.18278457 0.001151365
0.68887019 0.18420705 0.0011213918
0.68883884 0.18562953 0.0010914184
0.68880749 0.18705201 0.0010614452
0.6887762 0.18847448 0.001031472
0.68874484 0.18989696 0.0010014988
0.68871349 0.19131944 0.00097152562
0.68868214 0.19274192 0.00094155228
0.68865079 0.19416438 0.00091157906
0.68861943 0.19558686 0.0008816059
0.68858808 0.19700934 0.00085163268
0.68855673 0.19843182 0.00082165934
0.68852538 0.19985428 0.00079168612
0.68918282 0.2011694 0.0014918292
0.68915147 0.20258994 0.0014618968
0.68912017 0.20401047 0.0014319645
0.68908888 0.20543101 0.001402032
0.68905759 0.20685156 0.0013720996
0.6890263 0.20827208 0.0013421673
0.68899494 0.20969263 0.0013122348
0.68896365 0.21111317 0.0012823024
0.68893236 0.2125337 0.0012523701
0.68890107 0.21395424 0.0012224376
0.68886971 0.21537478 0.0011925052
0.68883842 0.21679533 0.0011625729
0.68880713 0.21821585 0.0011326404
0.68877584 0.2196364 0.001102708
0.68874449 0.22105694 0.0010727757
0.68802381 0.2226139 0.00031211454
0.68799245 0.22403638 0.00028214135
0.6879611 0.22545885 0.00025216816
0.68792975 0.22688133 0.00022219495
0.6878984 0.2283038 0.00019222175
0.68786705 0.22972627 0.00016224856
0.68783569 0.23114875 0.00013227537
0.68780434 0.23257123 0.00010230217
0.68777299 0.23399369 7.232897e-05
0.68843144 0.2352623 0.00077345187
0.68840015 0.23668285 0.00074351946
0.68836886 0.23810339 0.00071358704
0.6883375 0.23952392 0.00068365468
0.68830621 0.24094446 0.00065372227
0.68827492 0.242365 0.00062378985
0.68824363 0.24378553 0.00059385749
0.68821234 0.24520607 0.00056392507
0.68818098 0.24662662 0.00053399266
0.68814969 0.24804714 0.0005040603
0.6881184 0.24946769 0.00047412788
0.68946767 0.25053784 0.0019073305
0.68943644 0.2519545 0.0018774797
0.6894052 0.25337118 0.0018476289
0.68799317 0.25514984 0.0003543983
0.6893428 0.25620449 0.0017879276
0.68931156 0.25762114 0.0017580768
0.68928033 0.25903782 0.001728226
0.6892491 0.26045448 0.0016983752
0.68921787 0.26187113 0.0016685247
0.68918669 0.26328781 0.0016386739
0.68915546 0.26470447 0.0016088231
0.68912423 0.26612112 0.0015789723
0.68909299 0.26753777 0.0015491218
0.68906176 0.26895446 0.0015192711
0.69110316 0.26976413 0.0036857722
0.69107205 0.271175 0.0036560439
0.69104099 0.27258584 0.0036263159
0.69100988 0.27399668 0.0035965873
0.69097877 0.27540752 0.0035668593
0.69094771 0.27681839 0.003537131
0.6909166 0.27822924 0.0035074027
0.69088548 0.27964008 0.0034776747
0.69085443 0.28105092 0.0034479464
0.69082332 0.28246176 0.0034182183
0.6907922 0.28387263 0.0033884898
0.69076115 0.28528348 0.0033587618
0.69073004 0.28669432 0.0033290337
0.69069898 0.28810516 0.0032993052
0.69066787 0.289516 0.0032695772
0.69063675 0.29092687 0.0032398489
0.6906057 0.29233772 0.0032101206
0.69057459 0.29374856 0.0031803926
0.69054347 0.2951594 0.0031506643
0.69051242 0.29657024 0.0031209362
0.69048131 0.29798111 0.0030912077
0.69045019 0.29939196 0.0030614797
0.69041914 0.3008028 0.0030317511
0.69038802 0.30221364 0.0030020231
0.69035691 0.30362448 0.002972295
0.69170976 0.30453381 0.0044088867
0.69167876 0.30594078 0.0043792403
0.69026363 0.30785704 0.0028831102
0.69023257 0.30926788 0.0028533821
0.69020146 0.31067872 0.0028236541
0.69017041 0.31208959 0.0027939256
0.69013929 0.31350043 0.0027641975
0.69010818 0.31491128 0.002734469
0.69007713 0.31632212 0.002704741
0.69004601 0.31773299 0.0026750127
0.6900149 0.31914383 0.0026452846
0.68998384 0.32055467 0.0026155564
0.68995273 0.32196552 0.0025858281
0.69130665 0.32282442 0.0040234816
0.69127566 0.32423139 0.0039938353
0.69124466 0.32563835 0.0039641885
0.69121361 0.32704535 0.0039345417
0.69118261 0.32845232 0.0039048954
0.69115162 0.32985929 0.0038752488
0.69112062 0.33126625 0.0038456025
0.69108963 0.33267322 0.0038159559
0.69105858 0.33408022 0.0037863092
0.69102758 0.33548719 0.0037566626
0.69099659 0.33689415 0.003727016
0.69165856 0.33800381 0.004431488
0.69162756 0.33940884 0.0044018826
0.69159663 0.34081391 0.0043722768
0.69156563 0.34221894 0.004342671
0.6915347 0.34362397 0.0043130652
0.6915037 0.345029 0.0042834594
0.69147277 0.34643403 0.0042538536
0.69144177 0.34783909 0.0042242482
0.69141084 0.34924412 0.0041946424
0.69276655 0.35001966 0.0056340084
0.69273567 0.35142085 0.0056044841
0.6927048 0.35282201 0.0055749603
0.69267392 0.35422316 0.0055454359
0.68725908 -0.099887997 -0.0033367444
0.68722719 -0.098440327 -0.0033672487
0.68719524 -0.096992664 -0.0033977525
0.68716335 -0.095544986 -0.0034282566
0.68713146 -0.094097309 -0.0034587609
0.68709952 -0.092649654 -0.0034892648
0.68706763 -0.091201976 -0.0035197691
0.68703574 -0.089754313 -0.0035502729
0.68700385 -0.088306643 -0.0035807772
0.6869719 -0.086858965 -0.0036112813
0.68694001 -0.085411303 -0.0036417851
0.68690813 -0.083963625 -0.0036722894
0.68687624 -0.082515955 -0.0037027937
0.68684429 -0.081068292 -0.0037332976
0.6868124 -0.079620615 -0.0037638017
0.68678051 -0.078172959 -0.0037943057
0.68674862 -0.076725282 -0.0038248098
0.68671668 -0.075277604 -0.0038553141
0.68668479 -0.073829949 -0.0038858179
0.68801141 -0.071860582 -0.0024689774
0.68797958 -0.070416793 -0.0024993995
0.68794775 -0.06897299 -0.0025298221
0.68791592 -0.067529202 -0.0025602444
0.68652529 -0.066591598 -0.0040383385
0.6864934 -0.06514392 -0.0040688426
0.68646145 -0.06369625 -0.0040993467
0.68642956 -0.062248588 -0.0041298508
0.68639767 -0.06080091 -0.0041603548
0.68772501 -0.058866441 -0.002742779
0.68769318 -0.057422638 -0.0027732016
0.68766141 -0.05597885 -0.0028036237
0.68762958 -0.054535046 -0.0028340465
0.68759775 -0.053091258 -0.0028644686
0.68756592 -0.051647473 -0.002894891
0.68753409 -0.05020367 -0.0029253135
0.68750226 -0.048759881 -0.0029557359
0.6874705 -0.047316078 -0.0029861585
0.6881187 -0.045646325 -0.0022921297
0.68808693 -0.044204459 -0.0023225115
0.68805516 -0.042762607 -0.0023528931
0.68802339 -0.041320752 -0.0023832745
0.68799162 -0.039878886 -0.0024136563
0.68932027 -0.038004484 -0.00099481444
0.68928862 -0.036566507 -0.0010251143
0.68925691 -0.035128526 -0.0010554142
0.6892252 -0.033690549 -0.0010857141
0.68919355 -0.032252569 -0.0011160141
0.68916184 -0.03081459 -0.001146314
0.68776917 -0.029785911 -0.0026263271
0.68773741 -0.028344044 -0.0026567089
0.68770564 -0.026902191 -0.0026870905
0.68767387 -0.02546034 -0.0027174719
0.6876421 -0.024018481 -0.0027478538
0.68761027 -0.02257663 -0.0027782351
0.68893999 -0.020748734 -0.0013584133
0.68890834 -0.019310756 -0.0013887131
0.68887663 -0.017872777 -0.001419013
0.68884492 -0.016434796 -0.001449313
0.68949413 -0.014811552 -0.00075434789
0.68946248 -0.01337551 -0.00078460702
0.68943083 -0.011939466 -0.0008148661
0.68939924 -0.010503423 -0.00084512524
0.68936759 -0.0090673799 -0.00087538431
0.68933594 -0.0076313373 -0.00090564339
0.68862307 -0.0063689346 -0.0016614124
0.68859142 -0.0049309554 -0.0016917123
0.68855971 -0.0034929761 -0.0017220122
0.688528 -0.0020549968 -0.0017523122
0.68849635 -0.00061701756 -0.0017826121
0.68846464 0.00082096166 -0.0018129119
0.68843293 0.0022589408 -0.0018432118
0.68908274 0.0038569919 -0.001147716
0.68905109 0.0052930349 -0.001177975
0.68901944 0.006729078 -0.0012082341
0.68898779 0.0081651211 -0.0012384932
0.68895614 0.0096011637 -0.0012687524
0.68892449 0.011037207 -0.0012990114
0.68889284 0.012473242 -0.0013292704
0.68886119 0.013909285 -0.0013595294
0.68882954 0.015345328 -0.0013897886
0.68879789 0.016781371 -0.0014200477
0.68876624 0.018217415 -0.0014503067
0.68873459 0.019653458 -0.0014805659
0.68870294 0.021089492 -0.0015108249
0.68867129 0.022525536 -0.0015410839
0.69000387 0.024227465 -0.00011856423
0.68997228 0.025659628 -0.00014874157
0.68994069 0.027091797 -0.00017891909
0.69127357 0.02877822 0.0012438836
0.6912421 0.030206511 0.0012137879
0.69121057 0.0316348 0.0011836921
0.6911791 0.033063091 0.0011535964
0.69182998 0.034610756 0.0018501543
0.69179857 0.03603711 0.0018200992
0.69176716 0.037463464 0.0017900442
0.69173568 0.03888981 0.0017599895
0.69102174 0.040204536 0.0010031178
0.69099027 0.041632827 0.00097302208
0.6909588 0.043061119 0.00094292633
0.69092733 0.04448941 0.00091283058
0.6908958 0.045917694 0.00088273489
0.6915471 0.047447924 0.00157966
0.69151568 0.048874274 0.0015496052
0.69148421 0.050300628 0.0015195503
0.6914528 0.051726982 0.0014894954
0.69142139 0.053153332 0.0014594404
0.69138992 0.054579683 0.0014293856
0.69135851 0.056006037 0.0013993307
0.69269317 0.057609122 0.002823933
0.69266182 0.059031602 0.0027939598
0.69263053 0.060454074 0.0027639866
0.69259918 0.06187655 0.0027340134
0.69256783 0.06329903 0.0027040401
0.69253647 0.064721502 0.0026740669
0.69250512 0.066143982 0.0026440937
0.69110703 0.067416854 0.0011588915
0.69107556 0.068843201 0.0011288367
0.69104415 0.070269555 0.0010987817
0.69101274 0.071695901 0.0010687268
0.69098127 0.073122256 0.0010386719
0.69094986 0.07454861 0.001008617
0.69091839 0.075974964 0.00097856205
0.69088697 0.07740131 0.00094850722
0.69085556 0.078827664 0.00091845228
0.69082409 0.080254018 0.00088839739
0.69079268 0.081680365 0.00085834251
0.69076127 0.083106719 0.00082828762
0.6907298 0.084533073 0.00079823268
0.69206619 0.086058639 0.0022244684
0.6920349 0.087481119 0.0021944952
0.69200355 0.088903591 0.002164522
0.6919722 0.090326071 0.0021345487
0.69194084 0.091748543 0.0021045755
0.69190949 0.093171023 0.0020746023
0.69187814 0.094593495 0.0020446291
0.69184679 0.096015975 0.0020146559
0.69181544 0.097438447 0.0019846826
0.69178408 0.098860927 0.0019547094
0.69175273 0.1002834 0.0019247362
0.69172138 0.10170588 0.001894763
0.69169003 0.10312835 0.0018647898
0.69165868 0.10455083 0.0018348165
0.69162732 0.1059733 0.0018048433
0.69159597 0.10739578 0.0017748701
0.69156462 0.10881826 0.0017448969
0.69153327 0.11024074 0.0017149235
0.69150192 0.11166321 0.0016849503
0.69147062 0.11308569 0.0016549771
0.69143927 0.11450816 0.0016250039
0.69140792 0.11593064 0.0015950307
0.69137657 0.11735311 0.0015650574
0.69134521 0.11877559 0.0015350842
0.69131386 0.12019806 0.001505111
0.69128251 0.12162054 0.0014751378
0.69125116 0.12304302 0.0014451646
0.69121981 0.1244655 0.0014151912
0.69118845 0.12588798 0.001385218
0.6911571 0.12731044 0.0013552448
0.69112575 0.12873292 0.0013252716
0.6910944 0.1301554 0.0012952983
0.69106305 0.13157788 0.0012653251
0.69103169 0.13300034 0.0012353519
0.69100034 0.13442282 0.0012053787
0.69096899 0.1358453 0.0011754055
0.69093764 0.13726777 0.0011454322
0.6915918 0.13866815 0.0018450933
0.69156051 0.14008869 0.001815161
0.69152921 0.14150923 0.0017852286
0.69149786 0.14292976 0.0017552961
0.69146657 0.14435031 0.0017253638
0.69143528 0.14577085 0.0016954314
0.69140399 0.14719138 0.0016654989
0.69137263 0.14861192 0.0016355666
0.69134134 0.15003246 0.0016056342
0.69131005 0.151453 0.0015757018
0.69127876 0.15287353 0.0015457694
0.6912474 0.15429407 0.001515837
0.69121611 0.15571462 0.0014859046
0.69118482 0.15713514 0.0014559722
0.69115353 0.15855569 0.0014260398
0.69112223 0.15997623 0.0013961074
0.69109088 0.16139676 0.001366175
0.69105959 0.1628173 0.0013362427
0.6910283 0.16423784 0.0013063103
0.690997 0.16565837 0.0012763779
0.69096565 0.16707891 0.0012464455
0.69093436 0.16849945 0.0012165131
0.69090307 0.16991998 0.0011865807
0.69087178 0.17134053 0.0011566483
0.69084042 0.17276107 0.0011267159
0.69080913 0.1741816 0.0010967836
0.69077784 0.17560214 0.0010668511
0.69074655 0.17702268 0.0010369187
0.69071525 0.17844322 0.0010069864
0.6906839 0.17986375 0.00097705389
0.69065261 0.18128429 0.00094712153
0.69062132 0.18270484 0.00091718917
0.69059002 0.18412536 0.00088725676
0.69055867 0.18554591 0.00085732434
0.69052738 0.18696645 0.00082739198
0.69049609 0.18838698 0.00079745956
0.69046479 0.18980752 0.00076752715
0.6904335 0.19122806 0.00073759479
0.69040215 0.19264859 0.00070766237
0.69037086 0.19406913 0.00067772996
0.69033957 0.19548967 0.0006477976
0.69030827 0.19691022 0.00061786518
0.69027692 0.19833075 0.00058793277
0.69024563 0.19975129 0.00055800041
0.69021434 0.20117183 0.00052806799
0.69018304 0.20259236 0.00049813557
0.69015169 0.2040129 0.00046820322
0.69149542 0.20520708 0.0019014218
0.69146419 0.20662373 0.0018715712
0.69143301 0.2080404 0.0018417204
0.69140178 0.20945705 0.0018118698
0.69137055 0.21087372 0.0017820189
0.69133931 0.21229038 0.0017521683
0.69130814 0.21370704 0.0017223175
0.69127691 0.21512371 0.0016924669
0.69124568 0.21654037 0.001662616
0.69121444 0.21795703 0.0016327654
0.69118321 0.2193737 0.0016029146
0.69115204 0.22079036 0.0015730639
0.68974471 0.22247989 7.9082049e-05
0.68971342 0.22390044 4.9149654e-05
0.68968213 0.22532097 1.9217414e-05
0.68965083 0.22674151 -1.0714982e-05
0.68961954 0.22816204 -4.0647377e-05
0.68958819 0.22958258 -7.0579772e-05
0.6895569 0.23100312 -0.00010051217
0.6895256 0.23242366 -0.00013044456
0.68949431 0.23384419 -0.00016037696
0.69083983 0.23495698 0.0012745566
0.69080859 0.23637365 0.0012447059
0.69077736 0.2377903 0.0012148554
0.69143468 0.23904729 0.0019175379
0.69140345 0.24046201 0.0018877282
0.69137228 0.24187674 0.0018579182
0.6913411 0.24329145 0.0018281082
0.69130993 0.24470617 0.0017982986
0.69059002 0.24629028 0.0010357508
0.69055879 0.24770693 0.0010059001
0.69052762 0.24912359 0.00097604963
0.69049639 0.25054026 0.00094619882
0.69046515 0.25195691 0.00091634801
0.69043392 0.25337359 0.0008864972
0.69109172 0.25460926 0.0015896291
0.69106054 0.25602397 0.0015598194
0.69102937 0.25743869 0.0015300094
0.69099814 0.25885344 0.0015001994
0.69096696 0.26026812 0.0014703898
0.69093579 0.26168287 0.0014405798
0.69090462 0.26309758 0.0014107698
0.69087344 0.2645123 0.0013809601
0.69084227 0.26592705 0.0013511501
0.6908111 0.26734176 0.0013213404
0.69077992 0.26875648 0.0012915304
0.69074875 0.27017123 0.0012617204
0.69071758 0.27158591 0.0012319108
0.6906864 0.27300066 0.0012021008
0.69065523 0.27441537 0.0011722908
0.690624 0.27583009 0.0011424811
0.69059283 0.27724484 0.0011126711
0.69056165 0.27865955 0.0010828611
0.69053048 0.28007427 0.0010530513
0.69049931 0.28148901 0.0010232413
0.69046813 0.28290373 0.00099343131
0.69319654 0.28343162 0.0038990274
0.69316554 0.28483859 0.0038693808
0.69313455 0.28624555 0.0038397345
0.69310349 0.28765252 0.0038100877
0.69169235 0.28951842 0.0023123899
0.69166124 0.29092929 0.0022826616
0.69301051 0.29187346 0.0037211482
0.69297945 0.29328042 0.0036915017
0.69294846 0.29468739 0.0036618551
0.69291747 0.29609436 0.0036322083
0.69288647 0.29750133 0.0036025618
0.69285548 0.29890829 0.0035729154
0.69282442 0.30031526 0.0035432689
0.69348389 0.30147535 0.0042479937
0.69345289 0.30288038 0.0042183879
0.69342196 0.30428541 0.0041887821
0.69339097 0.30569044 0.0041591763
0.69336003 0.30709547 0.0041295709
0.6926384 0.3087571 0.0033653895
0.6926074 0.31016406 0.0033357432
0.69257641 0.31157106 0.0033060964
0.69254535 0.31297803 0.0032764499
0.69251436 0.314385 0.0032468033
0.69248337 0.31579196 0.003217157
0.69245237 0.31719893 0.0031875104
0.69242138 0.31860593 0.0031578636
0.69239032 0.3200129 0.0031282171
0.69235933 0.32141986 0.0030985705
0.69301939 0.32255086 0.0038039079
0.69298846 0.32395589 0.0037743023
0.69295746 0.32536092 0.0037446965
0.69223529 0.32704777 0.0029799843
0.6922043 0.32845473 0.0029503379
0.6928646 0.32957602 0.0036558795
0.6928336 0.33098105 0.0036262737
0.69280267 0.33238611 0.0035966681
0.69277167 0.33379114 0.0035670623
0.69274074 0.33519617 0.0035374567
0.69270974 0.3366012 0.0035078509
0.69406188 0.33741164 0.0049491115
0.694031 0.3388128 0.0049195876
0.69400012 0.34021395 0.0048900633
0.69396925 0.34161511 0.0048605395
0.69393837 0.34301627 0.0048310151
0.6939075 0.34441745 0.0048014913
0.69387662 0.34581861 0.004771967
0.69384575 0.34721974 0.0047424436
0.69381487 0.34862092 0.0047129192
0.693784 0.35002208 0.0046833954
0.69444507 0.35110655 0.0053897123
0.69441426 0.3525058 0.0053602289
0.69438344 0.35390502 0.0053307461
0.69034141 -0.098992512 -0.0021462357
0.69030964 -0.09755066 -0.0021766173
0.69027787 -0.096108809 -0.0022069986
0.69024611 -0.094666958 -0.0022373802
0.69021434 -0.093225092 -0.0022677621
0.69018257 -0.09178324 -0.0022981435
0.6901508 -0.090341382 -0.0023285251
0.69011897 -0.08889953 -0.0023589064
0.6900872 -0.087457664 -0.0023892883
0.69005543 -0.086015813 -0.0024196699
0.69002366 -0.084573962 -0.0024500513
0.68999189 -0.083132111 -0.0024804329
0.68996012 -0.081690244 -0.0025108147
0.68992835 -0.080248393 -0.0025411961
0.68989658 -0.078806542 -0.0025715777
0.6912201 -0.076827481 -0.0011523116
0.69118845 -0.075389504 -0.0011826114
0.69115674 -0.073951527 -0.0012129113
0.69112504 -0.072513543 -0.0012432112
0.69109339 -0.071075566 -0.0012735112
0.69106168 -0.069637589 -0.0013038111
0.69102997 -0.068199612 -0.001334111
0.69099832 -0.066761628 -0.0013644109
0.69096661 -0.065323651 -0.0013947107
0.6909349 -0.063885674 -0.0014250106
0.69090325 -0.062447693 -0.0014553106
0.69087154 -0.061009713 -0.0014856105
0.69083983 -0.059571732 -0.0015159104
0.69080818 -0.058133755 -0.0015462103
0.69077647 -0.056695774 -0.0015765101
0.69074476 -0.055257797 -0.00160681
0.69071311 -0.053819817 -0.00163711
0.6906814 -0.052381836 -0.0016674099
0.69064969 -0.050943859 -0.0016977098
0.69061804 -0.049505878 -0.0017280097
0.69058633 -0.048067901 -0.0017583095
0.69055462 -0.046629921 -0.0017886095
0.69052291 -0.04519194 -0.0018189094
0.69049126 -0.043753963 -0.0018492093
0.69045955 -0.042315982 -0.0018795092
0.69110662 -0.040657837 -0.0011839647
0.69107497 -0.039221793 -0.0012142238
0.69104332 -0.03778575 -0.0012444829
0.69101167 -0.036349721 -0.0012747417
0.69098002 -0.034913681 -0.0013050007
0.69094837 -0.033477638 -0.0013352599
0.69091672 -0.032041594 -0.001365519
0.69088507 -0.030605551 -0.001395778
0.69085342 -0.029169507 -0.0014260372
