# .PCD v0.7 - Point Cloud Data file format
VERSION 0.7
FIELDS x y z
SIZE 4 4 4
TYPE F F F
COUNT 1 1 1
WIDTH 1362
HEIGHT 1
VIEWPOINT 0 0 0 1 0 0 0
POINTS 1362
DATA ascii
0.43035352 0.00067395979 0.027014093
0.43038291 0.0016407036 0.027008202
0.43041229 0.0026074438 0.02700231
0.43044168 0.0035741839 0.026996421
0.43047106 0.0045409258 0.026990529
0.43050045 0.005507668 0.026984638
0.43052983 0.0064744102 0.026978748
0.43055922 0.00744115 0.026972856
0.4305886 0.0084078908 0.026966965
0.43061799 0.0093746344 0.026961073
0.43064737 0.010341374 0.026955184
0.43067676 0.011308115 0.026949292
0.42982808 0.012260091 0.026436461
0.42985752 0.013228424 0.02643056
0.42988694 0.014196758 0.026424659
0.42991638 0.01516509 0.026418759
0.4299458 0.016133426 0.026412858
0.42997524 0.017101759 0.026406959
0.43000469 0.018070092 0.026401058
0.4300341 0.019038428 0.026395157
0.43006355 0.020006761 0.026389256
0.43009296 0.020975094 0.026383355
0.43012241 0.021943428 0.026377454
0.43015185 0.022911763 0.026371554
0.43018126 0.023880096 0.026365653
0.43021071 0.024848429 0.026359752
0.43024012 0.025816763 0.026353851
0.43026957 0.026785098 0.02634795
0.43029901 0.027753431 0.026342049
0.43032843 0.028721765 0.026336148
0.43035787 0.029690098 0.026330248
0.43038729 0.030658433 0.026324347
0.43041673 0.031626768 0.026318446
0.43044618 0.032595102 0.026312545
0.43047559 0.033563435 0.026306644
0.43050504 0.034531768 0.026300743
0.43053445 0.035500102 0.026294844
0.4305639 0.036468435 0.026288943
0.43059334 0.037436768 0.026283043
0.43062276 0.038405105 0.026277142
0.4306522 0.039373439 0.026271241
0.43068162 0.040341772 0.02626534
0.43071106 0.041310105 0.026259439
0.43074051 0.042278439 0.026253538
0.43076992 0.043246772 0.026247637
0.43079937 0.044215105 0.026241736
0.43082878 0.045183443 0.026235836
0.43085822 0.046151776 0.026229935
0.43088767 0.047120109 0.026224034
0.43091708 0.048088443 0.026218133
0.43094653 0.049056776 0.026212232
0.43097594 0.050025109 0.026206331
0.43100539 0.050993443 0.02620043
0.43103483 0.05196178 0.02619453
0.43106425 0.052930109 0.026188631
0.43021771 0.053952161 0.025675368
0.43024719 0.054922089 0.025669456
0.43027666 0.055892017 0.025663545
0.42943031 0.056920435 0.025150243
0.42858404 0.057952039 0.024636928
0.42686206 0.059048515 0.023616152
0.42514035 0.060151357 0.022595361
0.42341876 0.061260574 0.021574512
0.42257303 0.062309697 0.021061083
0.41997623 0.06349811 0.01953271
0.41650429 0.064765722 0.017496858
0.25793695 0.39172614 -0.081847109
0.25884029 0.39257225 -0.08134523
0.25974354 0.39341521 -0.080843337
0.26064673 0.39425495 -0.080341391
0.26068613 0.39555138 -0.080349289
0.26245275 0.39592496 -0.0793375
0.26335561 0.39675513 -0.078835532
0.26339486 0.39804679 -0.0788434
0.26429757 0.39887223 -0.078341395
0.26520023 0.39969444 -0.077839345
0.41907641 -0.015589272 0.019757394
0.41910642 -0.014601825 0.019751376
0.42001477 -0.013558168 0.020253278
0.42004475 -0.012572308 0.020247271
0.42183116 -0.011480398 0.021257149
0.42273918 -0.010446296 0.021759115
0.4236472 -0.009415376 0.022261128
0.4254331 -0.0083393957 0.023271102
0.42634082 -0.007316438 0.023773132
0.42724848 -0.0062966687 0.024275217
0.42815599 -0.0052800821 0.024777286
0.42906341 -0.0042666788 0.025279379
0.42997071 -0.0032564669 0.025781484
0.43000016 -0.0022881331 0.025775583
0.43002957 -0.0013197993 0.025769683
0.43005902 -0.00035146554 0.025763782
0.43096608 0.00065078208 0.026265943
0.43099546 0.0016175259 0.026260052
0.43102485 0.002584266 0.026254162
0.43105423 0.0035510063 0.026248271
0.43108362 0.0045177485 0.026242379
0.431113 0.0054844902 0.026236488
0.43026504 0.0064268713 0.025722478
0.43029448 0.0073952032 0.025716577
0.4303239 0.0083635366 0.025710676
0.43035334 0.0093318727 0.025704775
0.43038279 0.010300206 0.025698874
0.4304122 0.011268538 0.025692973
0.43044165 0.012236875 0.025687072
0.43047106 0.013205208 0.025681172
0.43050051 0.014173542 0.025675271
0.42965302 0.015131846 0.025161169
0.42968249 0.016101776 0.025155259
0.429712 0.017071702 0.025149347
0.42974147 0.018041627 0.025143437
0.42977095 0.019011555 0.025137527
0.42980042 0.019981479 0.025131617
0.4298299 0.020951407 0.025125707
0.4298594 0.021921333 0.025119796
0.42988887 0.022891261 0.025113884
0.42991835 0.023861187 0.025107974
0.42994782 0.024831112 0.025102064
0.43085369 0.025793547 0.025604462
0.43088314 0.026761882 0.025598561
0.43091255 0.027730215 0.025592661
0.430942 0.028698549 0.02558676
0.43009526 0.029680746 0.025072511
0.43012473 0.030650672 0.025066601
0.4301542 0.031620599 0.025060691
0.43018368 0.032590523 0.025054781
0.43021315 0.033560451 0.025048871
0.43024266 0.034530379 0.02504296
0.43027213 0.035500303 0.025037048
0.43030161 0.036470231 0.025031138
0.43033108 0.037440158 0.025025228
0.43036059 0.038410082 0.025019318
0.43039006 0.03938001 0.025013408
0.43041953 0.040349938 0.025007498
0.43044901 0.041319862 0.025001585
0.43047848 0.04228979 0.024995675
0.43050799 0.043259718 0.024989765
0.43053746 0.044229642 0.024983855
0.43056694 0.045199569 0.024977945
0.43147179 0.04612856 0.025480546
0.43150124 0.047096893 0.025474645
0.43153065 0.048065227 0.025468744
0.4315601 0.04903356 0.025462843
0.43158951 0.050001893 0.025456943
0.43074384 0.051019128 0.024942482
0.43077332 0.051989056 0.024936572
0.43080279 0.05295898 0.024930662
0.43083227 0.053928908 0.02492475
0.42998683 0.054954104 0.024410235
0.43001637 0.055925626 0.024404315
0.42917106 0.056955598 0.023889776
0.4283258 0.057988763 0.02337518
0.42660594 0.059086751 0.022351958
0.42488623 0.06019111 0.021328671
0.42404142 0.061237011 0.020814029
0.42232209 0.062352516 0.0197907
0.42060292 0.063474402 0.018767301
0.417135 0.064741857 0.01672652
0.41191849 0.066164456 0.013668194
0.40495375 0.067751743 0.0095923394
0.26052654 0.39208609 -0.081839956
0.26142877 0.39292747 -0.081336774
0.26233086 0.39376566 -0.080833629
0.26323286 0.39460069 -0.080330446
0.26413476 0.39543253 -0.079827249
0.26417401 0.39672416 -0.079835117
0.26507577 0.39755124 -0.07933189
0.26597747 0.39837509 -0.07882861
0.26687902 0.39919579 -0.078325361
0.41967207 -0.016600389 0.018999239
0.41970208 -0.015612945 0.018993221
0.41973209 -0.014625499 0.018987205
0.4197621 -0.013638056 0.018981187
0.42154667 -0.012541286 0.019993503
0.42157656 -0.011557026 0.019987505
0.42248365 -0.010521293 0.020490689
0.4242678 -0.0094388584 0.021503123
0.42517465 -0.0084110899 0.022006357
0.42608139 -0.0073865037 0.022509608
0.42786506 -0.0063199992 0.02352214
0.42877156 -0.0053033745 0.024025442
0.42967796 -0.004289933 0.024528762
0.42970744 -0.0033200094 0.024522852
0.42973694 -0.0023500819 0.02451694
0.43064314 -0.0013430151 0.025020307
0.43067259 -0.00037468129 0.025014406
0.430702 0.00059364882 0.025008505
0.43073145 0.0015619863 0.025002604
0.43076086 0.0025303201 0.024996703
0.43079031 0.0034986539 0.024990803
0.43081975 0.0044669858 0.024984902
0.43084916 0.0054353215 0.024979001
0.43087861 0.0064036553 0.0249731
0.43090802 0.0073719872 0.024967199
0.43093747 0.0083403215 0.024961298
0.43096691 0.0093086567 0.024955397
0.4301202 0.010258961 0.024440104
0.43014967 0.011228888 0.024434194
0.43017915 0.012198815 0.024428284
0.43020862 0.013168741 0.024422374
0.4302381 0.014138667 0.024416463
0.4302676 0.015108592 0.024410553
0.43029708 0.016078522 0.024404641
0.43032655 0.017048446 0.024398731
0.43035603 0.018018372 0.024392821
0.43038553 0.0189883 0.024386911
0.430415 0.019958226 0.024381001
0.43044448 0.020928154 0.02437509
0.43047395 0.02189808 0.024369178
0.43050346 0.022868006 0.024363268
0.43053293 0.023837931 0.024357358
0.43056241 0.024807859 0.024351448
0.43059188 0.025777785 0.024345538
0.43062136 0.026747711 0.024339627
0.43065086 0.027717639 0.024333717
0.43068033 0.028687565 0.024327805
0.43070981 0.029657491 0.024321895
0.43073928 0.030627416 0.024315985
0.43076879 0.031597342 0.024310075
0.43079826 0.03256727 0.024304165
0.43082774 0.033537198 0.024298254
0.43085721 0.034507122 0.024292342
0.43088669 0.03547705 0.024286432
0.43091619 0.036446977 0.024280522
0.43094566 0.037416901 0.024274612
0.43097514 0.038386829 0.024268702
0.43012992 0.039386507 0.023753114
0.43015945 0.040358026 0.023747193
0.43018898 0.041329544 0.023741273
0.43021852 0.042301062 0.023735354
0.43112254 0.043236464 0.024239149
0.43115205 0.044206388 0.024233239
0.43118152 0.045176316 0.024227329
0.43121099 0.04614624 0.024221418
0.43124047 0.047116168 0.024215506
0.43126994 0.048086096 0.024209596
0.43129945 0.04905602 0.024203686
0.43132892 0.050025947 0.024197776
0.4313584 0.050995875 0.024191866
0.43138787 0.051965799 0.024185956
0.43054333 0.052987773 0.02367023
0.43057287 0.053959295 0.023664311
0.4306024 0.054930814 0.023658391
0.43063194 0.055902332 0.02365247
0.42891377 0.056990691 0.022626814
0.42806962 0.058025405 0.022111006
0.42722556 0.059063304 0.021595186
0.42463419 0.060230784 0.020059545
0.42379043 0.061278239 0.019543666
0.42207319 0.062395263 0.018517861
0.4212296 0.063450687 0.018001901
0.41863921 0.064648427 0.016466109
0.41342869 0.066069201 0.013400398
0.40734541 0.06758184 0.0098246634
0.38382789 0.071661197 -0.0039568297
0.26311195 0.39243981 -0.081827775
0.26401299 0.39327645 -0.081323385
0.26491392 0.39410993 -0.080818959
0.26495317 0.39540157 -0.080826834
0.26585394 0.39623025 -0.080322377
0.26675469 0.39705572 -0.079817884
0.26765531 0.39787808 -0.079313405
0.26855579 0.3986972 -0.078808889
0.26945621 0.39951316 -0.078304358
0.41942126 -0.016685136 0.017724672
0.41945133 -0.015696095 0.017718645
0.42035779 -0.014649173 0.018223027
0.4203878 -0.01366173 0.01821701
0.42129406 -0.01261958 0.018721389
0.42307642 -0.011527518 0.019736201
0.42310631 -0.010544852 0.019730212
0.42488843 -0.0094623417 0.020745106
0.42579427 -0.008434535 0.021249574
0.4267 -0.0074099107 0.02175406
0.42760563 -0.0063884738 0.02225857
0.42851123 -0.0053702188 0.022763127
0.42941669 -0.0043551456 0.023267671
0.43032202 -0.0033432634 0.023772234
0.4303515 -0.0023733361 0.023766324
0.43038097 -0.0014034123 0.023760414
0.43041047 -0.00043348482 0.023754504
0.43043995 0.00053644268 0.023748593
0.43046942 0.0015063701 0.023742683
0.4304989 0.0024762938 0.023736773
0.4305284 0.0034462214 0.023730861
0.43055788 0.0044161468 0.023724951
0.43058735 0.0053860745 0.023719041
0.43061683 0.0063560018 0.023713131
0.4306463 0.0073259277 0.02370722
0.4306758 0.0082958527 0.02370131
0.43070528 0.0092657804 0.023695398
0.43073475 0.010235706 0.023689488
0.43076423 0.011205634 0.023683578
0.43079373 0.012175561 0.023677668
0.43082321 0.013145487 0.023671757
0.43085268 0.014115413 0.023665847
0.43000728 0.015075237 0.023149269
0.43003678 0.016046755 0.023143347
0.43006632 0.017018275 0.023137428
0.43009585 0.017989794 0.023131507
0.43012539 0.018961314 0.023125587
0.43015492 0.019932831 0.023119668
0.43018445 0.020904351 0.023113746
0.43021399 0.021875869 0.023107827
0.43024349 0.02284739 0.023101907
0.43027303 0.023818908 0.023095986
0.43030256 0.024790429 0.023090066
0.43033209 0.025761947 0.023084147
0.43036163 0.026733465 0.023078226
0.43039116 0.027704984 0.023072306
0.4304207 0.028676504 0.023066385
0.4304502 0.029648023 0.023060465
0.43047974 0.030619541 0.023054546
0.43050927 0.031591062 0.023048624
0.4305388 0.03256258 0.023042705
0.43056834 0.033534098 0.023036785
0.43059787 0.034505617 0.023030864
0.43062738 0.035477139 0.023024945
0.43065691 0.036448658 0.023019023
0.43068644 0.037420176 0.023013104
0.43071598 0.038391694 0.023007184
0.43074551 0.039363213 0.023001263
0.43077505 0.040334731 0.022995343
0.43080458 0.041306254 0.022989424
0.43083408 0.042277772 0.022983503
0.43086362 0.04324929 0.022977583
0.43089315 0.044220809 0.022971664
0.43092269 0.045192327 0.022965742
0.43095222 0.04616385 0.022959823
0.43098176 0.047135368 0.022953901
0.43101129 0.048106886 0.022947982
0.43104079 0.049078405 0.022942062
0.43107033 0.050049923 0.022936141
0.43109986 0.051021442 0.022930222
0.4311294 0.051992964 0.022924302
0.43115893 0.052964482 0.022918381
0.43031549 0.053989604 0.022401405
0.43034506 0.054962717 0.022395475
0.43037465 0.055935826 0.022389544
0.42953137 0.056967322 0.021872498
0.42781547 0.058061969 0.020844363
0.42697245 0.059101425 0.020327298
0.42525685 0.060207225 0.019299068
0.42441407 0.061254643 0.018781956
0.42269886 0.062371589 0.017753685
0.42185628 0.063426971 0.017236492
0.4201414 0.064555071 0.016208157
0.41580936 0.065902896 0.013646258
0.409733 0.067412086 0.010061883
0.39667863 0.069538027 0.0023878692
0.26569307 0.39278731 -0.081810683
0.26659295 0.39361924 -0.08130502
0.26749277 0.39444792 -0.080799304
0.26753193 0.3957364 -0.080807157
0.26843157 0.39656034 -0.080301456
0.26933113 0.39738113 -0.079795718
0.27109092 0.39773104 -0.078776397
0.27112991 0.3990131 -0.078784205
0.27202919 0.39982432 -0.078278385
0.42092341 -0.016647737 0.017470885
0.42007801 -0.015719809 0.016953235
0.42098346 -0.014672847 0.017458851
0.42101347 -0.013685404 0.017452832
0.42191872 -0.012643216 0.017958445
0.42282388 -0.011604222 0.018464077
0.42372894 -0.010568412 0.01896973
0.42463392 -0.0095357848 0.019475406
0.42641389 -0.0084579801 0.02049279
0.4273186 -0.0074333176 0.020998515
0.42822322 -0.006411843 0.021504253
0.42912781 -0.0053935493 0.022010038
0.43003225 -0.004378438 0.022515822
0.43006179 -0.0034069205 0.022509901
0.43009132 -0.0024353995 0.022503981
0.43099555 -0.0014266665 0.023009798
0.43102503 -0.00045673898 0.023003887
0.4310545 0.00051318848 0.022997977
0.43108401 0.0014831159 0.022992067
0.43111348 0.0024530396 0.022986155
0.43114296 0.0034229672 0.022980245
0.43117243 0.0043928926 0.022974335
0.43120193 0.0053628203 0.022968424
0.43123141 0.0063327476 0.022962514
0.43126088 0.0073026735 0.022956604
0.43129036 0.0082725994 0.022950692
0.43131986 0.0092425263 0.022944782
0.43047521 0.010194347 0.022427019
0.43050474 0.011165867 0.022421099
0.43053427 0.012137388 0.022415178
0.43056378 0.013108905 0.022409258
0.43059331 0.014080425 0.022403339
0.43062285 0.015051944 0.022397418
0.43065238 0.016023463 0.022391498
0.43068191 0.016994983 0.022385579
0.43071145 0.017966501 0.022379657
0.43074095 0.018938022 0.022373738
0.43077049 0.019909538 0.022367816
0.43080002 0.020881059 0.022361897
0.43082955 0.021852577 0.022355977
0.43085909 0.022824097 0.022350056
0.43088862 0.023795616 0.022344137
0.43091816 0.024767136 0.022338217
0.43094766 0.025738655 0.022332296
0.4301039 0.026719144 0.021814352
0.43013349 0.027692255 0.021808423
0.43016306 0.028665366 0.021802492
0.43019265 0.029638477 0.021796564
0.43022221 0.03061159 0.021790633
0.43025178 0.031584702 0.021784702
0.43028137 0.032557812 0.021778774
0.43031093 0.033530924 0.021772843
0.43034053 0.034504037 0.021766914
0.43037009 0.03547715 0.021760983
0.43039969 0.036450259 0.021755053
0.43042925 0.037423372 0.021749124
0.43045884 0.038396485 0.021743193
0.43048841 0.039369594 0.021737264
0.430518 0.040342707 0.021731334
0.43054757 0.04131582 0.021725405
0.43057716 0.042288933 0.021719474
0.43060672 0.043262042 0.021713544
0.43063632 0.044235155 0.021707615
0.43153825 0.045169037 0.022213893
0.43156779 0.046140555 0.022207974
0.43159732 0.047112074 0.022202052
0.43162686 0.048083596 0.022196133
0.43165639 0.049055114 0.022190211
0.43168592 0.050026633 0.022184292
0.43171546 0.050998151 0.022178372
0.43087292 0.052020047 0.021660175
0.43090251 0.05299316 0.021654246
0.43093207 0.053966273 0.021648316
0.43096167 0.054939386 0.021642387
0.43011934 0.055969249 0.021124121
0.42927715 0.057002291 0.020605862
0.42843509 0.058038522 0.020087579
0.42759308 0.059077941 0.019569281
0.42587948 0.060183667 0.018538585
0.42503774 0.061231043 0.018020239
0.42419609 0.062281609 0.017501874
0.42248297 0.063403264 0.01647108
0.42077011 0.064531282 0.015440281
0.41731453 0.065807834 0.013384616
0.41211662 0.067242488 0.010304063
0.40256256 0.069067597 0.0046612485
0.39562348 0.070700154 0.00055555615
0.38868514 0.072358198 -0.0035503178
0.26737115 0.39229825 -0.082295522
0.26827002 0.3931286 -0.081788585
0.26916873 0.39395577 -0.081281655
0.27006736 0.39477974 -0.080774717
0.27010643 0.39606506 -0.080782555
0.27100492 0.39688426 -0.080275573
0.27190331 0.39770028 -0.079768591
0.27280164 0.39851308 -0.079261549
0.27455908 0.39885193 -0.078239687
0.27545714 0.3996568 -0.077732623
0.42154908 -0.016671412 0.016706713
0.42157912 -0.015683968 0.016700696
0.42160913 -0.014696522 0.01669468
0.42251343 -0.013652712 0.017201515
0.42254338 -0.012666852 0.017195508
0.42344755 -0.011627819 0.017702373
0.4243516 -0.010591972 0.018209258
0.42525554 -0.0095593063 0.018716162
0.42615947 -0.008529827 0.019223116
0.42793721 -0.0074567245 0.020242972
0.42884085 -0.0064352113 0.020749943
0.42974439 -0.0054168794 0.021256967
0.42977399 -0.004443761 0.021251038
0.43067735 -0.0034302128 0.021758052
0.43070689 -0.0024586918 0.021752132
0.43073642 -0.0014871743 0.021746211
0.43076596 -0.00051565695 0.021740291
0.43079549 0.00045586418 0.021734372
0.43082502 0.0014273854 0.02172845
0.43085453 0.0023989028 0.021722531
0.43088406 0.0033704201 0.02171661
0.4309136 0.0043419395 0.02171069
0.43094313 0.0053134607 0.021704771
0.43097267 0.0062849796 0.021698849
0.4310022 0.0072564972 0.02169293
0.43103173 0.0082280161 0.02168701
0.43106124 0.0091995373 0.021681089
0.43109077 0.010171055 0.021675169
0.43112031 0.011142574 0.02166925
0.43114984 0.012114096 0.021663329
0.43117937 0.013085613 0.021657409
0.43033597 0.014045359 0.02113837
0.43036553 0.015018472 0.021132439
0.43039513 0.015991583 0.021126509
0.43042469 0.016964696 0.02112058
0.43045428 0.017937807 0.021114649
0.43048385 0.01891092 0.02110872
0.43051344 0.019884031 0.02110279
0.43054301 0.020857142 0.021096861
0.4305726 0.021830253 0.02109093
0.43060216 0.022803366 0.021085
0.43063176 0.023776477 0.021079071
0.43066132 0.02474959 0.02107314
0.43069091 0.025722701 0.021067211
0.43072048 0.026695812 0.021061281
0.43075007 0.027668923 0.02105535
0.43077964 0.028642036 0.021049421
0.43080923 0.029615147 0.021043491
0.43083879 0.03058826 0.021037562
0.43086839 0.031561371 0.021031631
0.43089795 0.032534484 0.021025702
0.43005553 0.033527676 0.020506421
0.43008515 0.03450238 0.020500481
0.43011478 0.035477083 0.020494541
0.4301444 0.03645179 0.020488601
0.43017402 0.037426494 0.020482663
0.43020365 0.038401198 0.020476723
0.43023327 0.039375901 0.020470783
0.43026289 0.040350609 0.020464843
0.43029252 0.041325312 0.020458903
0.43119374 0.042265601 0.020966403
0.4312233 0.043238711 0.020960473
0.4312529 0.044211823 0.020954544
0.43128246 0.045184936 0.020948613
0.43131205 0.046158049 0.020942684
0.43134162 0.047131158 0.020936754
0.43137121 0.048104271 0.020930823
0.43140078 0.04907738 0.020924894
0.43143037 0.050050493 0.020918963
0.43145993 0.051023606 0.020913035
0.4314895 0.051996719 0.020907104
0.43151909 0.052969828 0.020901173
0.43067768 0.05399647 0.020381689
0.43070731 0.054971177 0.020375749
0.43073693 0.055945881 0.020369811
0.42989576 0.056978885 0.019850319
0.42905468 0.058015078 0.019330807
0.42821372 0.059054457 0.018811276
0.42650214 0.060160108 0.017778113
0.42566139 0.061207447 0.017258534
0.42482075 0.062257972 0.016738936
0.42398021 0.063311689 0.016219318
0.42226925 0.064438038 0.015186035
0.41881767 0.065712854 0.013125448
0.41449612 0.06707304 0.010551148
0.40756404 0.068671852 0.0064357724
0.3937023 0.071945913 -0.001795418
0.269945 0.39263806 -0.082269698
0.27084267 0.39346367 -0.081761539
0.27088174 0.39474893 -0.08176937
0.27263772 0.39510536 -0.080745153
0.27353513 0.39592141 -0.080236897
0.27357405 0.39720193 -0.080244698
0.27532959 0.397544 -0.079220392
0.27622667 0.39835051 -0.078712106
0.27712372 0.39915383 -0.078203775
0.42217475 -0.016695084 0.015942542
0.42307815 -0.01564805 0.016450586
0.42310813 -0.014662198 0.016444579
0.42313808 -0.013676348 0.016438572
0.42404127 -0.012635677 0.01694666
0.42494437 -0.011598197 0.017454768
0.42497423 -0.010615531 0.017448781
0.4267503 -0.0095327916 0.01847107
0.42678007 -0.0085533103 0.0184651
0.42855582 -0.0074801315 0.019487422
0.4285855 -0.0065038367 0.019481473
0.42948806 -0.0054838755 0.019989688
0.43039057 -0.004467092 0.020497948
0.43042016 -0.0034939807 0.020492017
0.43044972 -0.0025208697 0.020486088
0.43135202 -0.0015104667 0.020994361
0.43138152 -0.00053894933 0.020988442
0.43141106 0.00043257183 0.020982521
0.43144059 0.001404093 0.020976601
0.43147013 0.0023756104 0.020970682
0.43149966 0.0033471277 0.02096476
0.43152919 0.0043186471 0.020958841
0.4315587 0.0052901683 0.020952919
0.43158823 0.0062616873 0.020947
0.43161777 0.0072332048 0.020941081
0.4316473 0.0082047237 0.020935159
0.43167683 0.009176245 0.02092924
0.43083426 0.010129581 0.020408999
0.43086383 0.011102692 0.02040307
0.43089342 0.012075806 0.02039714
0.43092299 0.013048917 0.020391211
0.43095255 0.014022028 0.02038528
0.43098214 0.014995141 0.020379351
0.43101171 0.015968254 0.020373421
0.4310413 0.016941365 0.02036749
0.43107086 0.017914476 0.020361561
0.43022871 0.018883741 0.019841198
0.43025833 0.019858444 0.019835258
0.43028799 0.02083315 0.019829318
0.43031761 0.021807853 0.01982338
0.43034723 0.022782559 0.01981744
0.43037686 0.023757262 0.0198115
0.43040648 0.024731968 0.01980556
0.4304361 0.025706671 0.01979962
0.43046573 0.026681375 0.019793682
0.43049535 0.02765608 0.019787742
0.43052498 0.028630784 0.019781802
0.4305546 0.029605489 0.019775862
0.43058425 0.030580193 0.019769924
0.43061388 0.031554896 0.019763984
0.4306435 0.032529604 0.019758044
0.43067312 0.033504307 0.019752104
0.43070275 0.034479011 0.019746164
0.43073237 0.035453714 0.019740226
0.43076199 0.036428422 0.019734286
0.43079162 0.037403125 0.019728346
0.43082124 0.038377829 0.019722406
0.43085086 0.039352532 0.019716466
0.43088052 0.04032724 0.019710528
0.43091014 0.041301943 0.019704588
0.43093976 0.042276647 0.019698648
0.43096939 0.043251351 0.019692708
0.43099901 0.044226058 0.019686768
0.43102863 0.045200761 0.01968083
0.43105826 0.046175465 0.01967489
0.43108788 0.047150169 0.01966895
0.4311175 0.048124876 0.01966301
0.43114713 0.049099579 0.019657072
0.43117678 0.050074283 0.019651132
0.43120641 0.051048987 0.019645192
0.43123603 0.052023694 0.019639252
0.43126565 0.052998397 0.019633312
0.43129528 0.053973101 0.019627374
0.4313249 0.054947805 0.019621434
0.43048468 0.055979181 0.019100718
0.43051437 0.056955479 0.019094769
0.4296743 0.057991631 0.018574024
0.42883435 0.059030976 0.01805326
0.42712477 0.060136545 0.017017636
0.42628506 0.061183847 0.016496824
0.42544541 0.062234338 0.015975993
0.42460588 0.063288011 0.015455147
0.4237664 0.064344876 0.014934245
0.42205766 0.065475926 0.013898491
0.4194797 0.066685945 0.012347801
0.41342482 0.068202294 0.0087375268
0.39784017 0.07161139 -0.00054309861
0.27337214 0.39251047 -0.081721723
0.27341112 0.39379257 -0.081729531
0.27430758 0.39461023 -0.081220061
0.2743465 0.39589071 -0.081227861
0.27610013 0.39623606 -0.080201104
0.27699623 0.39704421 -0.079691604
0.27703503 0.39831993 -0.079699375
0.27878824 0.39865091 -0.078672506
0.27968407 0.3994495 -0.078162938
0.42367285 -0.016657539 0.015693661
0.42370281 -0.015671685 0.015687654
0.4246051 -0.0146278 0.016196951
0.42376274 -0.013699984 0.01567564
0.42466491 -0.012659275 0.016184956
0.425567 -0.011621756 0.016694296
0.426469 -0.010587425 0.017203659
0.42737094 -0.0095562749 0.017713064
0.42740071 -0.0085767927 0.017707096
0.42830247 -0.0075504263 0.018216506
0.42920411 -0.0065272436 0.018725928
0.43010566 -0.0055072443 0.019235376
0.43013528 -0.0045325356 0.019229438
0.43103674 -0.0035173111 0.019738946
0.4310663 -0.0025442 0.019733017
0.4310959 -0.0015710889 0.019727087
0.43112546 -0.00059797784 0.019721158
0.43115506 0.00037513324 0.019715227
0.43118462 0.001348248 0.019709297
0.43121421 0.002321359 0.019703368
0.43124378 0.0032944703 0.019697437
0.43127337 0.0042675794 0.019691508
0.43130293 0.0052406923 0.019685578
0.43133253 0.0062138052 0.019679649
0.43136209 0.0071869162 0.019673718
0.43139169 0.0081600277 0.019667787
0.43142125 0.0091331406 0.019661859
0.43145084 0.010106252 0.019655928
0.43148041 0.011079363 0.019649999
0.43151 0.012052475 0.019644069
0.43153957 0.013025586 0.019638138
0.43069819 0.013986848 0.019116586
0.43072781 0.014961554 0.019110646
0.43075743 0.015936257 0.019104706
0.43078706 0.016910963 0.019098766
0.43081668 0.017885666 0.019092826
0.4308463 0.018860372 0.019086888
0.43087596 0.019835075 0.019080948
0.43090558 0.020809781 0.019075008
0.4309352 0.021784484 0.019069068
0.43096483 0.02275919 0.019063128
0.43099445 0.023733893 0.01905719
0.43102407 0.024708599 0.01905125
0.43018338 0.025690565 0.018529601
0.43021306 0.026666861 0.018523652
0.43024272 0.027643159 0.018517703
0.4302724 0.028619455 0.018511754
0.43030208 0.029595753 0.018505804
0.43033174 0.030572051 0.018499855
0.43036142 0.031548347 0.018493906
0.4303911 0.032524645 0.018487956
0.43042079 0.033500943 0.018482007
0.43045044 0.034477238 0.018476058
0.43048012 0.035453536 0.018470109
0.43050981 0.036429834 0.018464159
0.43053949 0.037406132 0.01845821
0.43056914 0.038382426 0.018452261
0.43059883 0.039358724 0.018446311
0.43062851 0.040335022 0.018440362
0.43065816 0.04131132 0.018434413
0.43068784 0.042287618 0.018428463
0.43071753 0.043263912 0.018422514
0.43074721 0.04424021 0.018416565
0.43077686 0.045216508 0.018410616
0.43167585 0.046152096 0.018920578
0.43170547 0.0471268 0.01891464
0.4317351 0.048101507 0.0189087
0.43176475 0.049076211 0.01890276
0.43179438 0.050050914 0.01889682
0.431824 0.051025618 0.018890882
0.43185362 0.052000325 0.018884942
0.43101427 0.053026885 0.018363021
0.43104395 0.054003183 0.018357072
0.43107364 0.054979477 0.018351123
0.43110329 0.055955775 0.018345173
0.4302642 0.056990299 0.017823212
0.42942518 0.058028009 0.017301224
0.42945495 0.059007492 0.017295256
0.4277474 0.060112987 0.016257165
0.4269087 0.061160251 0.01573512
0.42693862 0.06214451 0.015729122
0.42610005 0.063196555 0.015207052
0.42526156 0.064251781 0.014684958
0.42355475 0.065381169 0.013646722
0.42097983 0.066589482 0.012092373
0.41753685 0.06788151 0.010021818
0.27504107 0.39201853 -0.082195409
0.27508 0.39329904 -0.082203209
0.27597538 0.39411515 -0.081692524
0.27687061 0.39492813 -0.081181817
0.27776578 0.39573792 -0.080671087
0.27866089 0.39654446 -0.080160312
0.27955586 0.3973479 -0.079649538
0.28045073 0.39814809 -0.079138756
0.28134552 0.39894512 -0.078627951
0.28224018 0.39973897 -0.078117125
0.42513898 -0.017604176 0.015453234
0.42429751 -0.016681176 0.014930718
0.42432746 -0.015695322 0.014924711
0.42435744 -0.014709469 0.014918703
0.42525867 -0.013667139 0.015429243
0.42615977 -0.012627985 0.015939808
0.42618966 -0.011645316 0.015933819
0.42709064 -0.010610946 0.016444407
0.42799157 -0.0095797582 0.016955048
0.42802134 -0.0086002769 0.01694908
0.42892209 -0.0075738714 0.017459722
0.42982271 -0.0065506501 0.017970385
0.4298524 -0.0055743521 0.017964436
0.43075287 -0.0045559043 0.018475121
0.4307825 -0.0035811996 0.018469181
0.43081215 -0.0026064951 0.018463241
0.43084177 -0.0016317902 0.018457303
0.43174207 -0.00062130857 0.018968068
0.43177164 0.0003518025 0.018962137
0.43180123 0.0013249173 0.018956209
0.43183079 0.0022980284 0.018950278
0.43186039 0.0032711395 0.018944349
0.43188995 0.0042442488 0.018938418
0.43191954 0.0052173617 0.01893249
0.43194911 0.0061904746 0.018926559
0.4319787 0.0071635856 0.018920628
0.43200827 0.0081366962 0.0189147
0.43116766 0.0090899579 0.018391967
0.43119729 0.010064661 0.018386027
0.43122691 0.011039366 0.018380087
0.43125653 0.012014072 0.018374149
0.43128616 0.012988775 0.018368209
0.43131578 0.01396348 0.018362269
0.4313454 0.014938185 0.018356329
0.43137503 0.015912889 0.018350389
0.43140468 0.016887594 0.018344451
0.43056458 0.017856782 0.017821653
0.43059427 0.018833078 0.017815704
0.43062392 0.019809375 0.017809754
0.4306536 0.020785673 0.017803805
0.43068328 0.021761969 0.017797856
0.43071297 0.022738267 0.017791906
0.43074262 0.023714563 0.017785957
0.4307723 0.024690861 0.017780008
0.43080199 0.025667159 0.017774059
0.43083167 0.026643455 0.017768109
0.43086132 0.027619753 0.01776216
0.43002182 0.028608052 0.017239239
0.43005157 0.029585941 0.01723328
0.43008128 0.030563831 0.017227322
0.43011099 0.03154172 0.017221363
0.43014073 0.032519612 0.017215403
0.43017045 0.033497501 0.017209444
0.43020019 0.03447539 0.017203486
0.4302299 0.035453279 0.017197527
0.43025962 0.036431171 0.017191568
0.43028936 0.03740906 0.017185608
0.43031907 0.038386948 0.017179649
0.43034878 0.039364841 0.017173691
0.43037853 0.04034273 0.017167732
0.43040824 0.041320618 0.017161774
0.43043795 0.042298507 0.017155813
0.43133613 0.043240506 0.017666971
0.43136582 0.044216804 0.017661022
0.43139547 0.045193098 0.017655073
0.43142515 0.046169396 0.017649123
0.43145484 0.047145694 0.017643174
0.43148449 0.048121992 0.017637225
0.43151417 0.049098291 0.017631276
0.43154386 0.050074585 0.017625326
0.43157354 0.051050883 0.017619377
0.43160319 0.052027181 0.017613428
0.43163288 0.053003475 0.017607478
0.43166256 0.053979777 0.017601529
0.43082437 0.055011075 0.017078348
0.43085408 0.055988964 0.017072387
0.43088382 0.056966856 0.017066428
0.43004581 0.058004525 0.016543208
0.42920786 0.059045386 0.016019942
0.42837006 0.060089428 0.015496688
0.42839992 0.061072096 0.0154907
0.42756227 0.062120914 0.014967411
0.4267247 0.063172922 0.014444109
0.42588723 0.06422811 0.013920781
0.42504981 0.065286487 0.013397408
0.42421255 0.066348046 0.012874042
0.41990617 0.06770926 0.010281245
0.27760231 0.3923429 -0.082154743
0.27849656 0.39315587 -0.081642807
0.27853534 0.39443162 -0.081650577
0.2794295 0.3952398 -0.081138581
0.28032351 0.39604485 -0.080626592
0.28121743 0.39684671 -0.080114581
0.28211123 0.39764535 -0.079602554
0.28300494 0.39844084 -0.079090506
0.28389862 0.39923307 -0.078578405
0.42576265 -0.017627774 0.014691529
0.42579255 -0.016643515 0.014685531
0.42582247 -0.015659256 0.014679533
0.42585239 -0.014674996 0.014673536
0.42588231 -0.013690737 0.014667538
0.42678243 -0.012651545 0.01517933
0.42681229 -0.011668875 0.015173342
0.42771226 -0.010634468 0.015685171
0.42861217 -0.0096032415 0.016197043
0.42864195 -0.0086237593 0.016191075
0.42954168 -0.0075973165 0.016702944
0.42957142 -0.0066194246 0.016696986
0.430471 -0.0055977586 0.017208891
0.43050066 -0.0046214568 0.017202942
0.43053034 -0.0036451621 0.017196992
0.43142974 -0.0026298636 0.017708931
0.43145937 -0.0016551588 0.017702991
0.43148899 -0.0006804578 0.017697051
0.43151861 0.00029424691 0.017691113
0.43154824 0.0012689517 0.017685173
0.43157786 0.0022436564 0.017679233
0.43160748 0.0032183612 0.017673293
0.43163711 0.0041930657 0.017667353
0.43166673 0.0051677707 0.017661415
0.43169636 0.0061424752 0.017655475
0.43172601 0.0071171802 0.017649535
0.43175563 0.0080918828 0.017643595
0.43178526 0.0090665892 0.017637657
0.43181488 0.010041293 0.017631717
0.4318445 0.011015997 0.017625777
0.43100515 0.011975594 0.017101804
0.4310348 0.01295189 0.017095855
0.43106449 0.013928187 0.017089905
0.43109417 0.014904483 0.017083956
0.43112385 0.015880782 0.017078007
0.43115351 0.016857078 0.017072057
0.43118319 0.017833374 0.017066108
0.43121287 0.018809671 0.017060159
0.43037394 0.019783599 0.016536092
0.43040365 0.02076149 0.016530134
0.43043339 0.021739379 0.016524175
0.43046311 0.022717269 0.016518217
0.43049285 0.023695158 0.016512258
0.43052256 0.024673048 0.016506298
0.43055227 0.025650937 0.016500339
0.43058202 0.026628828 0.01649438
0.43061173 0.027606716 0.016488422
0.43064144 0.028584607 0.016482463
0.43067119 0.029562496 0.016476503
0.4307009 0.030540386 0.016470544
0.42986259 0.031535018 0.015946358
0.42989236 0.032514501 0.015940389
0.42992213 0.033493984 0.015934421
0.42995191 0.034473464 0.015928453
0.42998168 0.035452947 0.015922483
0.43001145 0.03643243 0.015916515
0.43004122 0.037411913 0.015910545
0.43093869 0.038363505 0.016422873
0.4309684 0.039341394 0.016416913
0.43099812 0.040319283 0.016410954
0.43102786 0.041297171 0.016404996
0.43105757 0.042275064 0.016399037
0.43108729 0.043252952 0.016393077
0.43111703 0.044230841 0.016387118
0.43114674 0.045208734 0.016381159
0.43117648 0.046186622 0.016375201
0.4312062 0.047164511 0.016369242
0.43123591 0.048142403 0.016363282
0.43126565 0.049120292 0.016357323
0.43129537 0.050098181 0.016351365
0.43132508 0.051076069 0.016345406
0.43135482 0.052053962 0.016339447
0.43138453 0.053031851 0.016333487
0.43141425 0.054009739 0.016327528
0.43144399 0.054987632 0.01632157
0.4314737 0.05596552 0.016315611
0.43063667 0.057001561 0.015791172
0.43066645 0.05798104 0.015785202
0.42982948 0.059021864 0.015260704
0.42899269 0.060065869 0.014736211
0.42902258 0.061048534 0.014730223
0.42818591 0.062097315 0.014205706
0.42734936 0.063149281 0.013681171
0.42737931 0.064135134 0.013675164
0.42654291 0.06519188 0.013150592
0.42570657 0.066251814 0.012625976
0.42487034 0.06731493 0.012101373
0.4188368 0.068835251 0.008465182
0.41107154 0.070532396 0.0037916319
0.28015935 0.39266101 -0.082109079
0.28019807 0.39393514 -0.082116842
0.28109112 0.3947418 -0.081603624
0.28198409 0.39554527 -0.081090398
0.28287694 0.39634559 -0.08057715
0.2837697 0.39714268 -0.080063872
0.2846624 0.39793658 -0.079550557
0.28555498 0.39872733 -0.079037249
0.28559339 0.39999187 -0.079044953
0.4263863 -0.017651372 0.013929819
0.42641622 -0.016667113 0.013923821
0.42644614 -0.015682854 0.013917823
0.42647606 -0.014698594 0.013911826
0.4273752 -0.013657778 0.014424842
0.42740506 -0.012675105 0.014418853
0.42743495 -0.011692435 0.014412865
0.42833391 -0.010657989 0.01492592
0.42836371 -0.0096769137 0.014919942
0.42926258 -0.0086472426 0.015433058
0.42929235 -0.0076677608 0.015427089
0.43019104 -0.0066428697 0.015940208
0.43022075 -0.0056649814 0.015934249
0.43111926 -0.0046448638 0.016447393
0.43114895 -0.003668569 0.016441444
0.43117863 -0.0026922706 0.016435495
0.43120831 -0.0017159759 0.016429545
0.43123797 -0.00073967752 0.016423596
0.43213621 0.00027087814 0.016936796
0.43216583 0.0012455828 0.016930856
0.43219545 0.0022202877 0.016924918
0.43222508 0.0031949924 0.016918978
0.43225473 0.0041696969 0.016913038
0.43228436 0.0051444019 0.016907098
0.43231398 0.0061191064 0.016901158
0.43147537 0.0070706983 0.016376002
0.43150505 0.0080469949 0.016370052
0.43153474 0.0090232929 0.016364103
0.43156439 0.00999959 0.016358154
0.43159407 0.010975886 0.016352205
0.43162376 0.011952187 0.016346255
0.43165341 0.012928483 0.016340306
0.43081522 0.013892815 0.01581507
0.43084493 0.014870705 0.015809111
0.43087468 0.015848596 0.015803153
0.43090439 0.016826486 0.015797192
0.4309341 0.017804373 0.015791234
0.43096384 0.018782264 0.015785275
0.43099356 0.019760154 0.015779316
0.43102327 0.020738045 0.015773358
0.43105301 0.021715933 0.015767397
0.43021527 0.022696193 0.01524206
0.43024504 0.023675675 0.015236092
0.43027481 0.024655158 0.015230123
0.43030459 0.025634641 0.015224154
0.43033436 0.026614122 0.015218185
0.43036413 0.027593605 0.015212216
0.4303939 0.028573086 0.015206248
0.43042368 0.02955257 0.015200279
0.43045345 0.030532053 0.015194311
0.43048322 0.031511534 0.015188342
0.43051299 0.032491017 0.015182373
0.43054277 0.0334705 0.015176404
0.43057254 0.034449983 0.015170435
0.43060231 0.035429463 0.015164467
0.43063208 0.036408946 0.015158499
0.43066186 0.037388429 0.01515253
0.43069163 0.038367912 0.015146561
0.4307214 0.039347395 0.015140592
0.43075117 0.040326875 0.015134623
0.43078095 0.041306358 0.015128654
0.43081072 0.042285841 0.015122687
0.43084049 0.043265324 0.015116718
0.43087026 0.044244807 0.015110749
0.43176636 0.045185287 0.015624383
0.43179607 0.046163179 0.015618423
0.43182582 0.047141068 0.015612464
0.43185553 0.048118956 0.015606505
0.43188524 0.049096845 0.015600546
0.43191499 0.050074738 0.015594588
0.4319447 0.051052626 0.015588628
0.43197441 0.052030515 0.01558267
0.43113822 0.053060148 0.01505703
0.43116799 0.054039631 0.015051061
0.43119776 0.05501911 0.015045093
0.43122754 0.055998594 0.015039125
0.43125731 0.056978077 0.015033156
0.43128708 0.057957556 0.015027187
0.43045112 0.058998343 0.014501454
0.42961535 0.060042307 0.013975734
0.42964521 0.061024975 0.013969745
0.42880958 0.062073719 0.013443996
0.42883947 0.063057981 0.013437998
0.428004 0.064111501 0.012912219
0.42803395 0.065097354 0.012906211
0.42719862 0.06615565 0.012380398
0.42549804 0.067291178 0.011334729
0.421202 0.068659969 0.0087295566
0.41431087 0.070276365 0.0045647607
0.40828571 0.071839422 0.00091968628
0.40226117 0.073424779 -0.0027255616
0.28182009 0.39216623 -0.082572922
0.28271213 0.39297295 -0.082058474
0.28360406 0.39377645 -0.081544012
0.28364265 0.39504579 -0.081551746
0.28453445 0.39584455 -0.081037261
0.2854262 0.39664006 -0.080522709
0.2863178 0.39743245 -0.080008179
0.2872093 0.39822161 -0.079493627
0.28724769 0.3994846 -0.079501323
0.42003217 -0.019175706 0.0090124505
0.42614153 -0.017737936 0.012647905
0.42703986 -0.016690711 0.013162117
0.42706978 -0.015706452 0.013156118
0.42796797 -0.014664003 0.013670358
0.42799783 -0.013681336 0.01366437
0.42802772 -0.012698663 0.013658382
0.42805758 -0.011715994 0.013652394
0.42895553 -0.010681511 0.014166682
0.42898536 -0.0097004352 0.014160704
0.42988321 -0.0086707259 0.014675054
0.42991298 -0.0076912441 0.014669085
0.42994276 -0.0067117619 0.014663116
0.43084037 -0.0056884261 0.015177472
0.43087009 -0.0047105341 0.015171514
0.4308998 -0.0037326459 0.015165554
0.43092954 -0.0027547539 0.015159596
0.43182692 -0.0017393827 0.015674001
0.43185657 -0.00076308433 0.015668051
0.43188626 0.00021321031 0.015662102
0.43191594 0.0011895087 0.015656153
0.43194559 0.0021658072 0.015650203
0.43197528 0.0031421017 0.015644254
0.43200496 0.0041184002 0.015638305
0.43203464 0.0050946986 0.015632356
0.43206429 0.0060709952 0.015626406
0.43209398 0.0070472914 0.015620457
0.43212366 0.008023588 0.015614508
0.43128622 0.0089799231 0.015088088
0.43131593 0.0099578109 0.015082128
0.43134567 0.010935701 0.01507617
0.43137538 0.011913591 0.015070211
0.4314051 0.012891482 0.015064252
0.43143484 0.01386937 0.015058293
0.43146455 0.01484726 0.015052333
0.4306275 0.015816335 0.014525836
0.43065727 0.016795816 0.014519867
0.43068704 0.017775299 0.014513899
0.43071681 0.01875478 0.01450793
0.43074659 0.019734263 0.014501961
0.43077636 0.020713745 0.014495993
0.43080613 0.021693228 0.014490024
0.4308359 0.022672711 0.014484055
0.43086568 0.023652192 0.014478086
0.43089545 0.024631675 0.014472118
0.43092522 0.025611157 0.014466149
0.4300887 0.026599342 0.013939503
0.43011853 0.027580418 0.013933524
0.43014833 0.028561493 0.013927546
0.43017817 0.029542567 0.013921568
0.43020797 0.030523643 0.013915589
0.4302378 0.031504717 0.013909611
0.4302676 0.032485794 0.013903633
0.43029743 0.033466868 0.013897655
0.43032727 0.034447942 0.013891676
0.43035707 0.035429019 0.013885697
0.4303869 0.036410093 0.013879719
0.4304167 0.037391167 0.013873741
0.43044654 0.038372245 0.013867762
0.43047637 0.039353319 0.013861784
0.43050617 0.040334392 0.013855806
0.430536 0.04131547 0.013849827
0.43143132 0.042262357 0.014364681
0.4314611 0.04324184 0.014358712
0.43149087 0.044221323 0.014352744
0.43152064 0.045200806 0.014346776
0.43155041 0.046180286 0.014340807
0.43158019 0.047159769 0.014334838
0.43160996 0.048139252 0.014328869
0.43163973 0.049118735 0.0143229
0.4316695 0.050098218 0.014316931
0.43169928 0.051077697 0.014310963
0.43172905 0.052057181 0.014304995
0.43175882 0.053036664 0.014299026
0.43178859 0.054016147 0.014293057
0.43181837 0.05499563 0.014287088
0.4309833 0.056031596 0.013760151
0.43101311 0.05701267 0.013754172
0.43104294 0.057993744 0.013748194
0.43020812 0.05903608 0.01322125
0.43023798 0.060018748 0.013215262
0.43026784 0.061001416 0.013209274
0.42943323 0.062050119 0.012682291
0.42946315 0.063034385 0.012676293
0.42949304 0.064018644 0.012670295
0.4286586 0.065073714 0.012143274
0.42782426 0.066131979 0.011616233
0.42698997 0.067193434 0.011089141
0.42356321 0.068484843 0.0089988951
0.41927254 0.069866188 0.0063874521
0.40723649 0.072998136 -0.00092002773
0.40208352 0.074515596 -0.0040528667
0.28436977 0.39247668 -0.0825186
0.28526065 0.39327863 -0.082002901
0.28529918 0.39454636 -0.082010619
0.28704217 0.39487299 -0.080971397
0.28708062 0.39613757 -0.080979101
0.28797117 0.39692837 -0.080463327
0.2888616 0.39771599 -0.079947539
0.28889996 0.39897737 -0.07995522
0.29064226 0.39928165 -0.078915857
0.42066389 -0.01919961 0.0082408795
0.42589879 -0.017824577 0.011363519
0.42766351 -0.016714308 0.012400405
0.42769343 -0.015730049 0.012394408
0.42859063 -0.014687562 0.012909881
0.42862049 -0.013704896 0.012903893
0.42865035 -0.012722223 0.012897905
0.42868021 -0.011739554 0.012891917
0.4287101 -0.010756888 0.012885928
0.42960697 -0.0097239567 0.01340146
0.42963681 -0.0087428847 0.013395482
0.43053362 -0.0077147274 0.013911074
0.43056339 -0.0067352452 0.013905105
0.43059316 -0.005755763 0.013899137
0.43062294 -0.0047762776 0.013893168
0.43151942 -0.003756091 0.014408777
0.43154916 -0.0027781988 0.014402818
0.43157887 -0.0018003106 0.014396859
0.43160859 -0.00082242227 0.014390901
0.43163833 0.00015546607 0.014384941
0.43166804 0.0011333581 0.014378983
0.43169776 0.0021112463 0.014373023
0.4317275 0.0030891385 0.014367064
0.43175721 0.004067027 0.014361106
0.43178692 0.005044919 0.014355146
0.43181667 0.0060228072 0.014349188
0.43184638 0.0070006954 0.014343228
0.43187609 0.0079785855 0.01433727
0.43190584 0.008956478 0.01433131
0.43193555 0.0099343657 0.014325351
0.43109927 0.010895438 0.013797669
0.43112904 0.011874922 0.0137917
0.43115881 0.012854404 0.013785732
0.43118858 0.013833886 0.013779763
0.43121836 0.014813367 0.013773794
0.43124813 0.015792852 0.013767825
0.4312779 0.016772334 0.013761857
0.43130767 0.017751815 0.013755888
0.43047178 0.018727221 0.013228087
0.43050158 0.019708296 0.013222108
0.43053141 0.02068937 0.01321613
0.43056124 0.021670446 0.013210151
0.43059105 0.022651521 0.013204173
0.43062088 0.023632595 0.013198194
0.43065068 0.024613671 0.013192216
0.43068051 0.025594747 0.013186238
0.42984509 0.026584486 0.012658381
0.42987496 0.027567152 0.012652392
0.42990485 0.02854982 0.012646404
0.42993471 0.029532488 0.012640417
0.42996457 0.030515157 0.012634428
0.42999443 0.031497825 0.01262844
0.4300243 0.032480493 0.012622451
0.43005419 0.033463161 0.012616464
0.43008405 0.034445826 0.012610476
0.43011391 0.035428494 0.012604487
0.43014377 0.036411162 0.0125985
0.43017367 0.037393831 0.012592511
0.43020353 0.038376499 0.012586523
0.43023339 0.039359167 0.012580535
0.43026325 0.040341832 0.012574547
0.43029311 0.0413245 0.012568559
0.43118745 0.042273022 0.013084604
0.43121728 0.0432541 0.013078626
0.43124709 0.044235174 0.013072648
0.43127692 0.045216247 0.01306667
0.43130672 0.046197325 0.013060691
0.43133655 0.047178399 0.013054713
0.43136638 0.048159473 0.013048735
0.43139619 0.04914055 0.013042756
0.43142602 0.050121624 0.013036777
0.43145582 0.051102698 0.013030799
0.43148565 0.052083772 0.013024821
0.43151549 0.053064849 0.013018843
0.43154529 0.054045923 0.013012864
0.43157512 0.055027001 0.013006886
0.43160492 0.056008074 0.013000907
0.43077102 0.057047185 0.012472749
0.43080088 0.058029853 0.012466761
0.43083075 0.059012521 0.012460773
0.43086064 0.059995189 0.012454784
0.43002695 0.061042264 0.011926578
0.43005687 0.062026523 0.011920581
0.43008679 0.063010782 0.011914583
0.42925331 0.064064227 0.011386338
0.42928329 0.06505008 0.01138033
0.42931324 0.066035934 0.011374323
0.42761666 0.067169718 0.010323729
0.42419392 0.068460979 0.0082285572
0.42077151 0.069764979 0.0061332756
0.40619153 0.074163064 -0.0027646876
0.28776658 0.39231354 -0.081934623
0.28780499 0.39357808 -0.081942335
0.28869465 0.39437214 -0.081425346
0.28958416 0.39516297 -0.080908336
0.29047367 0.39595062 -0.08039128
0.291363 0.3967351 -0.079874232
0.29140124 0.39799333 -0.079881899
0.29229045 0.39877301 -0.079364829
0.29317954 0.39954951 -0.078847729
0.42565799 -0.017911296 0.010076636
0.42828718 -0.016737906 0.011638695
0.4283171 -0.015753647 0.011632698
0.42834699 -0.014769387 0.0116267
0.42924315 -0.013728457 0.01214341
0.42927301 -0.012745784 0.012137421
0.42930287 -0.011763114 0.012131434
0.42933273 -0.010780448 0.012125446
0.42936262 -0.0097977826 0.012119457
0.43025845 -0.0087664062 0.012636232
0.43028826 -0.0077853305 0.012630254
0.43031809 -0.0068042548 0.012624275
0.43121377 -0.0057792468 0.013141121
0.43124354 -0.0047997609 0.013135152
0.43127331 -0.0038202789 0.013129183
0.43130308 -0.002840797 0.013123214
0.43133286 -0.001861315 0.013117245
0.43136263 -0.00088183302 0.013111277
0.43225795 0.00013202087 0.013628159
0.43228766 0.0011099129 0.013622199
0.43231738 0.0020878012 0.013616241
0.43234712 0.0030656932 0.013610281
0.43237683 0.0040435814 0.013604322
0.43240654 0.0050214739 0.013598364
0.43157104 0.0059745428 0.013069496
0.43160081 0.0069540245 0.013063528
0.43163058 0.0079335067 0.013057559
0.43166035 0.0089129908 0.01305159
0.43169013 0.0098924721 0.013045621
0.4317199 0.010871954 0.013039653
0.43174967 0.011851438 0.013033684
0.43091449 0.012817249 0.012504707
0.43094432 0.013798323 0.012498729
0.43097413 0.014779398 0.012492751
0.43100396 0.015760474 0.012486772
0.43103376 0.01674155 0.012480794
0.43106359 0.017722623 0.012474815
0.43109339 0.018703699 0.012468837
0.43025866 0.019682251 0.011939814
0.43028852 0.020664919 0.011933826
0.43031842 0.021647586 0.011927838
0.43034828 0.022630254 0.01192185
0.43037814 0.023612922 0.011915862
0.430408 0.02459559 0.011909874
0.43043789 0.025578259 0.011903886
0.43046775 0.026560925 0.011897897
0.43049762 0.027543593 0.01189191
0.43052748 0.028526261 0.011885921
0.43055734 0.029508928 0.011879933
0.43058723 0.030491596 0.011873945
0.43061709 0.031474266 0.011867957
0.43064696 0.032456931 0.011861969
0.43067682 0.033439599 0.01185598
0.43070668 0.034422267 0.011849993
0.43073657 0.035404935 0.011844005
0.43076643 0.036387604 0.011838016
0.4307963 0.037370272 0.011832029
0.43082616 0.03835294 0.01182604
0.43085605 0.039335605 0.011820052
0.43088591 0.040318273 0.011814064
0.43091577 0.041300941 0.011808076
0.43094563 0.04228361 0.011802088
0.4309755 0.043266278 0.0117961
0.43100539 0.044248946 0.011790112
0.43103525 0.045231611 0.011784123
0.43106511 0.046214279 0.011778136
0.43109497 0.047196947 0.011772147
0.43112487 0.048179615 0.011766159
0.43115473 0.049162284 0.011760172
0.43118459 0.050144952 0.011754183
0.43121445 0.05112762 0.011748195
0.43124431 0.052110288 0.011742206
0.43127421 0.053092953 0.011736219
0.43130407 0.054075621 0.01173023
0.43133393 0.055058289 0.011724242
0.43136379 0.056040958 0.011718255
0.43139368 0.057023626 0.011712266
0.43142354 0.058006294 0.011706278
0.43059078 0.059050143 0.011176864
0.4306207 0.060034405 0.011170866
0.43065062 0.061018664 0.011164868
0.43068051 0.062002923 0.01115887
0.42984802 0.06305474 0.010629402
0.42987797 0.064040594 0.010623394
0.42990795 0.065026447 0.010617387
0.42907563 0.066084631 0.010087878
0.42824334 0.067146003 0.0095583191
0.42482463 0.068437107 0.0074582198
0.42226842 0.069663852 0.005881534
0.41885039 0.07097885 0.0037812565
0.4111535 0.073728956 -0.00094308937
0.40601277 0.075250737 -0.0040907455
0.29030675 0.39260995 -0.08186914
0.29034507 0.39387137 -0.081876829
0.29208374 0.39418855 -0.080832608
0.29212198 0.39544675 -0.080840275
0.29301026 0.39622968 -0.08032199
0.29304847 0.3974863 -0.080329642
0.29393661 0.39826444 -0.079811327
0.29567459 0.3985593 -0.078766979
0.29571265 0.39981115 -0.078774609
0.40539005 -0.023558013 -0.0032376503
0.42628467 -0.017935008 0.0093112364
0.42804548 -0.01682299 0.010353072
0.42894074 -0.015777243 0.010870992
0.42897066 -0.014792985 0.010864994
0.42900059 -0.013808725 0.010858997
0.42903048 -0.012824459 0.010852999
0.4290604 -0.0118402 0.010847001
0.42995539 -0.010804008 0.011364974
0.42998526 -0.0098213423 0.011358986
0.43001512 -0.0088386731 0.011352998
0.43004498 -0.0078560077 0.01134701
0.43007487 -0.006873338 0.011341021
0.43096954 -0.0058467044 0.011859058
0.43099937 -0.0048656249 0.01185308
0.43102917 -0.0038845493 0.011847102
0.43192372 -0.00286428 0.01236521
0.43195349 -0.0018847981 0.012359241
0.43198326 -0.00090531609 0.012353272
0.43201303 7.416591e-05 0.012347303
0.43204281 0.0010536478 0.012341334
