# .PCD v0.7 - Point Cloud Data file format
VERSION 0.7
FIELDS x y z
SIZE 4 4 4
TYPE F F F
COUNT 1 1 1
WIDTH 1386
HEIGHT 1
VIEWPOINT 0 0 0 1 0 0 0
POINTS 1386
DATA ascii
0.33341664 0.40630296 -0.026748549
0.33432221 0.40692258 -0.026256392
0.33522764 0.40753904 -0.025764205
0.33700347 0.40761563 -0.024772767
0.33703831 0.40876237 -0.024779756
0.39853147 0.047617219 0.016804697
0.39944685 0.04859205 0.017295955
0.39947775 0.049608164 0.017289763
0.40039292 0.050578214 0.017781023
0.40130803 0.051545087 0.018272303
0.40222302 0.052508771 0.018763604
0.40313795 0.053469267 0.019254949
0.40316865 0.05447901 0.019248797
0.4040834 0.05543473 0.019740144
0.40411404 0.056442883 0.019734001
0.40502867 0.057393823 0.020225372
0.40505925 0.058400381 0.020219238
0.4059737 0.059346545 0.020710645
0.40688807 0.060289528 0.021202071
0.40691859 0.061292898 0.021195957
0.40783286 0.062231097 0.021687439
0.40874699 0.063166112 0.022178913
0.40877739 0.0641663 0.022172818
0.40880778 0.065166488 0.022166723
0.4097217 0.066095136 0.022658236
0.40975207 0.06709373 0.022652151
0.40978241 0.068092324 0.022646066
0.40981278 0.069090918 0.022639981
0.40984312 0.070089512 0.022633895
0.40987346 0.071088105 0.02262781
0.40990382 0.072086699 0.022621727
0.40993416 0.073085293 0.022615641
0.40996453 0.074083887 0.022609556
0.40999487 0.075082481 0.022603471
0.41002524 0.076081075 0.022597386
0.41005558 0.077079669 0.0225913
0.41008595 0.07807827 0.022585215
0.41011629 0.079076856 0.02257913
0.41014665 0.08007545 0.022573045
0.41017699 0.081074052 0.022566959
0.41020736 0.082072645 0.022560874
0.4102377 0.083071239 0.022554789
0.41026804 0.084069833 0.022548703
0.40941581 0.085170224 0.022044826
0.40944621 0.086170413 0.022038732
0.40947661 0.087170601 0.022032637
0.40950701 0.088170782 0.022026541
0.4095374 0.089170977 0.022020446
0.4095678 0.090171158 0.022014352
0.40871587 0.091282703 0.021510405
0.40874633 0.092284486 0.021504302
0.40877679 0.093286261 0.021498198
0.40880725 0.094288044 0.021492092
0.4079555 0.095407553 0.020988071
0.40798602 0.09641093 0.020981958
0.4080165 0.0974143 0.020975843
0.40804699 0.098417677 0.02096973
0.40807751 0.099421047 0.020963615
0.408108 0.10042442 0.0209575
0.40725666 0.10155507 0.020453438
0.40728721 0.10256004 0.020447314
0.40731776 0.10356501 0.020441191
0.4073483 0.10456997 0.020435067
0.40737885 0.10557494 0.020428943
0.4074094 0.1065799 0.020422818
0.40743995 0.10758486 0.020416694
0.40747049 0.10858983 0.020410571
0.40750104 0.10959479 0.020404447
0.40753159 0.11059976 0.020398322
0.40756214 0.11160472 0.020392198
0.40759265 0.11260968 0.020386074
0.4076232 0.11361466 0.020379951
0.40765375 0.11461962 0.020373827
0.40680316 0.11577415 0.019869618
0.40683374 0.11678072 0.019863484
0.40686435 0.11778729 0.019857351
0.40601391 0.11894819 0.01935311
0.40428257 0.12026826 0.018350696
0.4034324 0.12143712 0.017846402
0.40346318 0.12245006 0.017840229
0.40261316 0.12362371 0.017335905
0.40176323 0.12480056 0.01683156
0.40179414 0.12581666 0.016825369
0.4000636 0.1271638 0.015822789
0.25078607 0.40285179 -0.074354686
0.2525686 0.40321836 -0.073362589
0.25435102 0.40357855 -0.07237041
0.25613317 0.40393242 -0.071378224
0.25791514 0.40427989 -0.070386
0.25969696 0.40462092 -0.069393702
0.26147854 0.40495563 -0.068401396
0.26325998 0.40528399 -0.067409031
0.26504117 0.40560597 -0.066416651
0.26682222 0.40592155 -0.065424196
0.26947409 0.40574837 -0.063931637
0.27125469 0.40604961 -0.0629391
0.27390599 0.40585887 -0.061446425
0.27655709 0.40565857 -0.059953667
0.27920786 0.40544873 -0.058460839
0.2809875 0.40571976 -0.057468157
0.28363776 0.40549237 -0.055975225
0.28628767 0.40525547 -0.05448227
0.28980801 0.40451381 -0.052489035
0.29332793 0.40375939 -0.050495736
0.29684749 0.40299222 -0.048502345
0.29775506 0.40371224 -0.048009556
0.30127397 0.40292439 -0.046016049
0.30392212 0.40262693 -0.044522688
0.30656987 0.40231997 -0.043029308
0.30834711 0.40250972 -0.042036094
0.3101241 0.40269315 -0.041042864
0.31277114 0.40236065 -0.039549302
0.31454769 0.40252975 -0.038555987
0.31632408 0.40269244 -0.037562609
0.31810027 0.40284878 -0.03656923
0.3207463 0.40248284 -0.035075452
0.32252201 0.40262488 -0.034081973
0.32429761 0.40276048 -0.033088427
0.32607293 0.40288973 -0.032094881
0.32784814 0.40301263 -0.03110126
0.32962307 0.40312916 -0.030107625
0.33052811 0.40376478 -0.02961432
0.33143303 0.40439716 -0.029121008
0.33320755 0.40449774 -0.028127249
0.33324265 0.40565243 -0.028134286
0.33414727 0.4062753 -0.027640916
0.3350518 0.40689498 -0.027147515
0.33595625 0.40751144 -0.026654104
0.33686066 0.40812472 -0.026160637
0.33776492 0.40873486 -0.025667189
0.33866906 0.40934178 -0.02517372
0.39914536 0.046575114 0.016023312
0.40005979 0.047551572 0.016515793
0.40009069 0.048567686 0.0165096
0.40100491 0.049539372 0.017002085
0.40191904 0.050507873 0.017494584
0.40194982 0.051520802 0.017488411
0.40286383 0.052484524 0.017980944
0.40289456 0.053495858 0.017974781
0.40380844 0.0544548 0.01846737
0.40472218 0.05541056 0.018959951
0.40475285 0.056418709 0.018953808
0.40566644 0.05736969 0.019446414
0.40569702 0.058376249 0.01944028
0.40661049 0.05932245 0.01993292
0.40664104 0.060327418 0.019926796
0.40755433 0.061268844 0.020419464
0.40758485 0.062272217 0.02041335
0.40849805 0.063208856 0.020906074
0.40852851 0.064210638 0.02089997
0.40944153 0.065142505 0.021392692
0.40947193 0.066142693 0.021386595
0.40950233 0.067142881 0.021380501
0.40953273 0.06814307 0.021374406
0.40956312 0.069143258 0.021368312
0.40959352 0.070143446 0.021362217
0.40962392 0.071143627 0.021356123
0.41053656 0.072062761 0.021848926
0.40968472 0.073144004 0.021343932
0.40971512 0.074144192 0.021337837
0.40974554 0.075144373 0.021331742
0.40977594 0.076144561 0.021325648
0.40980634 0.077144749 0.021319553
0.40983674 0.078144938 0.021313459
0.40986714 0.079145126 0.021307362
0.40989754 0.080145307 0.021301268
0.40992793 0.081145503 0.021295173
0.40995833 0.082145683 0.021289079
0.40998873 0.083145872 0.021282984
0.41001913 0.08414606 0.021276889
0.41004953 0.085146248 0.021270795
0.41007996 0.086146429 0.021264698
0.40922883 0.087251566 0.020759564
0.40925929 0.088253349 0.02075346
0.40928975 0.089255132 0.020747356
0.40932018 0.090256907 0.02074125
0.40846926 0.091370009 0.020236036
0.40849978 0.092373386 0.020229923
0.40853027 0.093376756 0.020223808
0.40856075 0.094380125 0.020217692
0.40859127 0.095383503 0.020211579
0.40862176 0.096386872 0.020205464
0.40777123 0.09751112 0.019700209
0.40780178 0.098516084 0.019694084
0.40783232 0.099521048 0.01968796
0.40786287 0.10052601 0.019681836
0.40789342 0.10153098 0.019675711
0.40792397 0.10253594 0.019669589
0.40795451 0.10354091 0.019663464
0.40798506 0.10454588 0.01965734
0.40801561 0.10555084 0.019651216
0.40804616 0.1065558 0.019645093
0.4080767 0.10756077 0.019638969
0.40810725 0.10856573 0.019632844
0.4081378 0.1095707 0.01962672
0.40816835 0.11057566 0.019620595
0.40819889 0.11158063 0.019614473
0.40822944 0.11258559 0.019608349
0.40737975 0.11373691 0.019102927
0.40741032 0.11474347 0.019096794
0.40744093 0.11575002 0.01909066
0.40747154 0.11675659 0.019084526
0.40662205 0.11791588 0.018579062
0.40577272 0.11907834 0.018073572
0.40492338 0.12024401 0.017568037
0.40495414 0.12125534 0.017561873
0.40410501 0.12242577 0.017056335
0.403256 0.12359939 0.016550783
0.40240708 0.1247762 0.016045207
0.40243796 0.12579231 0.016039016
0.40070945 0.12713936 0.015033969
0.39898121 0.12849279 0.014028915
0.25070131 0.40198267 -0.075856224
0.25248206 0.40235409 -0.074861653
0.25426254 0.40271914 -0.073867075
0.25517246 0.40354747 -0.073373683
0.25695261 0.4039014 -0.072379045
0.25786221 0.40472177 -0.07188563
0.26051235 0.40459007 -0.070389591
0.26229191 0.40492487 -0.069394819
0.26407135 0.40525326 -0.068399996
0.26585051 0.40557534 -0.067405142
0.26675943 0.40637183 -0.066911601
0.26940835 0.40620032 -0.0654153
0.27118692 0.40650326 -0.06442035
0.27296537 0.40679979 -0.063425317
0.27474359 0.40709004 -0.062430274
0.27739149 0.40688506 -0.060933787
0.2800391 0.40667054 -0.059437245
0.28268638 0.40644649 -0.057940666
0.28620309 0.40571934 -0.055942599
0.28971943 0.40497938 -0.053944439
0.29236579 0.40472347 -0.052447643
0.29588139 0.40395963 -0.050449338
0.29852706 0.40368304 -0.048952442
0.30117249 0.40339684 -0.04745546
0.30381757 0.40310115 -0.045958444
0.30646244 0.40279582 -0.044461347
0.30910701 0.40248096 -0.04296419
0.31088194 0.40266445 -0.041968498
0.31265679 0.40284157 -0.040972739
0.31443137 0.40301234 -0.039976981
0.31707489 0.40266401 -0.038479619
0.31884903 0.40282047 -0.037483763
0.32062304 0.40297049 -0.036487836
0.32239679 0.40311417 -0.035491914
0.32417035 0.40325147 -0.034495939
0.32681265 0.40286174 -0.032998327
0.32771695 0.40350699 -0.032503847
0.32948998 0.40362513 -0.031507738
0.33126277 0.40373698 -0.03051161
0.33216667 0.40436941 -0.030017063
0.33307055 0.40499863 -0.02952246
0.33397427 0.40562475 -0.029027876
0.33487788 0.40624765 -0.028533259
0.33578143 0.40686736 -0.028038636
0.33668485 0.40748388 -0.027543994
0.33758825 0.40809718 -0.027049292
0.3384915 0.40870738 -0.026554611
0.33852634 0.40985405 -0.026561599
0.39887676 0.045571025 0.014742048
0.40067276 0.046511099 0.015735624
0.40158606 0.047486007 0.016229318
0.4016169 0.048500527 0.016223136
0.40253007 0.049470659 0.016716864
0.40256086 0.050483588 0.016710691
0.40259165 0.051496517 0.016704518
0.40350464 0.052460276 0.01719828
0.40441757 0.053420849 0.017692091
0.40444824 0.054430593 0.017685939
0.405361 0.055386391 0.018179752
0.40539163 0.05639454 0.018173609
0.40630421 0.057345558 0.018667448
0.40633482 0.058352116 0.018661315
0.40724728 0.059298359 0.019155182
0.40727779 0.060303327 0.019149058
0.4081901 0.061244786 0.01964296
0.40822059 0.062248159 0.019636845
0.40825111 0.063251533 0.019630732
0.40916327 0.064186618 0.020124698
0.40919369 0.0651884 0.020118594
0.40922415 0.066190183 0.02011249
0.41013607 0.067118898 0.020606464
0.41016647 0.068119094 0.020600369
0.41019687 0.069119275 0.020594275
0.41022727 0.070119463 0.020588178
0.41025767 0.071119651 0.020582084
0.41028807 0.072119839 0.020575989
0.41031846 0.07312002 0.020569894
0.41034886 0.074120209 0.0205638
0.41037929 0.075120397 0.020557705
0.41040969 0.076120585 0.020551611
0.41044009 0.077120773 0.020545514
0.40958956 0.078211531 0.020039234
0.40961999 0.079213314 0.02003313
0.40965044 0.080215089 0.020027025
0.4096809 0.081216879 0.020020921
0.40971136 0.082218654 0.020014817
0.40974179 0.08322043 0.020008711
0.40977225 0.084222212 0.020002607
0.40980271 0.085223995 0.019996503
0.40983313 0.08622577 0.019990398
0.40986359 0.087227553 0.019984294
0.40901354 0.088335834 0.019477874
0.40904406 0.089339212 0.019471761
0.40907454 0.090342581 0.019465646
0.40910503 0.091345958 0.019459531
0.40913555 0.092349328 0.019453418
0.40916604 0.093352698 0.019447302
0.40831637 0.094472125 0.018940842
0.40834692 0.095477097 0.018934717
0.40837747 0.096482061 0.018928595
0.40840802 0.097487032 0.018922471
0.40843856 0.098491989 0.018916346
0.40846911 0.099496953 0.018910222
0.4076198 0.10062753 0.0184037
0.40765038 0.10163409 0.018397566
0.40768099 0.10264064 0.018391432
0.40771157 0.1036472 0.018385299
0.40774217 0.10465376 0.018379165
0.40777275 0.10566032 0.018373031
0.40780336 0.10666689 0.018366897
0.40783396 0.10767344 0.018360764
0.40786454 0.10867999 0.01835463
0.40789515 0.10968655 0.018348496
0.40792572 0.11069311 0.018342363
0.40795633 0.11169966 0.018336229
0.40798694 0.11270622 0.018330095
0.40801752 0.11371278 0.018323962
0.40804812 0.11471934 0.018317828
0.40719956 0.1158754 0.017811149
0.4072302 0.11688355 0.017805006
0.40726086 0.11789171 0.017798863
0.40641251 0.11905413 0.01729214
0.40556419 0.12021977 0.01678537
0.40471604 0.12138855 0.016278615
0.40386799 0.12256055 0.015771834
0.40389884 0.12357506 0.015765652
0.4030509 0.12475184 0.015258848
0.4030818 0.12576795 0.015252655
0.40135533 0.12711492 0.014245142
0.39962909 0.12846828 0.013237623
0.39614588 0.13016522 0.01122871
0.37073275 0.1372052 -0.0033038184
0.25148818 0.40064701 -0.076857731
0.25239742 0.40148652 -0.076363184
0.25330654 0.40232292 -0.075868644
0.25508499 0.40268803 -0.074871592
0.2559939 0.40351638 -0.074376978
0.25777203 0.4038704 -0.073379859
0.25868064 0.4046908 -0.072885223
0.2604585 0.40503362 -0.071888007
0.26223609 0.40537009 -0.070890792
0.26401347 0.40570018 -0.069893524
0.26579073 0.40602389 -0.068896197
0.26756775 0.40634125 -0.067898862
0.26934463 0.40665224 -0.066901453
0.27112123 0.40695682 -0.065904036
0.27289772 0.40725505 -0.064906552
0.27554283 0.40705979 -0.063406453
0.27818772 0.40685493 -0.061906263
0.27996346 0.40713087 -0.060908679
0.28260779 0.40690851 -0.059408385
0.28612053 0.40618309 -0.057405394
0.28963289 0.40544489 -0.055402309
0.29314485 0.40469396 -0.053399161
0.29665643 0.40393031 -0.051395938
0.29843056 0.40415373 -0.050398018
0.30107301 0.40386921 -0.048897348
0.30458352 0.40307215 -0.046893954
0.30722535 0.40276697 -0.045393158
0.30899858 0.40295848 -0.044395018
0.31163982 0.40263578 -0.04289414
0.31341264 0.40281296 -0.041895915
0.31518519 0.40298381 -0.04089769
0.31695756 0.40314829 -0.039899413
0.31872979 0.40330634 -0.038901083
0.32136983 0.40294224 -0.037399925
0.32314155 0.40308598 -0.036401525
0.32491308 0.40322337 -0.035403095
0.32668447 0.40335435 -0.034404587
0.32845563 0.40347904 -0.033406068
0.33022666 0.40359724 -0.032407496
0.3311297 0.40423453 -0.031911734
0.33290032 0.40434164 -0.030913118
0.33380318 0.40497091 -0.030417282
0.33470589 0.40559706 -0.029921465
0.334741 0.40675175 -0.0299285
0.33564356 0.4073731 -0.029432653
0.33741346 0.40745631 -0.028433882
0.33831584 0.40806967 -0.02793796
0.33921808 0.40867987 -0.027442038
0.33925292 0.40982658 -0.027449027
0.40040413 0.045508608 0.014454327
0.40219805 0.046447165 0.01545038
0.40222889 0.047461685 0.015444198
0.40314111 0.048433445 0.015939143
0.4031719 0.049446374 0.01593297
0.40408397 0.050413359 0.016427945
0.40411469 0.051424693 0.016421782
0.40414545 0.052436031 0.016415618
0.40505737 0.053396638 0.016910665
0.40596914 0.054354068 0.017405704
0.40599978 0.055362221 0.017399561
0.4069114 0.056314871 0.017894622
0.40694201 0.057321426 0.017888488
0.40697259 0.058327984 0.017882355
0.40788403 0.059274264 0.018377455
0.40791458 0.060279232 0.018371331
0.40794513 0.061284196 0.018365206
0.40885636 0.062224105 0.018860353
0.40888685 0.063227475 0.018854238
0.40891737 0.064230852 0.018848123
0.40894786 0.065234222 0.01884201
0.40985891 0.066166162 0.019337229
0.40988934 0.067167945 0.019331126
0.4099198 0.06816972 0.01932502
0.40995026 0.069171503 0.019318916
0.40998071 0.070173278 0.019312812
0.41001114 0.071175061 0.019306706
0.4100416 0.072176836 0.019300602
0.41007206 0.073178619 0.019294498
0.41010249 0.074180402 0.019288393
0.41013294 0.075182177 0.019282289
0.4101634 0.07618396 0.019276183
0.40931383 0.077274688 0.018768638
0.40934432 0.078278057 0.018762523
0.40937483 0.079281434 0.01875641
0.40940532 0.080284804 0.018750295
0.40943581 0.081288181 0.018744182
0.40946633 0.082291551 0.018738067
0.40949681 0.083294921 0.018731952
0.4095273 0.084298298 0.018725839
0.40955782 0.085301667 0.018719723
0.40958831 0.086305037 0.01871361
0.40961879 0.087308407 0.018707495
0.40964931 0.088311784 0.018701382
0.4096798 0.089315154 0.018695267
0.40971029 0.090318531 0.018689152
0.40886152 0.091433138 0.018181488
0.40889207 0.092438109 0.018175364
0.40892261 0.093443073 0.018169239
0.40895316 0.094448037 0.018163117
0.40898371 0.095453002 0.018156992
0.40901423 0.096457966 0.018150868
0.40816578 0.097583733 0.017643141
0.40819639 0.098590285 0.017637007
0.40822697 0.099596843 0.017630873
0.40825757 0.1006034 0.01762474
0.40828815 0.10160996 0.017618606
0.40831876 0.10261651 0.017612472
0.40834936 0.10362307 0.017606338
0.40837994 0.10462963 0.017600205
0.40841055 0.10563619 0.017594071
0.40844113 0.10664275 0.017587937
0.40847173 0.10764931 0.017581804
0.40850231 0.10865586 0.01757567
0.40853292 0.10966242 0.017569536
0.40856352 0.11066898 0.017563403
0.4085941 0.11167553 0.017557269
0.40862471 0.11268209 0.017551135
0.40777707 0.11383493 0.017043242
0.40780771 0.11484309 0.017037099
0.40783834 0.11585123 0.017030956
0.40786901 0.11685938 0.017024813
0.40789965 0.11786754 0.01701867
0.40705231 0.11902992 0.016510714
0.406205 0.12019552 0.016002711
0.40535787 0.12136427 0.015494722
0.40538865 0.1223772 0.01548855
0.40454164 0.12355074 0.014980531
0.40369475 0.12472747 0.014472488
0.40284789 0.12590739 0.013964399
0.40287882 0.1269251 0.013958197
0.40115455 0.12827678 0.012948226
0.39679778 0.13014056 0.010432496
0.39244151 0.13202028 0.0079166619
0.250498 0.39892706 -0.078858621
0.25140637 0.399773 -0.078362912
0.25231466 0.40061575 -0.07786718
0.25409144 0.40099049 -0.076867692
0.25586799 0.4013589 -0.075868204
0.25677595 0.4021889 -0.075372353
0.25768375 0.4030157 -0.074876525
0.25859144 0.40383941 -0.074380681
0.25949907 0.40465984 -0.073884808
0.26127487 0.40500274 -0.072885126
0.26305047 0.40533927 -0.071885444
0.26482585 0.40566945 -0.070885725
0.26573297 0.40647238 -0.07038971
0.26837608 0.40631068 -0.068886124
0.26928291 0.40710405 -0.068390056
0.27105758 0.40741032 -0.067390189
0.27283201 0.40771022 -0.066390269
0.27547422 0.40751663 -0.064886458
0.27811611 0.40731353 -0.063382581
0.27988988 0.4075911 -0.06238253
0.28604001 0.40664676 -0.05887064
0.29041597 0.40541527 -0.056358762
0.29305628 0.4051612 -0.054854602
0.29656386 0.40439925 -0.052846454
0.29920357 0.40412447 -0.051342141
0.30184302 0.40384009 -0.049837779
0.30448207 0.40354618 -0.048333377
0.30712092 0.40324271 -0.046828888
0.30889216 0.40343592 -0.045828331
0.31153047 0.40311491 -0.044323735
0.31330124 0.40329382 -0.043323092
0.31507188 0.40346628 -0.042322371
0.31684229 0.4036324 -0.041321646
0.31947958 0.40327796 -0.039816849
0.32124954 0.40342978 -0.038816039
0.32301936 0.40357518 -0.037815154
0.32478893 0.40371424 -0.036814269
0.32655835 0.40384689 -0.035813302
0.32832754 0.40397322 -0.034812339
0.33009657 0.40409312 -0.033811297
0.33186537 0.40420669 -0.032810256
0.33276731 0.40484083 -0.032313246
0.33453584 0.4049432 -0.031312104
0.33543754 0.4055694 -0.030815054
0.33547264 0.40672407 -0.030822089
0.33637419 0.40734544 -0.030325003
0.33814207 0.40742874 -0.029323777
0.33904344 0.40804213 -0.028826615
0.33994466 0.4086524 -0.028329467
0.3399795 0.40979907 -0.028336454
0.40101805 0.044466503 0.013672936
0.40192953 0.045446262 0.014169098
0.40372133 0.046383306 0.015167589
0.40375215 0.047396235 0.015161416
0.40466329 0.048366442 0.015657606
0.40469402 0.049377777 0.015651442
0.40472478 0.050389111 0.015645279
0.4047555 0.051400449 0.015639117
0.40566647 0.052362688 0.016135385
0.40569717 0.053372432 0.016129233
0.40660793 0.054329898 0.016625499
0.40663856 0.055338047 0.016619354
0.40754917 0.056290738 0.017115656
0.40757978 0.057297293 0.017109523
0.40761039 0.058303852 0.017103389
0.40764096 0.05931041 0.017097255
0.40855134 0.060255136 0.0175936
0.40858188 0.0612601 0.017587475
0.40861243 0.062265065 0.017581351
0.40864298 0.063270025 0.017575227
0.40955311 0.064206794 0.01807162
0.40958363 0.065210164 0.018065505
0.40961412 0.066213541 0.018059392
0.4096446 0.06721691 0.018053276
0.40967512 0.06822028 0.018047161
0.40970561 0.06922365 0.018041048
0.4097361 0.070227027 0.018034933
0.40976661 0.071230397 0.01802882
0.4097971 0.072233774 0.018022705
0.40982759 0.073237143 0.018016592
0.40985811 0.074240513 0.018010477
0.4098886 0.075243883 0.018004362
0.40991908 0.07624726 0.017998248
0.4099496 0.07725063 0.017992133
0.40998009 0.078254007 0.01798602
0.41001058 0.079257376 0.017979905
0.41004109 0.080260746 0.017973792
0.41007158 0.081264123 0.017967677
0.41010207 0.082267493 0.017961562
0.41013259 0.08327087 0.017955448
0.41016307 0.08427424 0.017949333
0.41019356 0.08527761 0.01794322
0.41022408 0.086280979 0.017937105
0.40937608 0.087389186 0.017428251
0.40940663 0.08839415 0.017422128
0.40943718 0.089399122 0.017416004
0.40946773 0.090404086 0.01740988
0.40949827 0.09140905 0.017403755
0.40952882 0.092414014 0.017397631
0.40955937 0.093418978 0.017391508
0.40958992 0.094423942 0.017385384
0.40874237 0.095546477 0.016876442
0.40877298 0.096553035 0.016870309
0.40880355 0.097559601 0.016864175
0.40883416 0.098566152 0.016858041
0.40886477 0.099572711 0.016851908
0.40889534 0.10057927 0.016845774
0.40892595 0.10158583 0.01683964
0.40807879 0.10272111 0.016330617
0.40810943 0.10372926 0.016324472
0.40814009 0.10473741 0.016318329
0.40817073 0.10574555 0.016312186
0.40820137 0.10675371 0.016306043
0.408232 0.10776185 0.0162999
0.40826264 0.10877001 0.016293755
0.40829331 0.10977815 0.016287612
0.40832394 0.1107863 0.016281469
0.40835458 0.11179446 0.016275326
0.40838522 0.1128026 0.016269183
0.40841585 0.11381076 0.016263038
0.40844652 0.11481891 0.016256895
0.40847716 0.11582705 0.016250752
0.40763071 0.11698623 0.015741587
0.40766141 0.11799598 0.015735434
0.40681508 0.11915993 0.015226209
0.40684581 0.12017127 0.015220046
0.40599969 0.12133998 0.014710824
0.40603048 0.12235292 0.014704651
0.40518448 0.12352642 0.014195399
0.40433857 0.12470312 0.013686128
0.40436947 0.12571922 0.013679937
0.40352365 0.1269007 0.013170605
0.40267801 0.12808536 0.012661285
0.39832625 0.12994735 0.010139397
0.39397496 0.13182528 0.0076174182
0.3852419 0.13457777 0.0025795691
0.37563342 0.13753542 -0.002961637
0.25037923 0.39673737 -0.080359489
0.25128675 0.3975881 -0.079862572
0.25219417 0.39843571 -0.079365641
0.2531015 0.39928007 -0.07886868
0.25487638 0.39965808 -0.077866748
0.25578347 0.40049452 -0.077369742
0.25669044 0.40132779 -0.076872721
0.25759739 0.40215781 -0.076375648
0.25937158 0.40251511 -0.075373627
0.26027822 0.40333724 -0.074876525
0.26118478 0.40415615 -0.074379414
0.26295853 0.4044975 -0.073377267
0.26386485 0.40530846 -0.072880104
0.2656382 0.40563872 -0.071877919
0.26654431 0.40644166 -0.071380675
0.26831734 0.40676078 -0.070378415
0.27009022 0.4070735 -0.069376081
0.27186286 0.40737984 -0.068373747
0.2736353 0.40767983 -0.067371376
0.27540761 0.40797341 -0.066368937
0.27804652 0.407772 -0.064861372
0.2806851 0.40756103 -0.063353784
0.28682813 0.40661696 -0.059833251
0.28946579 0.40637574 -0.058325477
0.29383636 0.40513167 -0.055807356
0.29733989 0.40436989 -0.053794283
0.29911011 0.40459502 -0.052791417
0.30174652 0.40431237 -0.051283393
0.30438265 0.40402016 -0.049775273
0.30701855 0.40371841 -0.048267104
0.30965406 0.4034071 -0.046758894
0.31142312 0.40359399 -0.045755807
0.3140581 0.40326518 -0.044247501
0.31582671 0.4034377 -0.043244313
0.31759509 0.40360391 -0.042241126
0.31936333 0.40376374 -0.041237861
0.32113132 0.40391722 -0.040234592
0.3237651 0.40354696 -0.038726009
0.32553264 0.40368611 -0.037722643
0.32730007 0.40381882 -0.036719225
0.32820144 0.40446731 -0.036221076
0.32996848 0.40458894 -0.035217609
0.33173534 0.40470415 -0.034214079
0.33350199 0.40481302 -0.033210542
0.33440283 0.405444 -0.032712284
0.3353036 0.40607178 -0.032213978
0.33620426 0.40669638 -0.031715684
0.33710483 0.40731782 -0.031217365
0.33800527 0.40793604 -0.030719031
0.33890563 0.4085511 -0.030220678
0.34067124 0.40862489 -0.029216895
0.34070611 0.40977159 -0.029223882
0.40166289 0.044442102 0.012885342
0.40345287 0.045383997 0.013886298
0.40524262 0.046319522 0.014887271
0.40527335 0.04733086 0.014881108
0.4053041 0.048342194 0.014874945
0.40533483 0.049353529 0.014868783
0.40624487 0.050318994 0.01536626
0.40627557 0.051328737 0.015360107
0.40630627 0.052338481 0.015353953
0.40721607 0.053297576 0.015851444
0.40724671 0.054305725 0.015845301
0.40815637 0.055260047 0.016342819
0.40818697 0.056266606 0.016336685
0.40821758 0.057273161 0.016330551
0.40824816 0.058279719 0.016324418
0.40827876 0.059286278 0.016318284
0.40830934 0.060292836 0.01631215
0.40921867 0.061236005 0.016809737
0.40924922 0.062240969 0.016803613
0.40927976 0.063245937 0.016797489
0.40931031 0.064250901 0.016791366
0.40934086 0.065255865 0.016785242
0.40937141 0.06626083 0.016779117
0.40940195 0.067265794 0.016772993
0.4094325 0.068270765 0.016766869
0.40946305 0.069275722 0.016760746
0.4094936 0.070280686 0.016754622
0.40952414 0.071285658 0.016748497
0.40955469 0.072290622 0.016742373
0.40958524 0.073295586 0.016736249
0.40961578 0.07430055 0.016730126
0.4096463 0.075305514 0.016724002
0.40967685 0.076310478 0.016717877
0.4097074 0.077315442 0.016711753
0.40973794 0.078320406 0.01670563
0.40976849 0.07932537 0.016699506
0.40979904 0.080330335 0.016693382
0.40982959 0.081335306 0.016687257
0.40986013 0.08234027 0.016681133
0.40989068 0.083345234 0.01667501
0.40992123 0.084350199 0.016668886
0.40995178 0.085355163 0.016662762
0.40998232 0.086360127 0.016656637
0.41001287 0.087365091 0.016650513
0.41004342 0.088370055 0.01664439
0.41007397 0.089375027 0.016638266
0.41010451 0.090379991 0.016632142
0.41013506 0.091384955 0.016626017
0.40928838 0.092502676 0.016115872
0.40931898 0.093509234 0.016109738
0.40934956 0.094515793 0.016103605
0.40938017 0.095522344 0.016097471
0.40941074 0.096528903 0.016091337
0.40944135 0.097535469 0.016085204
0.40859503 0.098664336 0.015574991
0.40862566 0.099672481 0.015568848
0.4086563 0.10068063 0.015562704
0.40868694 0.10168878 0.015556561
0.40871757 0.10269693 0.015550417
0.40874824 0.10370509 0.015544274
0.40877888 0.10471323 0.015538131
0.40880951 0.10572138 0.015531987
0.40884015 0.10672954 0.015525844
0.40887079 0.10773768 0.0155197
0.40890145 0.10874584 0.015513557
0.40893209 0.10975398 0.015507413
0.40896273 0.11076213 0.01550127
0.40899336 0.11177029 0.015495127
0.40902403 0.11277843 0.015488983
0.40905467 0.11378659 0.01548284
0.40820915 0.11494254 0.014972461
0.40823984 0.11595228 0.014966309
0.40827054 0.11696202 0.014960156
0.40742514 0.11812435 0.014449712
0.40745589 0.11913569 0.014443549
0.40748662 0.12014702 0.014437387
0.40664151 0.1213157 0.013926925
0.4066723 0.12232863 0.013920752
0.40582731 0.12350209 0.013410267
0.40585813 0.12451662 0.013404085
0.40501329 0.12569486 0.012893572
0.40416852 0.12687629 0.012383011
0.40332386 0.12806092 0.011872458
0.39985266 0.12975422 0.0098487707
0.39550638 0.13163038 0.0073206355
0.38940972 0.13386582 0.0037836418
0.38068753 0.13664339 -0.0012666901
0.25026229 0.39454123 -0.081862785
0.25116897 0.39539683 -0.081364661
0.25294229 0.39579245 -0.080360405
0.2538487 0.39664003 -0.079862237
0.25388834 0.39794445 -0.079870187
0.25566131 0.39832571 -0.078865811
0.25656742 0.39916375 -0.078367583
0.25747344 0.39999861 -0.077869341
0.25837943 0.4008303 -0.077371038
0.26015168 0.40119091 -0.076366566
0.26019099 0.40248412 -0.076374441
0.26109666 0.40330628 -0.075876124
0.2620022 0.40412524 -0.075377777
0.26377392 0.40446666 -0.074373163
0.26467922 0.40527764 -0.073874772
0.26645058 0.40560797 -0.072870113
0.26735568 0.40641096 -0.072371639
0.26912668 0.40673015 -0.071366914
0.27089754 0.40704295 -0.070362128
0.27266818 0.40734938 -0.069357321
0.27357268 0.40813488 -0.068858773
0.27620888 0.4079431 -0.067347564
0.27884477 0.40774179 -0.06583631
0.28148031 0.40753093 -0.064325027
0.28761628 0.40658712 -0.06079587
0.29025093 0.40634602 -0.059284396
0.29375085 0.40559873 -0.057266481
0.29725042 0.40483874 -0.055248477
0.29988414 0.40456572 -0.053736784
0.3025175 0.4042832 -0.052225057
0.30515063 0.4039911 -0.050713237
0.30691808 0.40419403 -0.049707808
0.3095507 0.40388444 -0.048195891
0.31218299 0.40356523 -0.046683904
0.31394979 0.40374583 -0.045678336
0.31571645 0.40392008 -0.044672705
0.31748286 0.40408793 -0.043667059
0.31924906 0.40424946 -0.042661376
0.3218801 0.40388888 -0.041149143
0.32364595 0.40403602 -0.040143337
0.32541153 0.40417683 -0.039137527
0.32717693 0.40431124 -0.03813168
0.32894215 0.4044393 -0.037125759
0.33070716 0.40456098 -0.036119834
0.33160734 0.40520152 -0.035620369
0.333372 0.40531206 -0.034614373
0.33513647 0.40541622 -0.03360834
0.33603626 0.40604407 -0.033108808
0.33693591 0.40666869 -0.032609273
0.33783543 0.40729016 -0.032109726
0.33873489 0.40790841 -0.031610157
0.33963424 0.40852353 -0.031110574
0.34139782 0.40859741 -0.030104328
0.34143269 0.40974408 -0.030111317
0.40409571 0.045359675 0.013101177
0.40588343 0.046295278 0.014104611
0.40591416 0.047306612 0.014098449
0.40682331 0.048275299 0.014597139
0.406854 0.049285043 0.014590987
0.40688467 0.050294787 0.014584834
0.40779358 0.051257107 0.015083537
0.40782422 0.052265257 0.015077394
0.40785486 0.053273406 0.01507125
0.40788549 0.054281555 0.015065107
0.40879416 0.055235915 0.01556386
0.40882474 0.056242473 0.015557726
0.40885535 0.057249028 0.015551592
0.40888593 0.058255587 0.015545459
0.40891653 0.059262145 0.015539325
0.40894714 0.060268704 0.015533191
0.40897772 0.061275262 0.015527057
0.40900832 0.062281817 0.015520924
0.40991652 0.063221842 0.016019763
0.40994707 0.064226806 0.016013639
0.40997761 0.06523177 0.016007515
0.41000816 0.066236734 0.01600139
0.41003871 0.067241699 0.015995268
0.41006926 0.06824667 0.015989143
0.4100998 0.069251627 0.015983019
0.41013035 0.070256598 0.015976895
0.4101609 0.071261562 0.01597077
0.41019145 0.072266527 0.015964648
0.41022199 0.073271491 0.015958523
0.41025254 0.074276455 0.015952399
0.41028309 0.075281419 0.015946275
0.41031364 0.076286383 0.01594015
0.41034418 0.077291355 0.015934028
0.41037473 0.078296311 0.015927903
0.41040528 0.079301275 0.015921779
0.41043583 0.080306247 0.015915655
0.41046637 0.081311211 0.015909532
0.41049692 0.082316175 0.015903408
0.41052747 0.083321139 0.015897283
0.41055802 0.084326103 0.015891159
0.41058853 0.085331067 0.015885035
0.41061908 0.086336032 0.015878912
0.41064963 0.087341003 0.015872788
0.40980378 0.088452309 0.015361448
0.40983438 0.089458875 0.015355314
0.40986496 0.090465426 0.01534918
0.40989557 0.091471992 0.015343047
0.40992615 0.092478544 0.015336913
0.40995675 0.093485102 0.015330779
0.40998736 0.094491661 0.015324646
0.40914187 0.095615715 0.014813228
0.40917251 0.09662386 0.014807085
0.40920314 0.097632013 0.014800942
0.40923381 0.098640166 0.014794798
0.40926445 0.099648312 0.014788655
0.40929508 0.10065646 0.014782511
0.40932572 0.10166461 0.014776368
0.40935639 0.10267276 0.014770225
0.40938702 0.10368092 0.014764081
0.40941766 0.10468906 0.014757938
0.4094483 0.10569721 0.014751794
0.4086034 0.10684039 0.01424026
0.4086341 0.10785013 0.014234107
0.40866479 0.10885987 0.014227954
0.40869549 0.10986961 0.0142218
0.40872619 0.11087935 0.014215648
0.40875685 0.11188909 0.014209495
0.40878755 0.11289883 0.014203342
0.40881824 0.11390858 0.014197188
0.40884894 0.11491833 0.014191035
0.40800446 0.11607742 0.013679379
0.40803522 0.11708876 0.013673215
0.40806594 0.11810011 0.013667053
0.4080967 0.11911143 0.01366089
0.40812743 0.12012278 0.013654727
0.40728331 0.12129141 0.013143037
0.40731409 0.12230435 0.013136866
0.40734488 0.12331728 0.013130693
0.40650097 0.1244923 0.012618965
0.40565714 0.12567049 0.012107218
0.40568802 0.12668662 0.012101025
0.40396971 0.12803648 0.011083638
0.40137714 0.12956116 0.0095606437
0.39616132 0.1316056 0.0065207207
0.39094615 0.13366912 0.0034807136
0.37876883 0.13820317 -0.0036109488
0.25105298 0.39319903 -0.082869172
0.25195867 0.39405629 -0.082369827
0.25373009 0.39445516 -0.081363119
0.25463554 0.39530441 -0.080863729
0.25554097 0.39615044 -0.080364287
0.25644621 0.39699331 -0.07986486
0.25735137 0.39783299 -0.07936541
0.25825644 0.39866951 -0.078865938
0.26002699 0.39903811 -0.077859022
0.26093182 0.39986667 -0.077359505
0.26097113 0.40115988 -0.07736738
0.26187581 0.40198365 -0.076867834
0.26278037 0.40280426 -0.076368265
0.26368493 0.40362161 -0.075868651
0.26458931 0.40443581 -0.075369045
0.26635879 0.40477097 -0.074361958
0.26726294 0.40557724 -0.073862299
0.26903212 0.40590122 -0.072855115
0.26993603 0.40669954 -0.072355412
0.27170485 0.4070124 -0.071348146
0.27347347 0.40731889 -0.070340887
0.27437699 0.40810445 -0.069841109
0.27701014 0.40791276 -0.068326198
0.27877814 0.4082002 -0.067318812
0.2822755 0.40750083 -0.065296255
0.28753972 0.4070507 -0.062266078
0.29103604 0.40631634 -0.060243305
0.29453194 0.40556917 -0.058220457
0.29716295 0.40530747 -0.056705132
0.29979369 0.40503618 -0.055189747
0.30242407 0.40475538 -0.053674333
0.30418986 0.40496787 -0.052666456
0.30768403 0.40416506 -0.050643306
0.30944934 0.40436164 -0.049635328
0.31207868 0.40404418 -0.048119664
0.31470767 0.40371716 -0.04660397
0.31647229 0.40389147 -0.045595869
0.31823668 0.40405941 -0.044587757
0.32000089 0.404221 -0.043579608
0.32176492 0.40437621 -0.042571392
0.32439271 0.40400776 -0.041055415
0.32615629 0.40414864 -0.040047139
0.32791963 0.40428314 -0.039038822
0.32968289 0.40441129 -0.038030438
0.33058214 0.40505666 -0.0375298
0.33234501 0.4051736 -0.036521353
0.33410767 0.40528423 -0.035512891
0.33500654 0.40591687 -0.035012178
0.3367689 0.40601635 -0.034003623
0.33766752 0.40664101 -0.033502862
0.33856606 0.40726253 -0.033002082
0.33946449 0.40788081 -0.03250128
0.34036282 0.40849596 -0.032000463
0.34126112 0.40910783 -0.031499598
0.34215927 0.40971661 -0.030998738
0.40561602 0.045297522 0.012822078
0.40740171 0.046231605 0.013828014
0.40743241 0.047241349 0.013821861
0.4074631 0.048251092 0.013815708
0.40837109 0.049216636 0.014315626
0.40840173 0.050224785 0.014309482
0.40843236 0.051232938 0.014303339
0.408463 0.052241087 0.014297195
0.40849364 0.053249236 0.014291052
0.40940133 0.054205224 0.014791028
0.40943193 0.055211782 0.014784894
0.40946254 0.056218341 0.01477876
0.40949312 0.057224896 0.014772627
0.40952373 0.058231454 0.014766493
0.4095543 0.059238013 0.014760359
0.40958491 0.060244571 0.014754225
0.40961552 0.06125113 0.014748092
0.40964609 0.062257685 0.014741958
0.4096767 0.063264243 0.014735824
0.40970728 0.064270802 0.014729691
0.40973788 0.06527736 0.014723557
0.40976846 0.066283919 0.014717423
0.40979907 0.06729047 0.01471129
0.40982968 0.068297029 0.014705156
0.40986025 0.069303587 0.014699022
0.40989086 0.070310146 0.014692889
0.40992144 0.071316704 0.014686755
0.40995204 0.072323263 0.014680621
0.40998265 0.073329821 0.014674488
0.41001323 0.074336372 0.014668354
0.41004384 0.075342931 0.01466222
0.41007441 0.076349489 0.014656086
0.41010502 0.077356048 0.014649953
0.41013563 0.078362606 0.014643819
0.4101662 0.079369165 0.014637685
0.41019681 0.080375716 0.014631552
0.41022739 0.081382282 0.014625418
0.410258 0.082388841 0.014619284
0.41028857 0.083395392 0.014613151
0.41031918 0.08440195 0.014607017
0.41034979 0.085408509 0.014600883
0.41038036 0.086415067 0.01459475
0.41041097 0.087421626 0.014588616
0.41044155 0.088428177 0.014582482
0.41047215 0.089434743 0.014576348
0.41050276 0.090441294 0.014570215
0.4096581 0.091558948 0.014057603
0.40968874 0.092567094 0.01405146
0.40971938 0.093575247 0.014045316
0.40975001 0.094583392 0.014039173
0.40978065 0.095591545 0.014033029
0.40981132 0.096599691 0.014026886
0.40984195 0.097607844 0.014020743
0.40899768 0.098738238 0.013508053
0.40902838 0.099747971 0.0135019
0.40905905 0.10075772 0.013495747
0.40908974 0.10176746 0.013489594
0.40912044 0.10277721 0.013483441
0.40915114 0.10378695 0.013477287
0.40918183 0.10479669 0.013471134
0.40921253 0.10580643 0.013464982
0.4092432 0.10681618 0.013458828
0.40839937 0.1079625 0.012946015
0.4084301 0.10897383 0.012939853
0.40846086 0.10998517 0.01293369
0.40849158 0.11099651 0.012927527
0.40852234 0.11200783 0.012921364
0.40855306 0.11301917 0.012915201
0.40858382 0.11403051 0.012909039
0.40861455 0.11504185 0.012902875
0.40864527 0.11605318 0.012896713
0.40867603 0.11706451 0.01289055
0.40870675 0.11807586 0.012884387
0.40873751 0.11908719 0.012878224
0.40789434 0.12025421 0.012365311
0.40792513 0.12126713 0.01235914
0.40795591 0.12228006 0.012352967
0.40711296 0.12345345 0.011840015
0.4071438 0.12446797 0.011833833
0.40630096 0.12564613 0.011320858
0.40633187 0.12666225 0.011314666
0.40548912 0.12784521 0.010801625
0.40202603 0.12953661 0.008768118
0.39768976 0.13141078 0.0062276702
0.39248055 0.13347249 0.0031802463
0.38727197 0.13555332 0.00013273224
0.25361329 0.3922638 -0.082866445
0.25451788 0.39311787 -0.082365848
0.25542238 0.39396876 -0.081865229
0.25632682 0.39481643 -0.081364565
0.25723115 0.39566091 -0.080863915
0.259 0.39604238 -0.079854645
0.25990412 0.39687887 -0.079353906
0.26080805 0.39771223 -0.078853182
0.26171193 0.3985424 -0.078352451
0.26175123 0.39983568 -0.078360334
0.26265496 0.40066105 -0.077859558
0.2635586 0.40148324 -0.077358767
0.26446217 0.40230227 -0.076857932
0.2653656 0.40311807 -0.076357104
0.26626894 0.40393075 -0.075856254
0.26803634 0.40426439 -0.074846685
0.26893947 0.40506908 -0.07434576
0.27070653 0.4053916 -0.073336124
0.27160937 0.40618834 -0.072835177
0.2725122 0.40698186 -0.072334185
0.27427876 0.40728843 -0.071324453
0.27518126 0.40807402 -0.070823438
0.27781141 0.40788245 -0.069304839
0.2795774 0.40816996 -0.068294987
0.28220698 0.40796089 -0.066776283
0.28483629 0.40774229 -0.065257519
0.28746524 0.40751418 -0.063738741
0.29095757 0.40678152 -0.061711043
0.29444948 0.40603614 -0.059683271
0.29707754 0.40577611 -0.058164254
0.29970521 0.40550658 -0.056645207
0.30233267 0.40522745 -0.055126078
0.30495986 0.40493876 -0.053606886
0.3075867 0.40464053 -0.05208768
0.31021327 0.40433273 -0.050568372
0.31283957 0.40401539 -0.049049001
0.31460238 0.40419775 -0.048038516
0.31722814 0.40386286 -0.046519045
0.31899053 0.40403089 -0.045508467
0.32075271 0.40419257 -0.044497855
0.32251471 0.40434784 -0.043487169
0.32513946 0.40397951 -0.041967493
0.32690102 0.40412048 -0.040956754
0.32866237 0.40425503 -0.039945971
0.32956082 0.40490523 -0.039444108
0.33132184 0.40502864 -0.038433257
0.33308271 0.4051457 -0.03742234
0.33484334 0.40525636 -0.03641142
0.33574119 0.40588906 -0.035909474
0.33750153 0.40598863 -0.034898445
0.33839917 0.40661332 -0.034396455
0.33843425 0.40776801 -0.034403492
0.34019411 0.40785322 -0.033392411
0.34109142 0.40846837 -0.032890357
0.34198871 0.4090803 -0.032388259
0.34288585 0.4096891 -0.031886168
0.40713429 0.045235448 0.01254545
0.40891793 0.046168014 0.013553862
0.40894857 0.047176164 0.013547719
0.40897924 0.048184317 0.013541576
0.40900987 0.049192466 0.013535433
0.40904051 0.050200615 0.013529289
0.40907115 0.051208764 0.013523146
0.40910178 0.052216914 0.013517003
0.40913245 0.053225067 0.013510859
0.41003913 0.054181091 0.014012068
0.4100697 0.05518765 0.014005934
0.41010031 0.056194209 0.0139998
0.41013089 0.057200763 0.013993667
0.4101615 0.058207322 0.013987533
0.4101921 0.05921388 0.013981399
0.41022268 0.060220439 0.013975265
0.41025329 0.061226998 0.013969132
0.41028386 0.062233552 0.013962998
0.41031447 0.063240111 0.013956864
0.41034508 0.064246669 0.013950731
0.41037565 0.065253228 0.013944597
0.41040626 0.066259786 0.013938463
0.41043684 0.067266338 0.01393233
0.41046745 0.068272896 0.013926196
0.41049802 0.069279455 0.013920062
0.41052863 0.070286013 0.013913929
0.41055924 0.071292572 0.013907795
0.41058981 0.07229913 0.013901661
0.41062042 0.073305689 0.013895527
0.410651 0.07431224 0.013889394
0.41068161 0.075318798 0.01388326
0.41071221 0.076325357 0.013877126
0.41074279 0.077331915 0.013870993
0.4107734 0.078338474 0.013864859
0.41080397 0.079345033 0.013858725
0.41083458 0.080351591 0.013852592
0.41086519 0.08135815 0.013846458
0.41089576 0.082364708 0.013840324
0.41092637 0.083371259 0.013834191
0.41095695 0.084377818 0.013828057
0.41098756 0.085384376 0.013821923
0.41014367 0.086494021 0.013308126
0.41017431 0.087502174 0.013301983
0.41020495 0.08851032 0.01329584
0.41023558 0.089518473 0.013289697
0.41026622 0.090526626 0.013283554
0.41029689 0.091534778 0.01327741
0.41032752 0.092542924 0.013271267
0.41035816 0.093551077 0.013265124
0.4095147 0.094675049 0.012751245
0.40954539 0.095684797 0.012745092
0.40957609 0.096694537 0.012738938
0.40960678 0.097704284 0.012732785
0.40963748 0.098714024 0.012726633
0.40966815 0.099723764 0.01272048
0.40969884 0.10073351 0.012714326
0.40885574 0.10187024 0.012200332
0.40888646 0.10288157 0.01219417
0.40891722 0.10389291 0.012188007
0.40894794 0.10490423 0.012181845
0.4089787 0.10591558 0.012175681
0.40900943 0.10692692 0.012169519
0.40904018 0.10793825 0.012163356
0.40907091 0.10894959 0.012157192
0.40910167 0.10996092 0.01215103
0.40913239 0.11097226 0.012144867
0.40916312 0.11198359 0.012138705
0.40919387 0.11299492 0.012132541
0.4092246 0.11400627 0.012126379
0.40838221 0.11516528 0.011612287
0.40841299 0.11617821 0.011606115
0.40844378 0.11719114 0.011599942
0.40847459 0.11820407 0.011593769
0.40850538 0.11921699 0.011587597
0.40853617 0.12022992 0.011581425
0.40856695 0.12124284 0.011575252
0.40772495 0.12241461 0.011061077
0.40775579 0.12342912 0.011054895
0.40778661 0.12444365 0.011048713
0.40694481 0.12562178 0.010534498
0.40697569 0.12663789 0.010528306
0.40613398 0.1278208 0.010014037
0.40354741 0.12934367 0.0084836585
0.39921615 0.13121606 0.0059370538
0.39401293 0.13327596 0.0028822455
0.38968271 0.13518178 0.00033543722
0.25707313 0.39217958 -0.082356907
0.2579765 0.39302734 -0.081855036
0.25887981 0.39387187 -0.08135315
0.259783 0.39471322 -0.080851242
0.26068613 0.39555138 -0.080349289
0.26072556 0.39684778 -0.080357186
0.26249203 0.39721817 -0.079345375
0.26339486 0.39804679 -0.0788434
0.26343411 0.39933845 -0.078851275
0.26433676 0.40016225 -0.078349262
0.26523939 0.40098289 -0.077847198
0.26614186 0.40180039 -0.077345148
0.26704425 0.40261465 -0.076843075
0.26794651 0.40342575 -0.076340981
0.26884869 0.40423366 -0.075838871
0.27061394 0.40456101 -0.07482677
0.27151585 0.40536097 -0.074324608
0.27241769 0.40615773 -0.073822439
0.27418247 0.40646917 -0.07281024
0.27508405 0.40725797 -0.072308011
0.27684844 0.40755826 -0.071295775
0.27861264 0.40785214 -0.070283465
0.28037664 0.40813971 -0.069271162
0.28300321 0.40793076 -0.067748755
0.28562948 0.40771228 -0.066226296
0.28825542 0.40748426 -0.064703815
0.2908811 0.40724665 -0.063181236
0.29436904 0.40650302 -0.061148539
0.29785657 0.40574664 -0.059115764
0.30048126 0.40547723 -0.057593029
0.30310568 0.40519819 -0.056070197
0.30486745 0.4054125 -0.055057444
0.30749136 0.40511596 -0.053534508
0.31011495 0.40480986 -0.052011512
0.31273824 0.40449423 -0.050488491
0.31536126 0.40416902 -0.048965376
0.31712186 0.40434512 -0.047952387
0.31888229 0.40451479 -0.046939325
0.3206425 0.40467811 -0.045926254
0.32326451 0.40431947 -0.044402938
0.32502428 0.40446845 -0.043389782
0.32764578 0.40409228 -0.041866358
0.3294051 0.40422693 -0.040853117
0.33030254 0.40487716 -0.040350016
0.33206153 0.40500066 -0.039336707
0.3338204 0.40511778 -0.038323324
0.33471739 0.40575528 -0.037820175
0.33647585 0.40586126 -0.036806755
0.33823419 0.40596092 -0.035793267
0.33913079 0.40658563 -0.03529004
0.3391659 0.40774032 -0.035297077
0.34092373 0.40782559 -0.03428353
0.34182003 0.4084408 -0.033780247
0.34271631 0.40905276 -0.033276912
0.3427512 0.41020107 -0.033283912
0.4077751 0.0452112 0.011762784
0.40955672 0.046143845 0.012773664
0.40958738 0.047151994 0.012767521
0.40961802 0.048160143 0.012761377
0.40964866 0.049168296 0.012755234
0.40967929 0.050176445 0.01274909
0.40970993 0.051184595 0.012742947
0.4097406 0.052192744 0.012736804
0.40977123 0.053200897 0.01273066
0.40980187 0.054209046 0.012724517
0.40983251 0.055217195 0.012718373
0.40986317 0.056225348 0.01271223
0.40989381 0.057233498 0.012706086
0.40992445 0.058241647 0.012699943
0.40995508 0.059249796 0.0126938
0.40998572 0.060257949 0.012687656
0.41001639 0.061266098 0.012681513
0.41004702 0.062274247 0.012675369
0.41007766 0.0632824 0.012669226
0.4101083 0.064290546 0.012663083
0.41013893 0.065298699 0.012656939
0.4101696 0.066306852 0.012650796
0.41020024 0.067314997 0.012644652
0.41023088 0.06832315 0.012638509
0.41026151 0.069331303 0.012632365
0.41029218 0.070339449 0.012626222
0.41032282 0.071347602 0.012620079
0.41035345 0.072355747 0.012613935
0.41038409 0.0733639 0.012607792
0.41041473 0.074372046 0.012601648
0.41044539 0.075380199 0.012595505
0.41047603 0.076388352 0.012589362
0.41050667 0.077396497 0.012583219
0.4105373 0.07840465 0.012577076
0.41056794 0.079412796 0.012570932
0.41059861 0.080420949 0.012564789
0.41062924 0.081429102 0.012558646
0.41065988 0.082437254 0.012552502
0.41069052 0.0834454 0.012546359
0.41072115 0.084453553 0.012540215
0.41075182 0.085461698 0.012534072
0.41078246 0.086469851 0.012527928
0.41081309 0.087477997 0.012521785
0.41084373 0.08848615 0.012515642
0.41000104 0.089602135 0.012000578
0.41003174 0.090611875 0.011994425
0.41006243 0.091621615 0.011988272
0.41009313 0.092631362 0.011982119
0.40925062 0.093755305 0.01146697
0.40928137 0.094766639 0.011460807
0.4093121 0.095777974 0.011454644
0.40934286 0.096789308 0.011448481
0.40937358 0.09780065 0.011442319
0.40940434 0.098811984 0.011436156
0.40943506 0.099823318 0.011429993
0.40946579 0.10083465 0.01142383
0.40949655 0.10184599 0.011417667
0.40952727 0.10285733 0.011411504
0.40955803 0.10386866 0.011405341
0.40958875 0.10487999 0.011399179
0.40961951 0.10589133 0.011393016
0.40965024 0.10690267 0.011386853
0.40880853 0.1080505 0.010871596
0.40883932 0.10906342 0.010865424
0.4088701 0.11007635 0.010859251
0.40890089 0.11108928 0.010853078
0.40893167 0.1121022 0.010846906
0.40896246 0.11311514 0.010840734
0.40899324 0.11412807 0.010834561
0.40902403 0.115141 0.010828389
0.40905482 0.11615392 0.010822216
0.4090856 0.11716685 0.010816043
0.40911642 0.11817979 0.01080987
0.40827528 0.11934672 0.010294491
0.40830609 0.12036125 0.010288309
0.40833694 0.12137576 0.010282127
0.40836778 0.12239029 0.010275945
0.4083986 0.1234048 0.010269763
0.40755776 0.12458131 0.0097543309
0.40758863 0.12559742 0.0097481385
0.40674788 0.12677871 0.0092326459
0.40677881 0.12779641 0.0092264442
0.40419528 0.12931916 0.0076923654
0.40074053 0.13102141 0.0056488984
0.39641476 0.13290794 0.0030960457
0.39121813 0.13498352 3.3778349e-05
0.26052654 0.39208609 -0.081839956
0.26142877 0.39292747 -0.081336774
0.26146817 0.39422387 -0.081344672
0.26237023 0.39506051 -0.080841519
0.26327217 0.39589393 -0.080338329
0.26417401 0.39672416 -0.079835117
0.26421326 0.39801583 -0.079842985
0.26511496 0.39884129 -0.07933975
0.26601663 0.39966354 -0.078836463
0.26691815 0.40048262 -0.078333199
0.26781955 0.40129858 -0.077829905
0.26872087 0.40211132 -0.077326588
0.26962209 0.40292084 -0.076823249
0.27052325 0.40372717 -0.076319873
0.27228639 0.40405303 -0.075305335
0.27318725 0.40485144 -0.074801929
0.27408808 0.40564662 -0.074298479
0.27585074 0.40595657 -0.073283829
0.27675128 0.40674379 -0.072780371
0.27851364 0.40704256 -0.071765631
0.28027573 0.40733495 -0.070750877
0.28289947 0.40713254 -0.06922482
0.28466114 0.40741059 -0.068209976
0.28728434 0.40719062 -0.066683821
0.28904557 0.40745437 -0.065668888
0.29166824 0.40721688 -0.064142607
0.29515213 0.4064734 -0.062104993
0.29777414 0.40621522 -0.060578626
0.30039588 0.40594748 -0.059052166
0.30301732 0.40567017 -0.057525646
0.30477712 0.40588611 -0.05651043
0.30825931 0.4050869 -0.054472473
0.31087989 0.40478092 -0.052945778
0.31350014 0.40446541 -0.051419061
0.31612015 0.40414032 -0.049892254
0.31787872 0.40431648 -0.048876796
0.31963715 0.40448621 -0.047861267
0.32139534 0.40464962 -0.04684573
0.32401434 0.40429109 -0.045318723
0.32577208 0.40444016 -0.044303101
0.32752967 0.40458283 -0.043287404
0.32928705 0.40471914 -0.042271703
0.33104426 0.40484911 -0.041255932
0.33280125 0.40497267 -0.040240157
0.3345581 0.40508988 -0.039224312
0.33545408 0.40572742 -0.03871993
0.33721051 0.40583345 -0.037704043
0.33896682 0.40593317 -0.036688089
0.33986244 0.40655798 -0.036183633
0.33989751 0.40771264 -0.03619067
0.34079298 0.40833265 -0.03568618
0.34254864 0.40841323 -0.034670141
0.3434439 0.40902525 -0.034165576
0.3434788 0.41017354 -0.034172572
0.38555184 0.041956536 -0.0022472914
0.40048337 0.043475039 0.0064050155
0.40751067 0.044211738 0.010476571
0.40841591 0.045186952 0.01098013
0.41019553 0.046119675 0.011993471
0.41022617 0.047127824 0.011987328
0.4102568 0.048135974 0.011981184
0.41028744 0.049144123 0.011975041
0.41031808 0.050152276 0.011968898
0.41034874 0.051160425 0.011962754
0.41037938 0.052168574 0.011956611
0.41041002 0.053176723 0.011950467
0.41044065 0.054184873 0.011944324
0.41047129 0.055193026 0.011938181
0.41050196 0.056201175 0.011932037
