# .PCD v0.7 - Point Cloud Data file format
VERSION 0.7
FIELDS x y z
SIZE 4 4 4
TYPE F F F
COUNT 1 1 1
WIDTH 1343
HEIGHT 1
VIEWPOINT 0 0 0 1 0 0 0
POINTS 1343
DATA ascii
0.40278396 0.065723062 0.015332918
0.4019343 0.066809006 0.014825427
0.40357944 -0.016299823 0.016553797
0.40361014 -0.015290081 0.016547643
0.40364084 -0.014280338 0.01654149
0.40367153 -0.013270591 0.016535336
0.40458548 -0.012208013 0.017030962
0.40461612 -0.011199864 0.017024819
0.40464675 -0.010191714 0.017018676
0.40556052 -0.0091355024 0.017514346
0.4064742 -0.0080824792 0.01801003
0.40650475 -0.0070775133 0.018003905
0.40741828 -0.0060292706 0.018499618
0.40744877 -0.0050258911 0.018493505
0.40836221 -0.0039824233 0.018989278
0.40839264 -0.0029806448 0.018983174
0.4084231 -0.0019788628 0.018977068
0.4093363 -0.00094176811 0.01947285
0.4093667 5.8420283e-05 0.019466756
0.4093971 0.0010586086 0.019460659
0.40942749 0.0020587933 0.019454565
0.40945789 0.0030589816 0.01944847
0.40948829 0.0040591662 0.019442376
0.40951869 0.0050593563 0.019436281
0.40954909 0.0060595414 0.019430187
0.40957949 0.0070597278 0.019424092
0.40960988 0.0080599142 0.019417996
0.40964028 0.0090601025 0.019411901
0.40967071 0.010060289 0.019405806
0.40970111 0.011060475 0.019399712
0.40884939 0.01204605 0.018891605
0.40887985 0.013047828 0.018885501
0.4089103 0.014049609 0.018879397
0.40894073 0.015051387 0.018873291
0.40897119 0.01605317 0.018867187
0.40900165 0.017054947 0.018861083
0.40903208 0.018056726 0.018854978
0.40906253 0.019058505 0.018848874
0.40997469 0.020062158 0.019344859
0.41000509 0.021062346 0.019338762
0.41003552 0.022062533 0.019332668
0.41006592 0.023062721 0.019326573
0.41009632 0.024062907 0.019320479
0.41012672 0.025063094 0.019314384
0.41015711 0.02606328 0.01930829
0.41018751 0.027063467 0.019302193
0.41021791 0.028063653 0.019296099
0.41024831 0.029063841 0.019290004
0.41027871 0.030064028 0.019283909
0.41030911 0.031064214 0.019277815
0.4103395 0.032064401 0.01927172
0.41036993 0.033064589 0.019265626
0.41040033 0.034064777 0.019259529
0.41043073 0.035064962 0.019253435
0.41046113 0.03606515 0.01924734
0.41049153 0.037065335 0.019241245
0.41052192 0.038065523 0.019235151
0.41055232 0.039065711 0.019229056
0.41058272 0.040065896 0.01922296
0.41061312 0.041066084 0.019216865
0.41064352 0.042066269 0.019210771
0.41067392 0.043066457 0.019204676
0.41070434 0.044066645 0.019198582
0.41073474 0.045066833 0.019192487
0.41076514 0.046067018 0.019186391
0.41079554 0.047067206 0.019180296
0.41082594 0.048067391 0.019174201
0.41085634 0.049067579 0.019168107
0.41088673 0.050067768 0.019162012
0.41091713 0.051067952 0.019155918
0.41094753 0.05206814 0.019149823
0.41009781 0.053119011 0.018641317
0.41012827 0.05412079 0.018635213
0.40927863 0.055176441 0.018126648
0.40930915 0.056179814 0.018120533
0.40845969 0.05724024 0.017611971
0.40849024 0.058245204 0.017605847
0.40764096 0.05931041 0.017097255
0.40679178 0.060378801 0.016588638
0.40594268 0.061450373 0.016080007
0.40509364 0.062525138 0.015571326
0.4051244 0.063536473 0.015565163
0.40515512 0.064547814 0.015559
0.40430632 0.065628938 0.015050312
0.40345761 0.066713259 0.014541604
0.40421924 -0.016324032 0.015772365
0.40424994 -0.015314289 0.015766211
0.40516299 -0.014248486 0.016263051
0.40519363 -0.013240333 0.016256908
0.40522426 -0.012232183 0.016250763
0.40525493 -0.011224034 0.01624462
0.40616772 -0.010166194 0.016741509
0.40619832 -0.0091596358 0.016735375
0.40711099 -0.0081065735 0.017232291
0.40714154 -0.007101608 0.017226167
0.40805402 -0.0060533267 0.017723113
0.40808454 -0.0050499472 0.017717
0.40811503 -0.0040465789 0.017710885
0.40814552 -0.0030432071 0.017704772
0.40905786 -0.0020028807 0.018201798
0.40908831 -0.0010011025 0.018195694
0.40911874 6.7586285e-07 0.018189589
0.4091492 0.0010024579 0.018183485
0.40917966 0.0020042362 0.018177379
0.40921012 0.0030060145 0.018171275
0.40924054 0.004007793 0.018165171
0.409271 0.0050095748 0.018159065
0.40930146 0.0060113533 0.018152962
0.40933189 0.0070131333 0.018146858
0.40936235 0.0080149118 0.018140752
0.4093928 0.0090166936 0.018134648
0.40942326 0.010018472 0.018128544
0.40945369 0.011020251 0.018122438
0.40860301 0.01200738 0.017613057
0.4086335 0.01301075 0.017606942
0.40866399 0.014014122 0.017600829
0.40869451 0.015017494 0.017594714
0.40872499 0.016020868 0.017588601
0.40875548 0.01702424 0.017582485
0.408786 0.018027611 0.017576372
0.40881649 0.019030984 0.017570257
0.40884697 0.020034356 0.017564142
0.40887749 0.021037728 0.017558029
0.40978864 0.022039827 0.018055288
0.4098191 0.023041606 0.018049184
0.40984955 0.024043387 0.018043078
0.40987998 0.025045166 0.018036975
0.40991044 0.026046945 0.018030871
0.4099409 0.027048724 0.018024765
0.40997133 0.028050505 0.018018661
0.41000178 0.029052284 0.018012557
0.41003224 0.030054063 0.018006451
0.4100627 0.031055842 0.018000348
0.41009313 0.032057621 0.017994242
0.41012359 0.033059403 0.017988138
0.41015404 0.034061182 0.017982034
0.41018447 0.035062961 0.017975928
0.41021493 0.03606474 0.017969824
0.41024539 0.037066519 0.01796372
0.41027585 0.038068298 0.017957615
0.41030627 0.039070081 0.017951511
0.41033673 0.04007186 0.017945407
0.41036719 0.041073639 0.017939301
0.41039762 0.042075418 0.017933197
0.41042808 0.043077197 0.017927092
0.41045853 0.044078976 0.017920988
0.41136849 0.045042854 0.018418448
0.41139889 0.046043038 0.018412353
0.41142929 0.047043227 0.018406259
0.41145968 0.048043411 0.018400164
0.41149008 0.0490436 0.01839407
0.41152048 0.050043788 0.018387973
0.41067168 0.051091433 0.017878257
0.41070214 0.052093212 0.017872151
0.41073257 0.053094994 0.017866047
0.40988392 0.054149013 0.017356258
0.4099144 0.055152386 0.017350143
0.40994489 0.05615576 0.01734403
0.40909648 0.057216145 0.016834233
0.40912703 0.058221113 0.016828109
0.40827876 0.059286278 0.016318284
0.40743059 0.060354628 0.015808439
0.40746123 0.061362777 0.015802296
0.40749186 0.06237093 0.015796153
0.40664387 0.06344565 0.01528627
0.40579593 0.064523563 0.014776341
0.40494815 0.065604657 0.014266413
0.40497893 0.066617586 0.01426024
0.40061748 0.067995228 0.011735148
0.38311258 0.071559578 0.0016466158
0.40394682 -0.017418861 0.014492868
0.4057405 -0.016288955 0.015495145
0.40577114 -0.015280805 0.015489001
0.40580177 -0.014272656 0.015482858
0.40583241 -0.013264503 0.015476714
0.40586305 -0.012256354 0.015470571
0.40677491 -0.011196882 0.015968682
0.40680549 -0.010190327 0.015962549
0.40683609 -0.0091837673 0.015956415
0.40774775 -0.0081306677 0.016454566
0.40777829 -0.0071257018 0.016448442
0.40780884 -0.00612074 0.016442318
0.40872028 -0.0050740032 0.016940506
0.4087508 -0.004070635 0.016934393
0.40878129 -0.0030672629 0.016928278
0.40881178 -0.0020638909 0.016922165
0.4088423 -0.0010605189 0.01691605
0.40887278 -5.714699e-05 0.016909935
0.40978396 0.00097844028 0.017408224
0.40981439 0.0019802186 0.01740212
0.40984485 0.0029819969 0.017396016
0.4098753 0.0039837752 0.01738991
0.40902528 0.0049597165 0.016879365
0.40905577 0.0059630885 0.01687325
0.40908626 0.0069664605 0.016867135
0.40911677 0.007969832 0.016861022
0.40914726 0.0089732064 0.016854906
0.40917775 0.0099765779 0.016848793
0.40920827 0.010979949 0.016842678
0.40923876 0.011983324 0.016836565
0.40926924 0.012986694 0.01683045
0.40929976 0.013990066 0.016824335
0.40933025 0.014993438 0.016818222
0.40936074 0.015996812 0.016812107
0.40939125 0.017000183 0.016805993
0.40942174 0.018003555 0.016799878
0.40945223 0.019006928 0.016793765
0.40948275 0.0200103 0.01678765
0.40951324 0.021013673 0.016781535
0.40954372 0.022017045 0.016775422
0.40957424 0.023020418 0.016769307
0.40960473 0.02402379 0.016763194
0.40963522 0.025027163 0.016757078
0.40966573 0.026030533 0.016750963
0.40969622 0.027033906 0.01674485
0.40972671 0.028037278 0.016738735
0.40975723 0.029040651 0.016732622
0.40978771 0.030044023 0.016726507
0.4098182 0.031047394 0.016720394
0.40984872 0.032050766 0.016714279
0.40987921 0.033054139 0.016708164
0.4099097 0.034057513 0.01670205
0.40994021 0.035060883 0.016695935
0.4099707 0.036064256 0.016689822
0.41000122 0.037067629 0.016683707
0.41003171 0.038071003 0.016677594
0.41006219 0.039074373 0.016671479
0.41009271 0.040077746 0.016665364
0.4101232 0.041081119 0.01665925
0.41015369 0.042084489 0.016653135
0.4101842 0.043087862 0.016647022
0.41021469 0.044091236 0.016640907
0.41024518 0.045094606 0.016634794
0.4102757 0.046097979 0.016628679
0.41118464 0.0470603 0.017127415
0.41121507 0.048062079 0.017121309
0.41124552 0.049063858 0.017115206
0.41127598 0.050065637 0.017109102
0.41042817 0.051114842 0.016598107
0.41045868 0.052118212 0.016591992
0.41048917 0.053121585 0.016585879
0.41051966 0.054124959 0.016579764
0.40967217 0.055182122 0.016068755
0.40970272 0.05618709 0.01606263
0.40973327 0.05719205 0.016056506
0.40976378 0.058197018 0.016050383
0.40891653 0.059262145 0.015539325
0.40806937 0.060330458 0.015028247
0.40810001 0.061338607 0.015022104
0.40725297 0.062411699 0.014510997
0.40728366 0.063421443 0.014504843
0.40731436 0.064431183 0.01449869
0.40646747 0.065510653 0.013987518
0.40562075 0.066593297 0.013476353
0.40214178 0.067897849 0.011450106
0.39866319 0.069215141 0.0094237765
0.40634865 -0.017321277 0.014721089
0.40637928 -0.016313124 0.014714946
0.40640992 -0.015304975 0.014708802
0.40644056 -0.014296827 0.014702659
0.40647122 -0.013288674 0.014696515
0.4073821 -0.012227571 0.01519585
0.40741268 -0.011221015 0.015189718
0.40744328 -0.010214459 0.015183584
0.40747386 -0.0092078997 0.01517745
0.4083845 -0.008154762 0.015676834
0.40841505 -0.007149796 0.015670709
0.4084456 -0.0061448342 0.015664585
0.40847614 -0.0051398645 0.015658462
0.40938655 -0.004094691 0.016157893
0.40941706 -0.003091319 0.01615178
0.40944755 -0.002087947 0.016145665
0.40947804 -0.001084575 0.01613955
0.40950856 -8.1202983e-05 0.016133437
0.40953904 0.00092217268 0.016127322
0.40956953 0.0019255447 0.016121209
0.40960005 0.0029289166 0.016115094
0.40963054 0.0039322847 0.01610898
0.40966102 0.0049356604 0.016102865
0.40969154 0.0059390324 0.01609675
0.40972203 0.0069424044 0.016090637
0.40975252 0.0079457769 0.016084522
0.40978304 0.0089491503 0.016078409
0.40981352 0.0099525219 0.016072294
0.40984401 0.010955893 0.016066181
0.40987453 0.011959268 0.016060065
0.40990502 0.012962638 0.01605395
0.4099355 0.01396601 0.016047837
0.40908709 0.014959431 0.015535982
0.40911764 0.015964398 0.015529858
0.40914819 0.016969362 0.015523734
0.40917873 0.017974326 0.01551761
0.40920925 0.018979292 0.015511486
0.4092398 0.019984256 0.015505362
0.40927035 0.020989222 0.015499238
0.40930089 0.021994187 0.015493114
0.40933144 0.022999151 0.01548699
0.40936199 0.024004117 0.015480866
0.40939254 0.025009081 0.015474742
0.40942308 0.026014045 0.015468618
0.40945363 0.027019011 0.015462494
0.40948418 0.028023975 0.01545637
0.41039297 0.029016595 0.015956122
0.41042349 0.030019967 0.015950009
0.41045398 0.031023338 0.015943894
0.41048446 0.032026712 0.015937779
0.41051498 0.033030085 0.015931666
0.41054547 0.034033455 0.015925551
0.41057596 0.035036828 0.015919438
0.41060647 0.036040202 0.015913323
0.41063696 0.037043571 0.015907209
0.41066745 0.038046945 0.015901094
0.41069797 0.039050318 0.015894979
0.41072845 0.040053688 0.015888866
0.41075897 0.041057061 0.015882751
0.41078946 0.042060435 0.015876638
0.41081995 0.043063808 0.015870523
0.41085047 0.044067178 0.015864408
0.41088095 0.045070551 0.015858294
0.41091144 0.046073925 0.015852179
0.41094196 0.047077294 0.015846066
0.41097245 0.048080668 0.015839951
0.41100293 0.049084041 0.015833838
0.41103345 0.050087411 0.015827723
0.41106394 0.051090784 0.015821608
0.41109443 0.052094158 0.015815495
0.41112494 0.053097531 0.01580938
0.41027838 0.054153062 0.015297147
0.41030893 0.055158027 0.015291023
0.41033947 0.056162994 0.015284899
0.41037002 0.057167958 0.015278774
0.40952373 0.058231454 0.014766493
0.4095543 0.059238013 0.014760359
0.40870816 0.060306288 0.014248048
0.40873879 0.061314438 0.014241905
0.40876943 0.062322591 0.014235761
0.4088001 0.06333074 0.014229618
0.40707755 0.064475067 0.013211016
0.40710828 0.065486401 0.013204853
0.40626258 0.066569015 0.012692454
0.40366405 0.067800544 0.01116752
0.39931309 0.069190547 0.0086300224
0.3940863 0.070672527 0.0055861576
0.37662455 0.07432773 -0.0045522354
0.4078669 -0.017284492 0.01444756
0.4078975 -0.016277935 0.014441426
0.40792808 -0.015271381 0.014435292
0.40795869 -0.014264821 0.014429159
0.40798926 -0.013258262 0.014423025
0.40801987 -0.012251703 0.014416891
0.40805048 -0.011245147 0.014410757
0.40808105 -0.010238592 0.014404624
0.40899074 -0.0091838213 0.014905231
0.40902129 -0.0081788553 0.014899107
0.40905184 -0.0071738902 0.014892983
0.40908238 -0.006168928 0.014886859
0.40911293 -0.0051639588 0.014880735
0.41002232 -0.0041187471 0.015381395
0.41005281 -0.0031153748 0.015375281
0.40920457 -0.0021490657 0.014862363
0.41011381 -0.0011086309 0.015363052
0.4101443 -0.00010525898 0.015356938
0.41017482 0.00089811673 0.015350823
0.4102053 0.0019014886 0.015344709
0.41023579 0.0029048605 0.015338595
0.41026631 0.0039082291 0.015332481
0.4102968 0.0049116048 0.015326367
0.41032729 0.0059149764 0.015320253
0.4103578 0.0069183484 0.015314138
0.40951002 0.0079005836 0.014801123
0.40954056 0.0089055486 0.014795
0.40957111 0.0099105127 0.014788875
0.40960166 0.010915478 0.014782752
0.40963221 0.011920444 0.014776628
0.40966275 0.01292541 0.014770503
0.4096933 0.013930373 0.01476438
0.40972385 0.014935337 0.014758255
0.4097544 0.015940305 0.014752132
0.40978494 0.016945269 0.014746008
0.40981549 0.017950231 0.014739884
0.40984604 0.018955197 0.01473376
0.40987659 0.019960163 0.014727635
0.40990713 0.020965127 0.014721512
0.40993768 0.021970091 0.014715387
0.40996823 0.022975057 0.014709264
0.40999877 0.023980021 0.01470314
0.41002932 0.024984987 0.014697016
0.41005987 0.025989952 0.014690892
0.41009042 0.026994918 0.014684767
0.41012096 0.027999882 0.014678644
0.41015148 0.029004846 0.01467252
0.41018203 0.030009812 0.014666396
0.41021258 0.031014776 0.014660272
0.41024312 0.032019742 0.014654147
0.41027367 0.033024706 0.014648024
0.41030422 0.03402967 0.0146419
0.41033477 0.035034638 0.014635776
0.41036531 0.036039602 0.014629652
0.41039586 0.037044566 0.014623528
0.41042641 0.03804953 0.014617404
0.41045696 0.039054494 0.01461128
0.4104875 0.040059462 0.014605156
0.41051805 0.041064426 0.014599032
0.4105486 0.04206939 0.014592908
0.41057914 0.043074355 0.014586784
0.41060969 0.044079322 0.01458066
0.41064024 0.045084286 0.014574536
0.41067079 0.046089251 0.014568412
0.41070133 0.047094215 0.014562288
0.41073188 0.048099179 0.014556164
0.41076243 0.049104147 0.01455004
0.41079298 0.050109111 0.014543916
0.41082352 0.051114075 0.014537793
0.41085407 0.052119039 0.014531668
0.41088462 0.053124003 0.014525544
0.41091517 0.054128967 0.01451942
0.41094571 0.055133935 0.014513296
0.41010031 0.056194209 0.0139998
0.41013089 0.057200763 0.013993667
0.4101615 0.058207322 0.013987533
0.4101921 0.05921388 0.013981399
0.40934694 0.060282119 0.013467855
0.40937757 0.061290268 0.013461712
0.40940824 0.062298417 0.013455568
0.40856326 0.063373022 0.012941991
0.40771836 0.064450823 0.012428356
0.40774909 0.065462157 0.012422194
0.40690437 0.066544726 0.011908568
0.40430889 0.067776144 0.010379933
0.39996299 0.06916596 0.0078362692
0.39474225 0.070647709 0.0047850157
0.38080159 0.073985346 -0.0033479419
0.40850466 -0.017308624 0.013668594
0.40853527 -0.016302068 0.01366246
0.40856588 -0.015295513 0.013656327
0.40859646 -0.014288954 0.013650193
0.40862706 -0.013282394 0.013644059
0.40865764 -0.012275835 0.013637925
0.40868825 -0.01126928 0.013631792
0.40871885 -0.010262724 0.013625658
0.40962753 -0.0092079155 0.014127493
0.40965807 -0.0082029505 0.014121369
0.40968862 -0.0071979845 0.014115245
0.40971914 -0.0061930227 0.014109122
0.40974969 -0.005188053 0.014102997
0.40978023 -0.0041830875 0.014096874
0.40981078 -0.0031781257 0.014090749
0.40984133 -0.00217316 0.014084625
0.40987188 -0.0011681943 0.014078502
0.40990242 -0.00016323247 0.014072377
0.40993297 0.00084173685 0.014066254
0.40996352 0.0018466988 0.014060129
0.40999407 0.0028516643 0.014054005
0.41002461 0.0038566301 0.014047882
0.41005516 0.0048615956 0.014041757
0.41008571 0.0058665592 0.014035634
0.41011626 0.0068715233 0.014029509
0.4101468 0.0078764884 0.014023386
0.41017735 0.0088814544 0.014017262
0.4102079 0.0098864185 0.014011137
0.41023844 0.010891384 0.014005014
0.41026899 0.011896349 0.013998889
0.41029954 0.012901315 0.013992766
0.41033009 0.013906279 0.013986642
0.41036063 0.014911243 0.013980518
0.41039118 0.01591621 0.013974394
0.41042173 0.016921174 0.013968269
0.40957549 0.017920889 0.013453915
0.4096061 0.018927447 0.013447781
0.40963668 0.019934004 0.013441647
0.40966728 0.020940561 0.013435514
0.40969786 0.021947119 0.01342938
0.40972847 0.022953678 0.013423246
0.40975904 0.023960235 0.013417113
0.40978965 0.024966793 0.013410979
0.40982026 0.025973348 0.013404845
0.40985084 0.026979906 0.013398712
0.41075772 0.027975786 0.013900906
0.41078827 0.028980752 0.013894782
0.41081882 0.029985717 0.013888658
0.41084936 0.030990683 0.013882534
0.41087991 0.031995647 0.01387641
0.41091046 0.033000611 0.013870286
0.410941 0.034005575 0.013864162
0.41097155 0.035010543 0.013858038
0.4110021 0.036015507 0.013851915
0.41015679 0.037045483 0.013337375
0.41018739 0.038052041 0.013331241
0.41021797 0.039058596 0.013325107
0.41024858 0.040065154 0.013318974
0.41027915 0.041071713 0.013312841
0.41030976 0.042078272 0.013306707
0.41034037 0.043084826 0.013300573
0.41037095 0.044091385 0.01329444
0.41040155 0.045097943 0.013288306
0.41043213 0.046104498 0.013282172
0.41046274 0.047111057 0.013276039
0.41049334 0.048117615 0.013269905
0.41052392 0.049124174 0.013263771
0.41142973 0.050085016 0.013766179
0.41146028 0.05108998 0.013760054
0.41149083 0.052094944 0.01375393
0.41064632 0.053150404 0.013239237
0.4106769 0.054156959 0.013233103
0.4107075 0.055163518 0.013226969
0.41073808 0.056170076 0.013220835
0.41076869 0.057176631 0.013214702
0.41079926 0.058183189 0.013208568
0.40995508 0.059249796 0.0126938
0.40998572 0.060257949 0.012687656
0.41001639 0.061266098 0.012681513
0.41004702 0.062274247 0.012675369
0.40920308 0.063348815 0.012160559
0.40835917 0.064426579 0.011645691
0.4083899 0.065437913 0.011639528
0.40842065 0.066449247 0.011633365
0.40495375 0.067751743 0.0095923394
0.40061289 0.069141366 0.0070425095
0.3953982 0.070622891 0.0039838622
0.38409629 0.073722437 -0.0026425705
0.4056018 -0.01858981 0.010859267
0.40914246 -0.017332757 0.012889635
0.40917304 -0.0163262 0.012883501
0.40920365 -0.015319645 0.012877367
0.40923423 -0.014313086 0.012871234
0.40926483 -0.013306526 0.0128651
0.40929544 -0.012299967 0.012858966
0.40932602 -0.011293412 0.012852833
0.41023374 -0.010236972 0.013355891
0.41026428 -0.0092320098 0.013349767
0.41029483 -0.0082270438 0.013343643
0.41032538 -0.0072220783 0.013337519
0.41035593 -0.0062171165 0.013331395
0.41038647 -0.0052121473 0.013325271
0.41041702 -0.0042071817 0.013319147
0.41044757 -0.0032022197 0.013313023
0.41047812 -0.002197254 0.013306899
0.41050866 -0.0011922884 0.013300776
0.41053921 -0.0001873265 0.013294651
0.41056976 0.00081764284 0.013288527
0.4106003 0.0018226048 0.013282403
0.41063085 0.0028275703 0.013276279
0.41066137 0.0038325361 0.013270156
0.41069192 0.0048375018 0.013264031
0.41072246 0.0058424654 0.013257907
0.41075301 0.0068474291 0.013251783
0.41078356 0.0078523951 0.013245659
0.41081411 0.0088573601 0.013239536
0.41084465 0.0098623242 0.013233411
0.4108752 0.01086729 0.013227288
0.41002971 0.011857413 0.012711758
0.41006029 0.01286397 0.012705624
0.41009089 0.013870525 0.01269949
0.41012147 0.014877083 0.012693357
0.41015208 0.015883643 0.012687223
0.41018268 0.0168902 0.012681089
0.41021326 0.017896757 0.012674956
0.41024387 0.018903315 0.012668822
0.41027445 0.019909872 0.012662688
0.41030505 0.02091643 0.012656555
0.41033566 0.021922987 0.012650421
0.41036624 0.022929545 0.012644287
0.41039684 0.023936102 0.012638154
0.41042742 0.024942661 0.01263202
0.41045803 0.025949217 0.012625886
0.41048864 0.026955774 0.012619752
0.41051921 0.027962333 0.012613619
0.41054982 0.028968889 0.012607485
0.4105804 0.029975448 0.012601351
0.410611 0.030982004 0.012595218
0.41064158 0.031988561 0.012589084
0.41067219 0.03299512 0.01258295
0.41070279 0.034001678 0.012576817
0.41073337 0.035008233 0.012570683
0.41076398 0.036014792 0.012564549
0.41079456 0.03702135 0.012558416
0.41082516 0.038027909 0.012552282
0.41085577 0.039034463 0.012546148
0.41088635 0.040041022 0.012540014
0.41091695 0.041047581 0.012533881
0.41094753 0.042054139 0.012527747
0.41097814 0.043060694 0.012521613
0.41100872 0.044067252 0.01251548
0.41103932 0.045073811 0.012509346
0.41106993 0.04608037 0.012503212
0.41110051 0.047086924 0.012497079
0.41113111 0.048093483 0.012490945
0.41116169 0.049100041 0.012484811
0.4111923 0.050106596 0.012478678
0.4112229 0.051113155 0.012472544
0.41125348 0.052119713 0.01246641
0.41128409 0.053126272 0.012460276
0.41131467 0.054132827 0.012454143
0.41134527 0.055139385 0.012448009
0.41050196 0.056201175 0.011932037
0.41053259 0.057209324 0.011925894
0.41056323 0.058217473 0.01191975
0.41059387 0.059225626 0.011913607
0.41062453 0.060233776 0.011907463
0.40978149 0.061305121 0.011391439
0.40981218 0.062314864 0.011385285
0.40896922 0.063390993 0.010869199
0.40899998 0.064402327 0.010863037
0.40903071 0.065413661 0.010856874
0.40818802 0.066496156 0.010340776
0.40559858 0.067727342 0.0088047525
0.40126276 0.069116779 0.0062487614
0.39692742 0.070522137 0.0036926791
0.39259258 0.071943417 0.0011364936
0.38738501 0.073459752 -0.0019297671
0.40624362 -0.018614095 0.010075374
0.40890381 -0.01741796 0.011600305
0.40893444 -0.016409807 0.011594162
0.40984142 -0.015343778 0.012098396
0.40987203 -0.014337218 0.012092263
0.40990263 -0.013330659 0.012086129
0.40993321 -0.0123241 0.012079995
0.40996382 -0.011317545 0.012073861
0.40999439 -0.010310989 0.012067728
0.410025 -0.0093044294 0.012061594
0.41005561 -0.0082978737 0.01205546
0.41008618 -0.0072913147 0.012049327
0.41011679 -0.0062847589 0.012043193
0.41102323 -0.0052362415 0.012547533
0.41105378 -0.004231276 0.01254141
0.41108432 -0.003226314 0.012535285
0.41023916 -0.0022585257 0.012018658
0.41026977 -0.0012519702 0.012012525
0.41030034 -0.00024541462 0.012006391
0.41033095 0.00076114468 0.012000257
0.41036153 0.0017677039 0.011994123
0.41039214 0.0027742595 0.01198799
0.41042274 0.0037808188 0.011981856
0.41045332 0.004787378 0.011975722
0.41048393 0.0057939338 0.011969589
0.4105145 0.0068004909 0.011963455
0.41054511 0.0078070466 0.011957321
0.41057572 0.0088136056 0.011951188
0.41060629 0.0098201632 0.011945054
0.4106369 0.010826721 0.01193892
0.41066748 0.01183328 0.011932787
0.41069809 0.012839837 0.011926653
0.41072866 0.013846393 0.011920519
0.41075927 0.01485295 0.011914385
0.41078988 0.015859509 0.011908252
0.41082045 0.016866067 0.011902118
0.41085106 0.017872624 0.011895984
0.41088164 0.018879183 0.011889851
0.41091225 0.019885739 0.011883717
0.41094285 0.020892296 0.011877583
0.41097343 0.021898855 0.01187145
0.41100404 0.022905413 0.011865316
0.41103461 0.02391197 0.011859182
0.41106522 0.024918528 0.011853049
0.4110958 0.025925083 0.011846915
0.41112641 0.026931642 0.011840781
0.41115701 0.0279382 0.011834648
0.41118759 0.028944757 0.011828514
0.4112182 0.029951315 0.01182238
0.41124877 0.030957872 0.011816246
0.41127938 0.031964429 0.011810113
0.41130999 0.032970987 0.011803979
0.41134056 0.033977546 0.011797845
0.41137117 0.034984101 0.011791712
0.41052788 0.036014002 0.011274706
0.41055852 0.037022151 0.011268563
0.41058916 0.0380303 0.01126242
0.4106198 0.039038453 0.011256276
0.41065046 0.040046602 0.011250133
0.4106811 0.041054752 0.011243989
0.41071174 0.042062901 0.011237846
0.41074237 0.043071054 0.011231703
0.41077301 0.044079203 0.011225559
0.41080368 0.045087352 0.011219416
0.41083431 0.046095502 0.011213272
0.41086495 0.047103655 0.011207129
0.41089559 0.048111804 0.011200985
0.41092625 0.049119953 0.011194842
0.41095689 0.050128102 0.011188699
0.41098753 0.051136255 0.011182555
0.41101816 0.052144405 0.011176412
0.4110488 0.053152554 0.011170268
0.41107947 0.054160703 0.011164125
0.4111101 0.055168856 0.011157982
0.41114074 0.056177005 0.011151838
0.41117138 0.057185154 0.011145695
0.41120201 0.058193304 0.011139551
0.41035989 0.059261426 0.010622313
0.41039059 0.06027117 0.01061616
0.40954855 0.061344076 0.01009886
0.40957931 0.06235541 0.010092697
0.40961003 0.063366741 0.010086535
0.40964079 0.064378083 0.010080372
0.40879905 0.065458946 0.0095630558
0.40882984 0.066471875 0.009556883
0.40624344 0.067702942 0.0080171544
0.40191266 0.069092184 0.0054550022
0.39758235 0.070497356 0.0028927531
0.39325255 0.071918443 0.00033041261
0.38892323 0.073355466 -0.0022320305
0.40600994 -0.018701078 0.0087798936
0.40954259 -0.017442131 0.010820107
0.40957323 -0.016433978 0.010813964
0.40960386 -0.015425828 0.010807821
0.41050979 -0.014361351 0.011313297
0.4105404 -0.013354791 0.011307163
0.41057101 -0.012348233 0.011301029
0.41060159 -0.011341677 0.011294896
0.41063219 -0.010335121 0.011288762
0.41066277 -0.0093285618 0.011282628
0.41069338 -0.0083220061 0.011276495
0.41072398 -0.0073154471 0.011270361
0.41075456 -0.0063088913 0.011264227
0.41078517 -0.0053023286 0.011258094
0.41081575 -0.0042957729 0.01125196
0.41084635 -0.0032892174 0.011245826
0.41087693 -0.0022826581 0.011239693
0.41090754 -0.0012761026 0.011233559
0.41093814 -0.00026954702 0.011227425
0.41096872 0.00073701225 0.011221291
0.41099933 0.0017435716 0.011215158
0.41102991 0.0027501271 0.011209024
0.41106051 0.0037566863 0.01120289
0.41109112 0.0047632456 0.011196757
0.4111217 0.0057698013 0.011190623
0.4111523 0.0067763585 0.011184489
0.41118288 0.0077829142 0.011178356
0.41121349 0.0087894732 0.011172222
0.41124409 0.0097960308 0.011166088
0.41127467 0.010802588 0.011159955
0.41043124 0.011794228 0.010641948
0.41046187 0.012802377 0.010635805
0.41049251 0.013810527 0.010629662
0.41052318 0.014818676 0.010623518
0.41055381 0.015826829 0.010617375
0.41058445 0.016834978 0.010611231
0.41061509 0.017843127 0.010605088
0.41064572 0.018851278 0.010598945
0.41067639 0.019859428 0.010592801
0.41070703 0.020867579 0.010586658
0.41073766 0.021875728 0.010580515
0.4107683 0.022883879 0.010574372
0.41079897 0.023892028 0.010568228
0.4108296 0.024900179 0.010562085
0.41086024 0.025908329 0.010555942
0.41089088 0.02691648 0.010549798
0.41092151 0.027924629 0.010543655
0.41095218 0.02893278 0.010537511
0.41098282 0.029940929 0.010531368
0.41101345 0.03094908 0.010525225
0.41104409 0.031957231 0.010519081
0.41107473 0.032965381 0.010512938
0.41110539 0.03397353 0.010506794
0.41113603 0.034981679 0.010500651
0.41116667 0.035989832 0.010494507
0.4111973 0.036997981 0.010488364
0.41122794 0.038006131 0.010482221
0.41125861 0.03901428 0.010476077
0.41128924 0.040022433 0.010469934
0.41131988 0.041030582 0.01046379
0.41047794 0.042071592 0.0099454839
0.41050863 0.043081336 0.0099393306
0.41053933 0.044091079 0.0099331774
0.41057003 0.045100819 0.0099270241
0.4114731 0.046071332 0.010433073
0.41150373 0.047079481 0.01042693
0.4115344 0.048087634 0.010420786
0.41156504 0.049095783 0.010414643
0.41159567 0.050103933 0.0104085
0.41162631 0.051112082 0.010402356
0.41165695 0.052120231 0.010396213
0.41081557 0.053178761 0.0098777991
0.41084623 0.054188505 0.0098716468
0.41087693 0.055198248 0.0098654935
0.41090763 0.056207992 0.0098593403
0.41093832 0.057217732 0.009853187
0.41096902 0.058227476 0.0098470338
0.41012788 0.059297156 0.0093285199
0.41015863 0.060308494 0.0093223574
0.41018936 0.061319828 0.0093161948
0.41022012 0.062331162 0.0093100322
0.41025084 0.063342497 0.0093038687
0.40941009 0.064421736 0.0087853288
0.40944088 0.065434657 0.008779157
0.40947166 0.066447586 0.0087729841
0.40688828 0.067678548 0.0072295615
0.40343392 0.068993323 0.0051736906
0.39910862 0.070396706 0.0026052904
0.39478377 0.07181602 3.6761074e-05
0.39045945 0.073251255 -0.0025318332
0.40577829 -0.018788137 0.0074819527
0.41018137 -0.017466301 0.010039914
0.41021201 -0.016458148 0.01003377
0.41024265 -0.015449999 0.010027627
0.41027331 -0.01444185 0.010021484
0.41030395 -0.013433697 0.010015341
0.41033459 -0.012425547 0.010009198
0.41123936 -0.011365809 0.010515937
0.41126996 -0.010359254 0.010509803
0.41130057 -0.0093526943 0.010503669
0.41133115 -0.0083461385 0.010497536
0.41136175 -0.0073395795 0.010491402
0.41139233 -0.0063330238 0.010485268
0.41142294 -0.0053264606 0.010479135
0.41145355 -0.0043199053 0.010473001
0.41148412 -0.0033133496 0.010466867
0.41151473 -0.0023067903 0.010460733
0.41154531 -0.0013002348 0.0104546
0.41157591 -0.00029367924 0.010448466
0.41160649 0.00071288005 0.010442332
0.4116371 0.0017194393 0.010436199
0.4116677 0.0027259949 0.010430065
0.41082487 0.003704855 0.0099109029
0.41085553 0.004713004 0.0099047599
0.41088617 0.0057211551 0.009898616
0.41091681 0.0067293043 0.009892473
0.41094744 0.0077374536 0.0098863291
0.41097808 0.008745607 0.0098801861
0.41100875 0.0097537562 0.0098740421
0.41103938 0.010761905 0.0098678991
0.41107002 0.011770058 0.0098617561
0.41110066 0.012778208 0.0098556122
0.41113132 0.013786356 0.0098494692
0.41116196 0.014794505 0.0098433252
0.4111926 0.015802659 0.0098371822
0.41122323 0.016810808 0.0098310392
0.41038114 0.017813554 0.0093117319
0.41041183 0.0188233 0.0093055787
0.41044253 0.019833039 0.0092994254
0.41047323 0.020842783 0.0092932722
0.41050392 0.021852527 0.0092871189
0.41053459 0.022862269 0.0092809657
0.41143775 0.023867859 0.0097880354
0.41146839 0.02487601 0.0097818915
0.41149902 0.025884159 0.0097757485
0.41152966 0.026892308 0.0097696045
0.4115603 0.027900459 0.0097634615
0.41159096 0.028908608 0.0097573185
0.4116216 0.02991676 0.0097511746
0.41165224 0.030924909 0.0097450316
0.41168287 0.031933062 0.0097388877
0.41171354 0.032941211 0.0097327447
0.41174418 0.03394936 0.0097266007
0.41090292 0.034979183 0.0092071285
0.41093358 0.035988927 0.0092009762
0.41096428 0.036998667 0.009194823
0.41099498 0.03800841 0.0091886697
0.41102567 0.039018154 0.0091825165
0.41105637 0.040027898 0.0091763632
0.41108707 0.041037638 0.00917021
0.41111773 0.042047381 0.0091640567
0.41027686 0.043091543 0.0086444654
0.41030759 0.044102877 0.0086383028
0.41033834 0.045114212 0.0086321402
0.41036907 0.046125546 0.0086259767
0.41039982 0.047136884 0.0086198142
0.41043055 0.048148219 0.0086136516
0.41046131 0.049159553 0.0086074891
0.41049203 0.050170887 0.0086013256
0.41139397 0.051135067 0.0091086794
0.41142467 0.052144811 0.0091025261
0.41145536 0.053154554 0.0090963729
0.410615 0.054216232 0.0085766744
0.41064575 0.055227567 0.0085705118
0.41067648 0.056238905 0.0085643493
0.41070721 0.057250239 0.0085581867
0.41073796 0.058261573 0.0085520232
0.41076869 0.059272911 0.0085458606
0.41079944 0.060284246 0.0085396981
0.40995952 0.061358664 0.008019954
0.40999031 0.062371589 0.0080137812
0.4100211 0.063384518 0.0080076093
0.41005188 0.064397447 0.0080014365
0.40921223 0.06547983 0.0074816439
0.40837264 0.066565394 0.0069618318
0.40666276 0.067726783 0.0059283348
0.40321243 0.069043003 0.0038674949
0.39976254 0.070371963 0.0018066092
0.39544272 0.071791083 -0.00076808088
0.39199367 0.073147118 -0.0028291314
0.4055486 -0.018875279 0.0061815134
0.40994674 -0.017551653 0.0087456582
0.40997744 -0.016541911 0.008739505
0.41000813 -0.015532168 0.0087333517
0.4109121 -0.01446602 0.0092412848
0.41094273 -0.013457867 0.0092351418
0.41097337 -0.012449718 0.0092289988
0.41100404 -0.011441569 0.0092228549
0.41103467 -0.01043342 0.0092167119
0.41106531 -0.0094252704 0.0092105679
0.41109595 -0.0084171174 0.0092044249
0.41112658 -0.0074089682 0.0091982819
0.41115725 -0.0064008189 0.009192138
0.41118789 -0.005392666 0.009185995
0.41121852 -0.0043845167 0.009179851
0.41124916 -0.0033763677 0.009173708
0.4112798 -0.0023682185 0.0091675641
0.41131046 -0.0013600655 0.0091614211
0.4113411 -0.0003519163 0.0091552781
0.41137174 0.00065623294 0.0091491342
0.41140237 0.0016643822 0.0091429912
0.41143304 0.0026725351 0.0091368472
0.41146368 0.0036806844 0.0091307042
0.41149431 0.0046888334 0.0091245612
0.41152495 0.0056969845 0.0091184173
0.41155559 0.0067051337 0.0091122743
0.41158625 0.0077132829 0.0091061303
0.41074473 0.0087016616 0.0085856775
0.41077542 0.0097114043 0.0085795242
0.41080612 0.010721145 0.008573371
0.41083679 0.01173089 0.0085672177
0.41086748 0.012740633 0.0085610645
0.41089818 0.013750375 0.0085549122
0.41092888 0.014760117 0.0085487589
0.41095957 0.015769862 0.0085426057
0.41099027 0.016779603 0.0085364524
0.41102093 0.017789345 0.0085302992
0.41105163 0.018799091 0.0085241459
0.41108233 0.019808831 0.0085179936
0.41111302 0.020818574 0.0085118404
0.41114372 0.021828318 0.0085056871
0.41117442 0.02283806 0.0084995339
0.41120508 0.023847802 0.0084933806
0.41123578 0.024857547 0.0084872274
0.41126648 0.025867289 0.0084810751
0.41129717 0.026877031 0.0084749218
0.41132787 0.027886774 0.0084687686
0.41135857 0.028896516 0.0084626153
0.41138926 0.02990626 0.0084564621
0.41141993 0.030916004 0.0084503088
0.41145062 0.031925745 0.0084441565
0.41148132 0.032935489 0.0084380032
0.41151202 0.033945233 0.00843185
0.41154271 0.034954973 0.0084256968
0.4107025 0.035987943 0.0079049403
0.41073322 0.036999281 0.0078987768
0.41076398 0.038010616 0.0078926142
0.41079471 0.03902195 0.0078864517
0.41082546 0.040033288 0.0078802882
0.41085619 0.041044623 0.0078741256
0.41088694 0.042055957 0.0078679631
0.41091767 0.043067295 0.0078618005
0.41094843 0.044078629 0.007855637
0.41097915 0.045089964 0.0078494744
0.41100988 0.046101302 0.0078433119
0.41104063 0.047112636 0.0078371493
0.41107136 0.048123971 0.0078309858
0.41110212 0.049135309 0.0078248233
0.41113284 0.050146643 0.0078186607
0.4111636 0.051157977 0.0078124977
0.41119432 0.052169316 0.0078063351
0.41122508 0.05318065 0.0078001721
0.41125581 0.054191984 0.0077940095
0.41128656 0.055203319 0.0077878465
0.41131729 0.056214657 0.0077816839
0.4104782 0.057282664 0.007260751
0.41050899 0.058295593 0.0072545786
0.41053978 0.059308518 0.0072484058
0.41057056 0.06032145 0.0072422335
0.41060135 0.061334379 0.0072360612
0.41063213 0.062347304 0.0072298883
0.40979338 0.063426457 0.0067088818
0.40982422 0.064440981 0.0067026997
0.40898561 0.065524913 0.0061816643
0.40901649 0.066541031 0.0061754724
0.40730861 0.067702346 0.0051395027
0.40473169 0.068944223 0.0035886499
0.40041649 0.07034722 0.0010079222
0.39697096 0.071688771 -0.0010580005
0.39352584 0.073043056 -0.003124001
0.405321 -0.018962491 0.0048786509
0.40884167 -0.017698305 0.0069336235
0.40974483 -0.016625753 0.0074427519
0.41064793 -0.015556376 0.0079519255
0.41067863 -0.014546634 0.0079457723
0.41158152 -0.013482038 0.0084549487
0.41161215 -0.012473889 0.0084488057
0.41164282 -0.011465739 0.0084426617
0.41167346 -0.01045759 0.0084365187
0.41170409 -0.009449441 0.0084303757
0.41173473 -0.008441288 0.0084242318
0.4117654 -0.0074331388 0.0084180888
0.41179603 -0.0064249896 0.0084119448
0.41182667 -0.0054168366 0.0084058018
0.41185731 -0.0044086874 0.0083996579
0.41188794 -0.0034005381 0.0083935149
0.41191861 -0.0023923889 0.0083873719
0.41194925 -0.0013842359 0.008381228
0.41197988 -0.00037608674 0.008375085
0.41201052 0.0006320625 0.008368941
0.41204116 0.0016402117 0.008362798
0.41120037 0.0026189953 0.0078411698
0.41123107 0.0036287382 0.0078350166
0.41126177 0.004638481 0.0078288633
0.41129243 0.0056482241 0.0078227101
0.41132313 0.0066579669 0.0078165568
0.41135383 0.0076677077 0.0078104041
0.41051331 0.0086576389 0.0072886818
0.41054407 0.0096689742 0.0072825188
0.41057479 0.010680309 0.0072763562
0.41060555 0.011691647 0.0072701932
0.41063628 0.012702982 0.0072640306
0.410667 0.013714316 0.0072578676
0.41069776 0.014725651 0.007251705
0.41072848 0.01573699 0.007245542
0.41075924 0.016748324 0.0072393795
0.41078997 0.017759658 0.0072332164
0.41082072 0.018770995 0.0072270534
0.41085145 0.019782331 0.0072208908
0.4108822 0.020793665 0.0072147278
0.41091293 0.021805001 0.0072085653
0.41094369 0.022816338 0.0072024022
0.41097441 0.023827672 0.0071962397
0.41100517 0.024839008 0.0071900766
0.4110359 0.025850343 0.0071839141
0.41106662 0.026861679 0.007177751
0.41109738 0.027873013 0.0071715885
0.4111281 0.028884349 0.0071654255
0.41115886 0.029895686 0.0071592629
0.41118959 0.03090702 0.0071530999
0.41122034 0.031918358 0.0071469373
0.41125107 0.032929692 0.0071407743
0.41128182 0.033941027 0.0071346117
0.41131255 0.034952361 0.0071284487
0.41134331 0.035963699 0.0071222861
0.41137403 0.036975034 0.0071161231
0.41053504 0.038012743 0.0065941359
0.41056582 0.039025672 0.0065879631
0.41059661 0.040038601 0.0065817907
0.41062739 0.041051529 0.0065756184
0.41065818 0.042064454 0.0065694456
0.41068897 0.043077383 0.0065632733
0.41071975 0.044090312 0.0065571009
0.41075054 0.045103241 0.0065509281
0.41078132 0.04611617 0.0065447558
0.41081211 0.047129098 0.0065385834
0.41084293 0.048142023 0.0065324106
0.41087371 0.049154956 0.0065262383
0.4109045 0.050167881 0.0065200655
0.41093528 0.05118081 0.0065138931
0.41096607 0.052193739 0.0065077208
0.41099685 0.053206667 0.006501548
0.41102764 0.054219592 0.0064953757
0.41105843 0.055232521 0.0064892033
0.41108921 0.056245454 0.0064830305
0.41112 0.057258379 0.0064768582
0.41115078 0.058271307 0.0064706858
0.41118157 0.059284233 0.006464513
0.41034368 0.060358576 0.0059423023
0.41037452 0.061373096 0.0059361202
0.41040537 0.062387619 0.0059299381
0.41043621 0.063402139 0.0059237559
0.40959856 0.06448444 0.0054015024
0.40962943 0.065500557 0.0053953105
0.40966031 0.066516668 0.0053891186
0.40795445 0.067677908 0.0043506883
0.40451223 0.068993822 0.0022799876
0.40107042 0.070322476 0.00020924113
0.39849713 0.071586534 -0.0013454739
0.39418784 0.073018014 -0.0039325426
0.40422395 -0.01911263 0.003056796
0.40774068 -0.017845111 0.0051166825
0.40951428 -0.016709663 0.0061435523
0.41041636 -0.015638663 0.0066539235
0.41131842 -0.014570842 0.0071643405
0.41134912 -0.013561096 0.0071581872
0.41137981 -0.012551353 0.007152034
0.41141048 -0.011541613 0.0071458812
0.41144118 -0.010531871 0.0071397279
0.41147187 -0.0095221279 0.0071335747
0.41237354 -0.0084654586 0.0076440331
0.41240418 -0.0074573094 0.0076378896
0.41243482 -0.0064491602 0.0076317466
0.41159463 -0.0054831528 0.0071089622
0.41162533 -0.0044734138 0.0071028094
0.41165602 -0.0034636708 0.0070966561
0.41168672 -0.0024539279 0.0070905029
0.41171741 -0.001444185 0.0070843501
0.41174811 -0.00043444213 0.0070781969
0.41177878 0.00057530071 0.0070720436
0.41180947 0.0015850436 0.0070658908
0.41096967 0.0025653767 0.0065429932
0.41100043 0.0035767134 0.0065368302
0.41103116 0.0045880498 0.0065306677
0.41106191 0.0055993847 0.0065245046
0.41109264 0.0066107209 0.0065183421
0.41112339 0.0076220557 0.006512179
0.41115412 0.0086333919 0.0065060165
0.41118488 0.0096447272 0.0064998535
0.4112156 0.010656062 0.0064936909
0.41037634 0.011652328 0.0059707221
0.41040716 0.012665254 0.0059645497
0.41043794 0.013678183 0.0059583774
0.41046873 0.014691109 0.0059522046
0.41049951 0.015704039 0.0059460322
0.4105303 0.016716968 0.0059398599
0.41056108 0.017729893 0.0059336871
0.41059187 0.018742824 0.0059275148
0.41062266 0.019755751 0.0059213424
0.41065344 0.02076868 0.0059151696
0.41155374 0.021780754 0.0064258999
0.4115845 0.02279209 0.0064197369
0.41161522 0.023803424 0.0064135743
0.41164598 0.02481476 0.0064074113
0.4116767 0.025826097 0.0064012487
0.41170746 0.026837431 0.0063950857
0.41173819 0.027848767 0.0063889232
0.41176891 0.028860103 0.0063827601
0.41179967 0.029871438 0.0063765976
0.41096133 0.030897962 0.0058534448
0.41099212 0.031910889 0.005847272
0.4110229 0.032923818 0.0058410997
0.41105369 0.033936746 0.0058349273
0.41108447 0.034949675 0.0058287545
0.41111526 0.0359626 0.0058225822
0.41114607 0.036975529 0.0058164098
0.41117686 0.037988458 0.005810237
0.41120765 0.039001387 0.0058040647
0.41123843 0.040014315 0.0057978919
0.41126922 0.041027244 0.0057917195
0.4113 0.042040169 0.0057855472
0.41133079 0.043053098 0.0057793744
0.41136158 0.044066027 0.0057732021
0.41139236 0.045078956 0.0057670297
0.41142315 0.046091884 0.0057608569
0.41145393 0.047104813 0.0057546846
0.41148472 0.048117738 0.0057485122
0.41151553 0.049130667 0.0057423394
0.41154632 0.050143596 0.0057361671
0.41070899 0.051203564 0.0052128159
0.41073981 0.052218087 0.0052066338
0.41077065 0.053232607 0.0052004517
0.4108015 0.054247126 0.0051942696
0.41083235 0.055261649 0.0051880875
0.41086316 0.056276169 0.0051819049
0.41089401 0.057290688 0.0051757228
0.41092485 0.058305211 0.0051695406
0.41095567 0.059319731 0.0051633585
0.41098651 0.06033425 0.0051571764
0.41014972 0.061411738 0.004633713
0.41018063 0.062427852 0.0046275211
0.4102115 0.063443966 0.0046213293
0.41024238 0.064460084 0.0046151374
0.41027328 0.065476194 0.004608945
0.40943673 0.066563241 0.0040853973
0.40773299 0.067725986 0.0030445226
0.4051621 0.068969235 0.0014862281
0.40172434 0.070297733 -0.00058944582
0.39828691 0.071638979 -0.0026652294
0.395717 0.072914071 -0.0042237123
0.40313089 -0.01926293 0.001229993
0.40751407 -0.01793077 0.003812545
0.40928575 -0.016793655 0.0048418981
0.41018689 -0.015721021 0.0053534927
0.41108793 -0.014651576 0.0058651012
0.41111866 -0.013640236 0.0058589382
0.41114938 -0.0126289 0.0058527756
0.41205028 -0.011565822 0.0063644545
0.41208097 -0.010556079 0.0063583017
0.41211167 -0.0095463367 0.0063521485
0.41214237 -0.008536594 0.0063459952
0.41217306 -0.0075268508 0.0063398425
0.41220376 -0.0065171081 0.0063336892
0.41223443 -0.0055073616 0.006327536
0.41139531 -0.0045382148 0.0058034733
0.41142607 -0.0035268818 0.0057973103
0.41145679 -0.0025155453 0.0057911477
0.41148755 -0.0015042125 0.0057849847
0.41151828 -0.00049287599 0.0057788221
0.411549 0.00051846058 0.0057726591
0.41157976 0.0015297971 0.0057664965
0.41161048 0.0025411299 0.0057603335
0.41077185 0.0035246145 0.0052362154
0.41080263 0.0045375447 0.0052300426
0.41083345 0.0055504711 0.0052238703
0.41086423 0.0065633995 0.0052176975
0.41089502 0.0075763278 0.0052115251
0.41092581 0.0085892566 0.0052053528
0.41095659 0.0096021844 0.00519918
0.41098738 0.010615113 0.0051930076
0.41101816 0.011628043 0.0051868353
0.41104895 0.01264097 0.0051806625
0.41107973 0.013653898 0.0051744902
0.41111052 0.014666825 0.0051683178
0.41114131 0.015679754 0.005162145
0.41117212 0.016692683 0.0051559727
0.41120291 0.01770561 0.0051498003
0.41123369 0.018718539 0.0051436275
0.41126448 0.019731466 0.0051374552
0.41129526 0.020744395 0.0051312824
0.41132605 0.021757323 0.00512511
0.41135684 0.02277025 0.0051189377
0.41138762 0.023783179 0.0051127649
0.41141841 0.024796108 0.0051065926
0.41144919 0.025809035 0.0051004202
0.41147998 0.026821963 0.0050942474
0.41151077 0.027834892 0.0050880751
0.41154158 0.028847819 0.0050819027
0.41157237 0.029860748 0.0050757299
0.41160315 0.030873677 0.0050695576
0.41163394 0.031886604 0.0050633852
0.41079676 0.032917868 0.0045389696
0.41082758 0.033932388 0.0045327875
0.41085842 0.034946907 0.0045266054
0.41088927 0.035961431 0.0045204232
0.41092011 0.03697595 0.0045142411
0.41095093 0.037990469 0.0045080585
0.41098177 0.039004993 0.0045018764
0.41101262 0.040019512 0.0044956943
0.41104344 0.041034032 0.0044895122
0.41107428 0.042048555 0.0044833301
0.41110513 0.043063074 0.0044771475
0.41113594 0.044077598 0.0044709654
0.41116679 0.045092117 0.0044647832
0.41119763 0.046106637 0.0044586011
0.41122848 0.04712116 0.004452419
0.41125929 0.048135679 0.0044462364
0.41129014 0.049150199 0.0044400543
0.41132098 0.050164722 0.0044338722
0.4113518 0.051179241 0.0044276901
0.41138265 0.052193761 0.0044215079
0.41141349 0.053208284 0.0044153254
0.41057736 0.054274585 0.0038907025
0.41060826 0.055290695 0.0038845106
0.41063914 0.056306813 0.0038783187
0.41067001 0.057322923 0.0038721268
0.41070092 0.058339037 0.0038659349
0.41073179 0.059355151 0.003859743
0.41076267 0.060371265 0.0038535511
0.41079357 0.061387379 0.0038473592
0.41082445 0.062403493 0.0038411671
0.41085532 0.063419603 0.0038349752
0.4100197 0.064503431 0.0033102136
0.41005063 0.065521136 0.0033040119
0.41008157 0.066538841 0.0032978102
0.40837985 0.067701511 0.0022544691
0.405812 0.06894464 0.00069248019
0.40237826 0.07027299 -0.001388127
0.39981103 0.071536817 -0.0029502418
0.40291137 -0.019350447 -8.2741819e-05
0.40642017 -0.018077843 0.0019869762
0.40905926 -0.01687772 0.0035377715
0.41082871 -0.015745306 0.0045695943
0.4108595 -0.01473238 0.0045634215
0.41175947 -0.013664483 0.0050762729
0.41179022 -0.012653147 0.0050701103
0.41182095 -0.011641813 0.0050639473
0.41185167 -0.010630477 0.0050577847
0.41188243 -0.009619141 0.0050516217
0.41191316 -0.0086078076 0.0050454591
0.41194391 -0.0075964713 0.0050392961
0.41197464 -0.0065851384 0.0050331336
0.41200539 -0.0055737984 0.0050269705
0.41203612 -0.0045624617 0.005020808
0.41206688 -0.0035511288 0.0050146449
0.4120976 -0.0025397923 0.0050084824
0.41125974 -0.0015643105 0.0044831792
0.41129053 -0.000551384 0.0044770064
0.41132131 0.00046154618 0.004470834
0.4113521 0.0014744727 0.0044646617
0.41138288 0.0024874029 0.0044584889
0.41141367 0.0035003293 0.0044523166
0.41057613 0.0044869632 0.0039269454
0.41060698 0.0055014812 0.0039207633
0.41063783 0.0065160017 0.0039145811
0.41066867 0.0075305235 0.003908399
0.41069949 0.0085450457 0.0039022167
0.41073033 0.0095595652 0.0038960343
0.41076118 0.010574086 0.0038898522
0.40992403 0.011573459 0.0033643977
0.40995491 0.012589571 0.0033582058
0.40998581 0.013605685 0.0033520139
0.41001669 0.014621797 0.003345822
0.41004756 0.015637912 0.0033396301
0.41007847 0.016654026 0.0033334382
0.41010934 0.017670138 0.0033272463
0.41100785 0.018690253 0.0038403946
0.4110387 0.019704772 0.0038342122
0.41106954 0.020719295 0.0038280301
0.41110039 0.021733815 0.003821848
0.4111312 0.022748336 0.0038156656
0.41116205 0.023762858 0.0038094835
0.41119289 0.024777377 0.0038033011
0.41122371 0.025791898 0.003797119
0.41125455 0.02680642 0.0037909369
0.4112854 0.027820939 0.0037847545
0.41131625 0.028835461 0.0037785724
0.41134706 0.029849982 0.0037723901
0.41051084 0.030879613 0.0032467514
0.41054174 0.031895727 0.0032405595
0.41057262 0.032911841 0.0032343676
0.41060349 0.033927955 0.0032281757
0.4106344 0.034944069 0.0032219836
0.41066527 0.035960179 0.0032157917
0.41069615 0.036976293 0.0032095998
0.41072705 0.037992407 0.0032034079
0.41075793 0.039008521 0.003197216
0.4107888 0.040024634 0.0031910241
0.41081971 0.041040748 0.0031848322
0.41085058 0.042056862 0.0031786403
0.41088146 0.043072976 0.0031724484
0.41091236 0.04408909 0.0031662565
0.41094324 0.045105204 0.0031600646
0.41097412 0.046121314 0.0031538727
0.41100502 0.047137428 0.0031476805
0.4110359 0.048153542 0.0031414886
0.41106677 0.049169656 0.0031352967
0.41109768 0.05018577 0.0031291049
0.41112855 0.051201884 0.003122913
0.41115943 0.052217998 0.0031167211
0.41119033 0.053234112 0.0031105292
0.41122121 0.054250222 0.0031043373
0.41125208 0.055266336 0.0030981454
0.41128299 0.05628245 0.0030919535
0.41131386 0.057298563 0.0030857616
0.41134474 0.058314674 0.0030795697
0.41137564 0.059330788 0.0030733778
0.41140652 0.060346905 0.0030671856
0.41057175 0.061425909 0.0025412198
0.41060269 0.062443614 0.0025350181
0.41063362 0.063461319 0.0025288165
0.41066456 0.064479031 0.0025226148
0.41069549 0.065496735 0.0025164133
0.40986106 0.066585295 0.0019904212
0.4081614 0.067749485 0.00094460923
0.40646189 0.068920054 -0.00010127925
0.4038974 0.070172615 -0.0016669942
0.40133315 0.071434736 -0.0032327936
0.39832017 -0.020789692 -0.0039926944
0.40533027 -0.018225065 0.00015648582
0.40796638 -0.017021645 0.0017109296
0.40973395 -0.015885968 0.0027452258
0.41150132 -0.014756666 0.0037795289
0.4115321 -0.013743732 0.0037733563
0.41156289 -0.012730805 0.0037671837
0.41159368 -0.011717875 0.0037610112
0.41162446 -0.010704949 0.0037548388
0.41165525 -0.0096920226 0.0037486663
0.41168603 -0.0086790919 0.0037424937
0.41171682 -0.0076661655 0.0037363211
0.4117476 -0.006653239 0.0037301488
0.41177839 -0.0056403051 0.0037239762
0.41180918 -0.0046273787 0.0037178036
