# .PCD v0.7 - Point Cloud Data file format
VERSION 0.7
FIELDS x y z
SIZE 4 4 4
TYPE F F F
COUNT 1 1 1
WIDTH 1169
HEIGHT 1
VIEWPOINT 0 0 0 1 0 0 0
POINTS 1169
DATA ascii
0.5268932 0.079141907 0.059610851
0.52685887 0.080701984 0.059577979
0.52682447 0.082262054 0.059545107
0.52806044 0.077584498 0.058585297
0.52968085 0.079252221 0.059740324
0.53130138 0.08091218 0.060895469
0.53209466 0.08251445 0.061456818
0.53206044 0.084064834 0.061424147
0.53202629 0.085615218 0.06139148
0.53084517 0.077698678 0.058717314
0.53328878 0.079416335 0.060470302
0.53490663 0.081070475 0.061628215
0.53487253 0.082616985 0.061595626
0.53483844 0.084163487 0.061563041
0.53480434 0.085709997 0.061530452
0.53477025 0.087256506 0.061497867
0.53638864 0.088887393 0.062656246
0.5363546 0.090430021 0.062623747
0.53797328 0.092049286 0.063782424
0.53444874 0.077868603 0.059451114
0.53606367 0.079526611 0.060611572
0.53767878 0.08117687 0.061772179
0.5376448 0.082719505 0.061739676
0.53761083 0.084262133 0.061707169
0.53757679 0.085804768 0.061674666
0.53754282 0.087347396 0.061642159
0.53915846 0.088974401 0.062803313
0.53912455 0.090513155 0.062770888
0.53909063 0.092051908 0.062738463
0.54070657 0.093663409 0.063899904
0.53722078 0.077982746 0.05959494
0.53883296 0.079636872 0.060758092
0.53879899 0.081179507 0.060725585
0.53876501 0.082722135 0.060693081
0.53873098 0.08426477 0.060660575
0.54034364 0.085899517 0.061824191
0.54030973 0.087438278 0.061791766
0.54027581 0.088977031 0.061759342
0.5402419 0.090515785 0.06172692
0.54185498 0.092131153 0.06289091
0.54182112 0.093666032 0.062858567
0.54178733 0.095200911 0.062826224
0.53837788 0.076438881 0.058578297
0.53834379 0.077985384 0.058545709
0.53995317 0.079639509 0.059711497
0.5399192 0.081182137 0.05967899
0.53988516 0.082724772 0.059646487
0.53985119 0.0842674 0.05961398
0.54310483 0.085994259 0.06197894
0.54307097 0.087529138 0.061946597
0.54303718 0.089064017 0.061914258
0.54464746 0.090679385 0.063080907
0.54461372 0.09221039 0.063048646
0.54457998 0.093741387 0.063016385
0.54454625 0.095272392 0.062984124
0.54615688 0.096868373 0.064151146
0.54447877 0.098334394 0.062919602
0.53950089 0.076441519 0.057529069
0.54110736 0.078099512 0.058697406
0.54107338 0.079642139 0.058664903
0.54103935 0.081184775 0.058632396
0.54100537 0.082727402 0.058599893
0.54261231 0.084366024 0.059768684
0.54586041 0.086088993 0.062138975
0.54582667 0.08761999 0.062106714
0.54579294 0.089150995 0.062074453
0.54740041 0.090762474 0.063243784
0.5473668 0.092289604 0.063211605
0.54733312 0.093816727 0.063179426
0.54729944 0.095343858 0.063147247
0.54808664 0.096903473 0.063716017
0.54805303 0.098428659 0.063683875
0.54801941 0.099953853 0.063651741
0.54798579 0.10147904 0.063619599
0.54062384 0.076444164 0.056479849
0.54222751 0.078102149 0.057650816
0.54219353 0.079644777 0.057618309
0.54215956 0.081187405 0.057585806
0.54376358 0.082829893 0.058757138
0.54372966 0.084368646 0.058724716
0.54697216 0.086091608 0.061100274
0.54693842 0.087622605 0.061068013
0.54854304 0.089237958 0.062239885
0.54850936 0.090765081 0.06220771
0.54847568 0.092292212 0.062175531
0.54844207 0.093819335 0.062143352
0.54840839 0.095346466 0.062111173
0.54919416 0.096906073 0.06268125
0.55079943 0.098492362 0.063853793
0.55076587 0.10001367 0.063821733
0.55073237 0.10153499 0.063789681
0.55069882 0.1030563 0.063757621
0.54174685 0.076446801 0.055430621
0.54334772 0.078104779 0.056604221
0.54331374 0.079647414 0.056571715
0.54327971 0.081190042 0.056539211
0.54488099 0.082832523 0.057713181
0.54811764 0.084563218 0.060093824
0.5480839 0.086094216 0.060061563
0.5496856 0.087713435 0.06123599
0.54965192 0.089240566 0.061203811
0.5496183 0.090767689 0.061171632
0.54958463 0.09229482 0.061139453
0.54955101 0.093821943 0.061107278
0.55033529 0.095383488 0.061678626
0.55193764 0.096973643 0.062853709
0.55190414 0.098494954 0.062821649
0.55350673 0.10007348 0.063996926
0.55347329 0.10159092 0.063964948
0.55343986 0.10310835 0.063932978
0.55340642 0.10462579 0.063901
0.55337298 0.10614323 0.063869029
0.55333954 0.10766067 0.063837051
0.54123783 0.076334096 0.053172663
0.54283577 0.077995948 0.054348815
0.54443389 0.079650044 0.05552512
0.54439992 0.081192672 0.055492617
0.54599833 0.082835145 0.056669209
0.54922938 0.084565826 0.059055112
0.54919565 0.086096831 0.059022855
0.55079454 0.087716043 0.060199916
0.55076087 0.089243174 0.060167737
0.55072725 0.090770297 0.060135558
0.55069357 0.092297427 0.060103379
0.55147642 0.093860909 0.060676008
0.55307591 0.095454931 0.061853636
0.55467552 0.097041197 0.063031368
0.55464208 0.098558635 0.062999398
0.55460864 0.10007607 0.06296742
0.55620861 0.10164683 0.064145535
0.55617529 0.1031604 0.064113647
0.55614191 0.10467396 0.064081751
0.55610853 0.10618751 0.064049855
0.55444139 0.10766325 0.062807553
0.52868962 0.067439742 0.04199085
0.53028357 0.069153912 0.043168522
0.53669578 0.074369118 0.047913894
0.54154903 0.076279074 0.051515073
0.54395878 0.077998586 0.053299587
0.54392469 0.079545096 0.053266998
0.54552013 0.08119531 0.054446023
0.54548609 0.082737945 0.054413516
0.54708183 0.084376529 0.055592816
0.55030739 0.086099446 0.057984155
0.55190349 0.087718651 0.059163831
0.55186981 0.089245781 0.059131652
0.55183613 0.090772904 0.059099473
0.55261755 0.092338324 0.059673384
0.55421412 0.093936212 0.060853552
0.55581087 0.095526353 0.06203384
0.55577743 0.09704379 0.062001865
0.55574399 0.098561227 0.061969891
0.55734104 0.10013586 0.063150562
0.55730772 0.10164942 0.063118666
0.55727434 0.10316298 0.063086778
0.55724096 0.10467654 0.063054882
0.55720764 0.1061901 0.063022986
0.55717427 0.10770366 0.062991098
0.52987421 0.065859117 0.040950008
0.53146535 0.067577153 0.042130224
0.53143054 0.069156609 0.042096943
0.53139573 0.070736058 0.042063665
0.53298718 0.072438598 0.043244261
0.53783143 0.074371792 0.046852835
0.54267621 0.076281726 0.050461907
0.5434553 0.077889778 0.051036276
0.5450477 0.079547733 0.052217782
0.54664028 0.08119794 0.053399429
0.5466063 0.082740575 0.053366922
0.54819918 0.084379159 0.054548856
0.55141914 0.086102061 0.056945443
0.55301237 0.087721258 0.058127753
0.55297875 0.089248389 0.058095574
0.55375868 0.090815738 0.058670759
0.55535239 0.092417501 0.059853479
0.55531883 0.093938813 0.059821423
0.55691272 0.095528938 0.061004337
0.55850685 0.097111322 0.062187467
0.55847347 0.098624885 0.062155575
0.55844015 0.10013844 0.062123682
0.55840677 0.101652 0.06209179
0.55837345 0.10316557 0.062059894
0.55834007 0.10467912 0.062028002
0.55830669 0.10619269 0.06199611
0.55827338 0.10770625 0.061964218
0.55661178 0.10918587 0.060716569
0.52618986 0.063851133 0.03626097
0.52777779 0.065584667 0.037443485
0.53098911 0.067445152 0.039842431
0.53257746 0.069159307 0.041025367
0.53254265 0.070738755 0.040992085
0.53413129 0.072441287 0.042175315
0.53572005 0.074136063 0.04335865
0.54217988 0.076169059 0.048192121
0.54376924 0.0778367 0.049376033
0.54454696 0.079442807 0.049951755
0.54613662 0.081096888 0.051135965
0.54772645 0.082743213 0.052320328
0.54931653 0.084381782 0.053504888
0.55253088 0.086104676 0.055906743
0.55412132 0.087723866 0.057091679
0.5540877 0.089250997 0.0570595
0.55486619 0.090818338 0.057635996
0.55645704 0.092420094 0.05882135
0.55804807 0.094014093 0.060006808
0.55963928 0.095600344 0.06119249
0.55960596 0.097113907 0.061160598
0.55957258 0.09862747 0.061128706
0.5595392 0.10014103 0.061096814
0.55950588 0.10165459 0.061064921
0.56109756 0.10321758 0.062251039
0.55943912 0.10468171 0.061001133
0.5594058 0.10619527 0.060969241
0.55937243 0.10770883 0.060937349
0.55933911 0.10922239 0.060905457
0.55768025 0.1107059 0.059655093
0.52576303 0.06211257 0.033993833
0.52896821 0.0639963 0.036397547
0.52893317 0.065587379 0.036364023
0.53051841 0.067313157 0.037549347
0.53210396 0.069031179 0.038734864
0.53206903 0.070614509 0.038701504
0.53365475 0.072320908 0.039887223
0.53524065 0.074019551 0.041073162
0.54330993 0.076171711 0.047136318
0.54489648 0.077839352 0.048322856
0.54567277 0.079445451 0.048899904
0.54725963 0.081099525 0.050086737
0.54884666 0.082745843 0.051273733
0.54881269 0.08428847 0.05124123
0.55202127 0.086015224 0.053648252
0.55523026 0.087726474 0.056055605
0.55519658 0.089253604 0.056023426
0.55597371 0.090820946 0.056601234
0.55756176 0.092422694 0.057789214
0.55914998 0.094016686 0.058977302
0.56073838 0.09560293 0.060165621
0.56070501 0.097116493 0.060133729
0.56067163 0.098630048 0.060101837
0.56063831 0.10014361 0.060069945
0.56222707 0.10171048 0.061258607
0.56219381 0.10322016 0.061226793
0.56216055 0.10472985 0.061194982
0.56050485 0.10619786 0.059942372
0.56047153 0.10771142 0.05991048
0.56043816 0.10922498 0.059878588
0.5587821 0.11070849 0.058625586
0.52688885 0.063714132 0.032875411
0.52847105 0.065451533 0.034063168
0.53005344 0.067181177 0.035251033
0.531636 0.068903074 0.036439061
0.53160101 0.070490271 0.036405619
0.53318387 0.072200544 0.037593938
0.53476685 0.073903054 0.038782377
0.53635007 0.075597823 0.03997102
0.54440564 0.077730566 0.046047729
0.54598951 0.079394318 0.047236983
0.54676443 0.08099848 0.047815382
0.54834855 0.082648672 0.049004931
0.54993284 0.084291108 0.050194636
0.55151737 0.085925795 0.051384535
0.55472064 0.087640904 0.053797062
0.55630553 0.089256212 0.054987349
0.55708122 0.090823554 0.055566471
0.55866647 0.092425287 0.056757085
0.56025183 0.094019279 0.057947811
0.56183743 0.095605515 0.059138741
0.56180412 0.097119078 0.059106849
0.56177074 0.098632634 0.059074957
0.56173736 0.1001462 0.059043065
0.56170404 0.10165976 0.059011173
0.56167066 0.10317332 0.05897928
0.56163728 0.10468688 0.058947388
0.56160396 0.10620044 0.058915496
0.55995089 0.10767621 0.057660043
0.55991745 0.10919365 0.057628069
0.55988401 0.11071108 0.057596095
0.52643526 0.063574426 0.030566752
0.5280146 0.065315694 0.031756997
0.53120881 0.067183897 0.03417157
0.53117377 0.068774976 0.034138046
0.53275359 0.070492983 0.035328791
0.5327186 0.072080187 0.035295345
0.53591377 0.073905751 0.037710797
0.53749418 0.075600512 0.038902078
0.54230517 0.077510372 0.042542696
0.54550141 0.079289421 0.044959147
0.54708248 0.080949292 0.046151109
0.54785609 0.082551517 0.046730857
0.54943746 0.084197819 0.047923114
0.55101907 0.085836373 0.049115527
0.55421656 0.087555349 0.051533241
0.55741447 0.08925882 0.053951275
0.5573808 0.090785943 0.053919096
0.55815518 0.09235134 0.05449957
0.55973768 0.093949199 0.0556929
0.5613203 0.095539302 0.056886334
0.56290317 0.097121656 0.05807998
0.56286979 0.098635219 0.058048088
0.56283647 0.10014878 0.058016196
0.56280309 0.10166235 0.057984304
0.56276971 0.1031759 0.057952411
0.56273639 0.10468946 0.057920519
0.56270301 0.10620303 0.057888627
0.5610528 0.1076788 0.056630541
0.56101936 0.10919624 0.056598566
0.55936885 0.11068364 0.055340286
0.52441108 0.061681844 0.027060146
0.52598733 0.063434735 0.028252782
0.52756375 0.065179877 0.029445624
0.52914035 0.066917256 0.030638587
0.53232914 0.068777688 0.033058573
0.53390616 0.070495695 0.034251951
0.53387117 0.0720829 0.034218509
0.53544849 0.073789276 0.035412159
0.53863829 0.075603202 0.037833132
0.54182845 0.077401616 0.040254422
0.54501891 0.079184532 0.042675998
0.54659712 0.080848269 0.043870553
0.54817551 0.082504265 0.045065224
0.54894775 0.084104545 0.045646336
0.55213922 0.085839003 0.048068933
0.55371821 0.087469801 0.049264185
0.5569104 0.089177139 0.051687393
0.55848974 0.090788551 0.052883022
0.55845606 0.092315681 0.052850842
0.56084239 0.093951799 0.054660764
0.56242222 0.095541894 0.055856828
0.56238878 0.097059332 0.055824853
0.5639689 0.098637804 0.057021208
0.56393552 0.10015137 0.056989316
0.5639022 0.10166492 0.056957424
0.56386882 0.10317849 0.056925531
0.56383544 0.10469205 0.056893639
0.56380212 0.10620561 0.056861747
0.56215465 0.10768139 0.055601034
0.56050712 0.10916492 0.054340206
0.56047356 0.11068624 0.05430815
0.52397162 0.061538301 0.024738373
0.52715391 0.063437477 0.0271628
0.5271185 0.065044068 0.027128948
0.52869225 0.066785321 0.028324507
0.53187531 0.068649612 0.030749669
0.53344941 0.070371486 0.031945582
0.53502369 0.072085604 0.033141669
0.53498876 0.073672809 0.033108227
0.53817284 0.075490594 0.03553436
0.54135728 0.077292874 0.037960839
0.54293233 0.078972116 0.039157704
0.54611737 0.080747269 0.0415847
0.54769289 0.082407124 0.042781964
0.54926854 0.084059231 0.043979347
0.55003935 0.085657574 0.044561815
0.55322546 0.087384269 0.046989832
0.55641186 0.089095466 0.04941823
0.55798841 0.090710752 0.050616436
0.55956501 0.092318289 0.051814768
0.56033659 0.093881741 0.052397918
0.56352413 0.095544487 0.054827325
0.56349069 0.097061925 0.054795351
0.56345719 0.098579362 0.054763377
0.56503463 0.10015395 0.055962447
0.56500125 0.10166751 0.055930555
0.56496787 0.10318107 0.055898663
0.56493455 0.10469463 0.05586677
0.56329 0.10616654 0.054603506
0.56325656 0.10768398 0.054571532
0.56161183 0.10916752 0.053308077
0.55996686 0.11065882 0.052044403
0.55993325 0.112184 0.052012268
0.52357352 0.059776552 0.022445481
0.52353787 0.061394762 0.022411384
0.52510834 0.06315539 0.023609117
0.52828515 0.06504681 0.026038956
0.52824974 0.066653393 0.026005102
0.53142709 0.068521544 0.028435454
0.53299838 0.070247293 0.029633963
0.53456974 0.071965285 0.030832594
0.53614128 0.073675521 0.032031387
0.53771305 0.075378008 0.033230387
0.53928494 0.077072747 0.034429509
0.54246396 0.078867264 0.036861401
0.54725021 0.080749929 0.040526275
0.54882294 0.082409784 0.041726165
0.55039573 0.084061883 0.042926181
0.55116516 0.085660219 0.04350996
0.55273831 0.087298751 0.044710275
0.55591905 0.089013815 0.047143832
0.55749261 0.090632968 0.048344545
0.56067395 0.092320897 0.050778694
0.56064028 0.09384802 0.050746515
0.56301826 0.095478304 0.05256445
0.56459254 0.097064517 0.053765848
0.5645591 0.098581955 0.053733874
0.56452566 0.10009938 0.0537019
0.56449223 0.10161682 0.053669926
0.56445879 0.10313426 0.053637952
0.56442535 0.1046517 0.053605977
0.56439191 0.10616913 0.053574003
0.56275004 0.1076488 0.052308004
0.56110799 0.10913623 0.051041778
0.56107438 0.11066142 0.05100964
0.56104076 0.11218661 0.050977502
0.52157813 0.057853028 0.018913232
0.52474862 0.059779316 0.021347607
0.52471292 0.061397526 0.021313509
0.52467728 0.063015737 0.021279411
0.526245 0.064772479 0.022479858
0.52941638 0.066656135 0.024915121
0.53098458 0.068393499 0.026116021
0.5325529 0.070123106 0.027317032
0.53412139 0.071844973 0.028518269
0.53569007 0.073559083 0.029719604
0.53725886 0.075265437 0.030921115
0.54043186 0.077075444 0.033357929
0.54200119 0.07876242 0.034559891
0.54677892 0.080648944 0.038232557
0.54834867 0.082312666 0.039434966
0.54991865 0.083968639 0.040637571
0.55148876 0.085616857 0.041840296
0.55386132 0.087301396 0.043661047
0.55543184 0.088932171 0.04486414
0.55860716 0.09063559 0.047303211
0.56017816 0.092246987 0.048506755
0.56174922 0.093850628 0.049710438
0.562518 0.095412135 0.050296254
0.56408942 0.097002216 0.051500257
0.56566101 0.09858454 0.052704372
0.56562757 0.10010198 0.052672397
0.56559414 0.10161941 0.052640423
0.5655607 0.10313685 0.052608449
0.56552726 0.10465429 0.052576475
0.56388831 0.10613009 0.05130792
0.56385475 0.10765141 0.051275868
0.56221551 0.10913884 0.050007015
0.56218189 0.11066402 0.049974877
0.56214827 0.11218921 0.049942739
0.56131166 0.11370327 0.049292121
0.52275884 0.057855804 0.017810097
0.52432334 0.059631925 0.019012814
0.52588803 0.061400287 0.020215632
0.52585238 0.063018501 0.020181535
0.52741724 0.064775236 0.021384617
0.52738166 0.066389576 0.021350602
0.53054762 0.06826546 0.023791287
0.53211308 0.069998942 0.024994904
0.53367865 0.071724676 0.02619862
0.53684545 0.073561795 0.028640132
0.53841144 0.075268149 0.029844277
0.53997767 0.076966748 0.031048618
0.5431453 0.078765117 0.033490948
0.54471189 0.080444328 0.034695644
0.54948151 0.082315333 0.03837654
0.5510487 0.083971292 0.039581779
0.552616 0.085619502 0.040787131
0.55498433 0.087304033 0.04261183
0.55655199 0.088934802 0.043817546
0.55811989 0.090557821 0.045023479
0.56128985 0.092249602 0.047468055
0.56285816 0.093853235 0.048674352
0.56282449 0.095380366 0.048642177
0.56519413 0.097004816 0.050468128
0.56516063 0.098526128 0.050436072
0.56512707 0.10004744 0.050404016
0.56509358 0.10156875 0.05037196
0.56506002 0.10309006 0.050339907
0.56502652 0.10461138 0.050307851
0.56499296 0.10613269 0.050275795
0.56495947 0.10765401 0.050243739
0.56332302 0.10914144 0.048972253
0.5632894 0.11066663 0.048940115
0.56325579 0.11219182 0.048907977
0.56322217 0.113717 0.048875842
0.56238699 0.11523301 0.048223857
0.52390373 0.059484545 0.016672701
0.52546549 0.061256781 0.017878134
0.52702743 0.063021265 0.019083669
0.52699178 0.064639471 0.019049572
0.5285539 0.066392332 0.020255361
0.53011632 0.068137437 0.021461347
0.53327686 0.070001677 0.023907546
0.53324157 0.071604386 0.023873776
0.53640258 0.073445372 0.026320465
0.53956395 0.075270854 0.028767439
0.53952903 0.076858059 0.028733995
0.54269093 0.078660287 0.03118149
0.54425466 0.080343381 0.032388795
0.54741716 0.082118474 0.034836881
0.55058002 0.08387807 0.037285242
0.55214447 0.085530147 0.03849319
0.55450845 0.087218545 0.040321734
0.5576722 0.088937439 0.042770952
0.55923724 0.090560451 0.043979511
0.56080246 0.092175707 0.0451882
0.56236786 0.093783215 0.046397086
0.56393343 0.095382966 0.047606099
0.56469947 0.096942537 0.048194591
0.56626534 0.098528728 0.049403936
0.56623179 0.10005004 0.04937188
0.56619829 0.10157135 0.049339823
0.56616473 0.10309266 0.049307767
0.56613123 0.10461397 0.049275711
0.56609768 0.10613529 0.049243655
0.56606418 0.1076566 0.049211599
0.56443053 0.10914405 0.04793749
0.56439692 0.11066923 0.047905352
0.56436336 0.11219442 0.047873214
0.56432974 0.11371961 0.047841076
0.56429613 0.1152448 0.047808941
0.52348977 0.05933718 0.01432739
0.52504861 0.061113287 0.015535314
0.52660763 0.062881634 0.016743444
0.52816683 0.064642236 0.017951695
0.52813119 0.06626045 0.017917598
0.52969062 0.068009421 0.019126104
0.53284544 0.069877528 0.021577472
0.53440535 0.071607128 0.022786418
0.53756082 0.073448099 0.025238369
0.53912109 0.075158313 0.02644768
0.54068154 0.076860771 0.027657157
0.54383785 0.078662984 0.030109921
0.54539877 0.08034607 0.031319849
0.54695982 0.0820214 0.032529898
0.5485211 0.083688974 0.033740152
0.55167848 0.085440807 0.036193937
0.55483621 0.087177128 0.038648091
0.55719626 0.088855825 0.040480785
0.55875838 0.090482704 0.041691855
0.56032073 0.092101827 0.042903129
0.56188321 0.093713209 0.044114523
0.56344587 0.095316835 0.045326125
0.56580698 0.096945137 0.047159836
0.56577337 0.09847033 0.047127701
0.5673365 0.10005263 0.048339751
0.567303 0.10157395 0.048307694
0.56726944 0.10309526 0.048275638
0.56723595 0.10461657 0.048243582
0.56720239 0.10613789 0.048211526
0.56716889 0.1076592 0.04817947
0.56713533 0.10918051 0.048147418
0.56550443 0.11067184 0.0468706
0.56547087 0.11219703 0.046838462
0.56543726 0.11372221 0.046806324
0.56540364 0.11524741 0.046774186
0.56696773 0.11678708 0.047987137
0.5246014 0.062599644 0.013152945
0.52774978 0.064506501 0.015608765
0.52771401 0.066128582 0.015574586
0.52927059 0.067881428 0.016785624
0.53241968 0.069753394 0.019242179
0.53397667 0.071486853 0.020453626
0.53553385 0.073212571 0.02166529
0.53709114 0.074930526 0.022877075
0.54024142 0.076752111 0.025334692
0.543392 0.078558184 0.027792634
0.54494995 0.080245137 0.029005062
0.54650819 0.081924334 0.030217707
0.5480665 0.083595783 0.031430461
0.55121821 0.085351475 0.033889465
0.55277693 0.087003537 0.035102639
0.55592924 0.088732101 0.037562214
0.55828518 0.090404972 0.039398968
0.55984455 0.09202797 0.040612753
0.56140417 0.093643211 0.04182674
0.5629639 0.095250703 0.043040846
0.56611764 0.096915312 0.045501765
0.56608397 0.098442435 0.04546959
0.56684726 0.099998124 0.046060801
0.56681365 0.10152331 0.046028662
0.56837416 0.10309786 0.047243506
0.56834066 0.10461917 0.04721145
0.5683071 0.10614049 0.047179393
0.5682736 0.1076618 0.047147337
0.56824005 0.10918311 0.047115281
0.56820655 0.11070442 0.047083229
0.56657839 0.11219963 0.0458037
0.56654477 0.11372482 0.045771562
0.56810594 0.11526836 0.04698706
0.56807244 0.11678968 0.046955004
0.56803888 0.11831099 0.046922948
0.52419567 0.06246005 0.010799523
0.52574903 0.064232267 0.012012842
0.52889192 0.066131353 0.014474085
0.53044564 0.067884192 0.015687758
0.53199953 0.069629274 0.016901596
0.53355366 0.071366601 0.01811564
0.53669769 0.073215306 0.020577943
0.53666234 0.074818015 0.020544173
0.53980684 0.076643459 0.023006968
0.54136169 0.078345902 0.024221692
0.54450679 0.080144219 0.026685068
0.5476523 0.081927024 0.029148763
0.54761755 0.083502606 0.029115563
0.55076355 0.085262157 0.031579737
0.55231941 0.086918093 0.032795455
0.55546594 0.08865051 0.035260212
0.55781758 0.090327248 0.037100829
0.55937409 0.09195412 0.038317163
0.56093079 0.093573228 0.039533656
0.56248766 0.095184594 0.040750351
0.56722653 0.09691792 0.044465691
0.56719291 0.098445043 0.044433512
0.56795478 0.10000072 0.045026042
0.56792116 0.10152591 0.044993903
0.56788754 0.1030511 0.044961765
0.56944537 0.10462177 0.046179321
0.56941181 0.10614308 0.046147265
0.56937832 0.10766439 0.046115212
0.56934476 0.10918571 0.046083156
0.56931126 0.11070702 0.0460511
0.5692777 0.11222833 0.046019044
0.56924421 0.11374965 0.045986988
0.56921065 0.11527096 0.045954932
0.56917715 0.11679227 0.045922875
0.56755143 0.11830299 0.044640392
0.56751782 0.11982818 0.044608254
0.52534604 0.064096555 0.0096567143
0.52848321 0.065999508 0.012123135
0.53003407 0.067756213 0.013339405
0.53158504 0.069505163 0.014555785
0.5347231 0.07136935 0.017023023
0.53627455 0.073098928 0.018239811
0.53782618 0.074820749 0.019456815
0.53937793 0.076534815 0.02067394
0.54092991 0.07824114 0.021891262
0.54406929 0.080043308 0.024359763
0.54720902 0.08182998 0.026828634
0.54876167 0.083505295 0.028046614
0.55031449 0.085172847 0.029264715
0.55186749 0.086832657 0.030483015
0.55659598 0.08865317 0.034204412
0.55814946 0.090289719 0.035423163
0.55890924 0.091880277 0.036016308
0.56046301 0.093503267 0.037235349
0.56201696 0.095118493 0.038454551
0.56674737 0.096855678 0.042177752
0.56830186 0.098447651 0.043397438
0.56826818 0.099974781 0.043365259
0.56902868 0.10152852 0.043959141
0.56899512 0.1030537 0.043927003
0.57055008 0.10462437 0.045147188
0.57051653 0.10614568 0.045115132
0.57048303 0.10766699 0.045083076
0.57044947 0.1091883 0.045051023
0.57041597 0.11070962 0.045018967
0.57038242 0.11223093 0.044986911
0.57034892 0.11375225 0.044954855
0.57031536 0.11527356 0.044922799
0.57028186 0.11679487 0.044890743
0.56865895 0.11830559 0.043605629
0.56862533 0.11983078 0.043573491
0.56779701 0.12135456 0.042914763
0.52649635 0.06573306 0.0085138949
0.52804422 0.067497514 0.0097326366
0.53276014 0.069507927 0.013457909
0.53430849 0.07124912 0.014677087
0.53744113 0.07310167 0.017149828
0.53898996 0.074823484 0.018369464
0.53895468 0.076426193 0.018335693
0.54208809 0.078243859 0.020809164
0.54522181 0.08004602 0.023282925
0.54677141 0.081732951 0.024503289
0.54832113 0.083412133 0.025723774
0.55145574 0.085175529 0.028198395
0.55142111 0.086747229 0.028165277
0.55614114 0.088571601 0.031894479
0.55769175 0.090212025 0.033115823
0.56003505 0.091882929 0.034964457
0.56158602 0.093505904 0.036186125
0.56313717 0.09512113 0.037407957
0.5646885 0.096728608 0.038629994
0.56941074 0.098450258 0.042361364
0.56937712 0.099977389 0.042329185
0.57013625 0.10153112 0.042924378
0.57010263 0.10305631 0.04289224
0.57165474 0.10462696 0.044115055
0.57162124 0.10614828 0.044082999
0.57158768 0.10766959 0.044050943
0.57155418 0.1091909 0.044018887
0.57152069 0.11071222 0.043986831
0.57148713 0.11223353 0.043954778
0.57145363 0.11375484 0.043922722
0.5698337 0.11525782 0.042635139
0.56980008 0.11678301 0.042603005
0.56976646 0.11830819 0.042570867
0.56893957 0.11983003 0.041910864
0.56890595 0.12135717 0.041878685
0.53393519 0.069510691 0.012360038
0.53548074 0.071251877 0.013581846
0.53702646 0.072985314 0.01480386
0.53857237 0.074710995 0.016025994
0.54011846 0.076428927 0.017248336
0.54008317 0.078031637 0.017214565
0.54479277 0.079945132 0.020949773
0.54633939 0.081635937 0.022172647
0.54788625 0.083318986 0.023395723
0.5510152 0.085086249 0.025875522
0.55256242 0.086749919 0.027098963
0.55569196 0.088490047 0.029579327
0.5588218 0.090214677 0.032060023
0.56036973 0.091847338 0.033284117
0.56112671 0.093435958 0.033879932
0.56267494 0.095055051 0.035104312
0.56422335 0.096666396 0.036328856
0.56893712 0.098391905 0.040068075
0.57048607 0.099979997 0.041293103
0.57124376 0.10153373 0.041889615
0.57121015 0.10305891 0.041857477
0.57275945 0.10462956 0.043082926
0.57272595 0.10615087 0.04305087
0.57269239 0.10767218 0.043018818
0.5726589 0.1091935 0.042986762
0.57262534 0.11071482 0.042954706
0.57100844 0.11221005 0.041664653
0.57097483 0.11373524 0.041632514
0.57094121 0.11526042 0.041600376
0.57090765 0.11678562 0.041568242
0.57008219 0.11830552 0.040906962
0.57004851 0.11983264 0.040874787
0.53507459 0.071131662 0.01122807
0.53819591 0.072988063 0.013711249
0.53973901 0.074713737 0.014936013
0.53970361 0.07632032 0.014902161
0.54124695 0.078034379 0.016127212
0.54594815 0.079947852 0.019870309
0.54749197 0.081638642 0.021095809
0.54903603 0.083321683 0.022321515
0.5505802 0.084996976 0.02354734
0.55212456 0.086664513 0.024773372
0.5536691 0.088324301 0.025999526
0.55837244 0.090137005 0.029744746
0.55991751 0.091773532 0.030971432
0.56146276 0.093402311 0.032198239
0.56379795 0.095057689 0.034055091
0.5653435 0.096669026 0.035282262
0.57004887 0.098394521 0.039029371
0.57159495 0.099982604 0.040257029
0.57156134 0.10150973 0.04022485
0.57231766 0.10306152 0.040822722
0.57228404 0.10458671 0.040790584
0.57383066 0.10615347 0.042018738
0.57379711 0.10767478 0.041986682
0.57376361 0.1091961 0.041954625
0.57373005 0.11071741 0.041922573
0.57211596 0.11221265 0.040629894
0.57208234 0.11373784 0.040597759
0.57125843 0.11525387 0.039935246
0.57122475 0.116781 0.039903067
0.57119113 0.11830813 0.039870888
0.5695765 0.11982856 0.038577732
0.5362497 0.071134426 0.010130194
0.5377897 0.07287173 0.011357343
0.53932989 0.07460127 0.012584698
0.54087025 0.07632307 0.013812173
0.54241079 0.078037113 0.015039856
0.54710346 0.079950571 0.018790847
0.54864448 0.081641354 0.020018976
0.55018574 0.083324388 0.021247312
0.55015087 0.084907718 0.021213949
0.55169231 0.086579129 0.022442486
0.55323392 0.088242784 0.02367123
0.55950534 0.090139665 0.02868632
0.55947095 0.091699742 0.028653448
0.56101328 0.093332388 0.029882846
0.56334418 0.094991632 0.03174356
0.56488687 0.096606836 0.032973278
0.56958365 0.09833619 0.036728151
0.57112688 0.099928141 0.037958406
0.57267022 0.10151234 0.039188776
0.5726366 0.10303947 0.039156597
0.57339156 0.10458931 0.039755821
0.57335794 0.1061145 0.039723683
0.57490182 0.10767739 0.040954549
0.57486832 0.1091987 0.040922493
0.57325715 0.11069006 0.039627269
0.57322353 0.11221526 0.039595131
0.57240099 0.11372935 0.038931347
0.57236737 0.11525648 0.038899168
0.57075572 0.11676917 0.037603546
0.57072198 0.11830017 0.037571285
0.57068825 0.11983117 0.037539024
0.53742474 0.07113719 0.009032323
0.5373891 0.072755404 0.0089982254
0.53892636 0.074488819 0.010228085
0.54046386 0.076214485 0.011458152
0.54200143 0.077932395 0.012688339
0.5466857 0.079849705 0.016447177
0.54822379 0.081544362 0.017677853
0.54976207 0.08323127 0.018908693
0.55130059 0.084910423 0.020139741
0.55283922 0.086581826 0.021370906
0.55437803 0.088245474 0.022602281
0.55906445 0.090062007 0.026363198
0.5606038 0.091702402 0.027595019
0.56214333 0.093335047 0.028827045
0.56368297 0.09495993 0.030059192
0.56600988 0.096609481 0.031924054
0.56912404 0.098277867 0.034421716
0.57066435 0.099873684 0.035654474
0.57220489 0.10146175 0.036887441
0.57374549 0.10304207 0.038120523
0.57371187 0.1045692 0.038088344
0.57446545 0.10611711 0.03868892
0.5744319 0.10764229 0.038656782
0.57439828 0.10916749 0.038624644
0.57436466 0.11069267 0.038592506
0.57354361 0.11220483 0.037927452
0.57350993 0.11373196 0.037895273
0.5719012 0.11524078 0.036597099
0.57186747 0.11677178 0.036564842
0.57183373 0.11830278 0.036532581
0.57022464 0.11982711 0.03523403
0.56861538 0.12135919 0.033935364
0.53849286 0.075994588 0.0078321593
0.54002744 0.077720247 0.0090648122
0.54313266 0.07954172 0.011564504
0.54623818 0.081347696 0.014064523
0.54934412 0.08313816 0.016564865
0.55087966 0.08482118 0.017798416
0.55084467 0.086408384 0.017764973
0.55238056 0.08807978 0.018998811
0.55548745 0.089823738 0.021500137
0.5585947 0.09155219 0.024001785
0.56013119 0.093192577 0.025236234
0.56166786 0.094825208 0.026470847
0.56320477 0.096450098 0.027705668
0.56867009 0.098219559 0.032109976
0.56863612 0.099762194 0.032077473
0.57017362 0.101358 0.033312902
0.5732829 0.10299537 0.035816476
0.57324916 0.10452638 0.035784215
0.57321537 0.10605738 0.035751954
0.57475346 0.10762606 0.036987912
0.57471985 0.10915319 0.036955733
0.57468617 0.11068031 0.036923554
0.57308042 0.11218139 0.035622917
0.57304668 0.11371239 0.035590656
0.57144064 0.1152251 0.034289721
0.56983447 0.11674555 0.032988671
0.56980062 0.11828431 0.032956246
0.5697667 0.11982306 0.032923825
0.56816012 0.12135902 0.031622402
0.54119974 0.077723004 0.0079695657
0.54273176 0.079440899 0.0092050554
0.54583156 0.081250735 0.011710253
0.547364 0.082949258 0.012946107
0.55203223 0.084823892 0.016721578
0.55199724 0.086411096 0.016688133
0.55353028 0.088082485 0.017924603
0.55663157 0.089826427 0.020431189
0.55973321 0.091554865 0.022938095
0.5612669 0.093195245 0.024175175
0.56280071 0.094827875 0.025412418
0.56433481 0.09645275 0.026649868
0.56586897 0.098069876 0.027887437
0.56818771 0.099707775 0.02976043
0.56972229 0.10130746 0.030998366
0.57125705 0.10289939 0.032236513
0.57122314 0.10443814 0.032204088
0.5727582 0.10601845 0.033442434
0.57429338 0.107591 0.034680985
0.57425964 0.109122 0.034648724
0.5742259 0.110653 0.034616467
0.57419217 0.112184 0.034584206
0.57258904 0.11369283 0.033280723
0.57098579 0.11520942 0.031977125
0.57095188 0.11674818 0.0319447
0.56934834 0.11827639 0.030640811
0.5693143 0.11981902 0.030608306
0.56928033 0.12136165 0.030575801
0.54390121 0.079443648 0.0081124445
0.54543054 0.081153788 0.0093506835
0.54696006 0.082856178 0.010589129
0.55161977 0.084734678 0.014372407
0.55314976 0.086413808 0.0156113
0.55311483 0.088001013 0.015577856
0.55777568 0.089829117 0.019362245
0.55930626 0.091481119 0.020601708
0.56083709 0.093125373 0.021841375
0.56236809 0.094761863 0.023081161
0.56389922 0.096390612 0.024321115
0.56543052 0.098011605 0.025561277
0.56931072 0.099710412 0.028711205
0.57084244 0.10131009 0.029951774
0.57080847 0.10285272 0.029919269
0.57234055 0.10444077 0.031160124
0.57230663 0.10597952 0.031127701
0.57383889 0.10755594 0.032368757
0.57537138 0.10912461 0.03361002
0.57377124 0.1106257 0.032304075
0.57373744 0.11216058 0.032271732
0.57370359 0.11369546 0.032239389
0.57210314 0.11521205 0.03093316
0.57206923 0.11675081 0.030900737
0.57203531 0.11828956 0.030868312
0.57043451 0.11982165 0.029561713
0.54659712 0.081156537 0.0082606971
0.5481239 0.08285892 0.0095017729
0.55121297 0.084645472 0.012017973
0.5527401 0.086328469 0.013259414
0.55426735 0.088003717 0.014501018
0.55423242 0.089590922 0.014467574
0.56044757 0.091483802 0.019535389
0.56041294 0.093055502 0.019502271
0.56194103 0.094695874 0.02074465
0.56346929 0.096328482 0.021987151
0.56499767 0.097953349 0.023229817
0.56887078 0.099656016 0.026386281
0.57039964 0.10125956 0.027629396
0.57192868 0.10285535 0.028872674
0.57189465 0.10439798 0.028840169
0.57342398 0.10598215 0.030083736
0.57339007 0.10752091 0.030051311
0.57491964 0.10909344 0.03129508
0.57488585 0.11062832 0.03126274
0.57485199 0.1121632 0.031230398
0.57481819 0.11369808 0.031198055
0.57478434 0.11523296 0.031165713
0.57318664 0.11675343 0.029856771
0.57315272 0.11829219 0.029824348
0.57311881 0.11983094 0.029791925
0.57308489 0.1213697 0.029759502
0.55081171 0.084556274 0.0096582463
0.55389547 0.086331189 0.012179951
0.55541992 0.088006429 0.013424184
0.55538493 0.089593634 0.01339074
0.56158888 0.091486484 0.018469069
0.56155425 0.093058184 0.018435953
0.56307954 0.094698548 0.01968096
0.56460494 0.096331157 0.020926092
0.56613052 0.097956009 0.022171387
0.56921649 0.099630147 0.024695221
0.57152265 0.1012622 0.026580172
0.57148856 0.10280871 0.026547585
0.57301486 0.10440062 0.027793575
0.57298088 0.10594325 0.02776107
0.57450747 0.10752353 0.029007347
0.57603419 0.10909607 0.030253746
0.57600039 0.11063094 0.030221405
0.57596654 0.11216582 0.030189062
0.57593274 0.1137007 0.03015672
0.57589889 0.11523558 0.030124379
0.57586509 0.11677046 0.030092038
0.57583123 0.11830533 0.030059695
0.57423615 0.11983357 0.028747961
0.57420224 0.12137233 0.028715538
0.57260692 0.12291218 0.027403515
0.55349416 0.086245872 0.0098201754
0.55501574 0.087924987 0.011066957
0.55653751 0.089596346 0.012313902
0.56117326 0.091412768 0.016122203
0.56269556 0.093060873 0.017369637
0.56421798 0.094701223 0.018617274
0.56574059 0.096333824 0.019865036
0.56726336 0.097958677 0.021112962
0.56878638 0.099575773 0.022361094
0.57108819 0.1012117 0.024249906
0.57261157 0.10281135 0.02549836
0.57257748 0.10435785 0.025465775
0.57410103 0.10594589 0.026714476
0.57406706 0.10748851 0.026681971
0.57559091 0.10906491 0.02793096
0.57711494 0.11063357 0.029180069
0.57708108 0.11216844 0.029147727
0.57704729 0.11370332 0.029115386
0.57701343 0.1152382 0.029083045
0.57697964 0.11677308 0.029050702
0.57694578 0.11830796 0.029018361
0.57535356 0.1198362 0.027703997
0.57531965 0.12137495 0.027671574
0.57372707 0.12291482 0.026356921
0.5736931 0.12445745 0.026324416
0.55461723 0.087843552 0.0087044751
0.55613607 0.089518785 0.0099539682
0.56231737 0.091415457 0.015053259
0.56383681 0.093063556 0.016303319
0.56380218 0.094635256 0.016270202
0.56532192 0.096271724 0.017520549
0.56684184 0.097900443 0.018771023
0.56836188 0.099521413 0.020021658
0.5714367 0.10118777 0.022556175
0.57217985 0.10276473 0.023165384
0.57370049 0.1043605 0.024416551
0.57522124 0.10594852 0.025667882
0.57518721 0.10749115 0.025635377
0.57670832 0.10906754 0.026886996
0.57822949 0.11063618 0.028138734
0.57819569 0.11217106 0.028106393
0.57816184 0.11370594 0.028074052
0.57812804 0.11524082 0.028041709
0.57809418 0.1167757 0.028009368
0.57806039 0.11831058 0.027977027
0.57802653 0.11984546 0.027944684
0.576437 0.12137758 0.02662761
0.57484728 0.12291745 0.025310326
0.57481325 0.12446009 0.025277821
0.55729145 0.089521497 0.0088745002
0.56035894 0.091265365 0.011412642
0.56342679 0.092993721 0.013951111
0.56494349 0.094637938 0.015203887
0.56490886 0.096209638 0.015170769
0.56642586 0.097842224 0.016423829
0.56794304 0.099467061 0.017677013
0.57101214 0.10113728 0.020216702
0.57252973 0.10274274 0.021470295
0.57482344 0.10436314 0.023367327
0.5747894 0.10590965 0.02333474
0.57630742 0.10749378 0.024588782
0.57627344 0.10903642 0.024556277
0.57934403 0.1106388 0.027097395
0.57931024 0.11217368 0.027065054
0.57927638 0.11370856 0.027032712
0.58079517 0.1152617 0.02828745
0.58076143 0.11679269 0.028255191
0.5807277 0.1183237 0.028222932
0.57914108 0.11984808 0.026903344
0.5775544 0.12138021 0.02558364
0.57596743 0.12292009 0.024263732
0.57593346 0.12446272 0.024231227
0.55996019 0.091191679 0.009049953
0.56302232 0.092923902 0.0115936
0.56453615 0.094571985 0.012848962
0.56450146 0.096147567 0.012815763
0.56601554 0.09778402 0.014071332
0.56598091 0.09935572 0.014038214
0.57059318 0.10108681 0.017871931
0.57055879 0.10264688 0.017839059
0.57207358 0.10425233 0.019095324
0.57436317 0.10587078 0.02099634
0.57587832 0.10745879 0.02225293
0.57739359 0.10903905 0.023509677
0.57890916 0.11061155 0.024766639
0.58042479 0.11217631 0.026023719
0.58039099 0.11371119 0.025991376
0.58035713 0.11524606 0.025959035
0.58187318 0.11679531 0.027216487
0.58183944 0.11832631 0.027184226
0.58025563 0.1198507 0.02586201
0.57867175 0.12138283 0.024539676
0.57708764 0.12292272 0.023217132
0.57705367 0.12446535 0.023184627
0.56416923 0.092926599 0.010522021
0.56568027 0.094574682 0.011780018
0.56564558 0.096150257 0.011746819
0.56715679 0.097786702 0.013005018
0.56712216 0.09935841 0.0129719
0.57017988 0.10103635 0.015521945
0.57169163 0.10264955 0.016780628
0.57320362 0.10425499 0.018039525
0.57471573 0.10585269 0.01929854
0.57700133 0.10746143 0.0212037
0.57696724 0.10900794 0.021171113
0.58002651 0.11061418 0.023722675
0.57999259 0.11215293 0.023690252
0.58150554 0.1137138 0.024950042
0.58147168 0.11524868 0.024917701
0.58143789 0.11678356 0.024885358
0.58140403 0.11831844 0.024853017
0.58137023 0.11985332 0.024820676
0.5797891 0.12138546 0.023495711
0.57820785 0.12292536 0.022170538
0.57662642 0.12447301 0.020845247
0.56528133 0.094508752 0.009417166
0.56678969 0.096152946 0.010677869
0.56675494 0.097728521 0.010644671
0.56826347 0.099361092 0.011905581
0.57131553 0.10103902 0.014460884
0.57282448 0.10265221 0.015722202
0.57433367 0.10425765 0.016983729
0.5742994 0.10581385 0.016950937
0.57658064 0.10742646 0.01885996
0.57809025 0.10901058 0.020121891
0.57959998 0.11058695 0.021383986
0.58111 0.11215556 0.022646287
0.58107609 0.11369432 0.022613863
0.58258623 0.1152513 0.023876365
0.58255243 0.11678618 0.023844024
0.58251858 0.11832106 0.023811683
0.58094043 0.11984933 0.02248417
0.57936203 0.12138536 0.021156451
0.57778347 0.12292914 0.01982861
0.57774943 0.12447564 0.019796023
0.56789905 0.09773121 0.0095757265
0.56786436 0.099306792 0.0095425276
0.56937015 0.10093547 0.010806149
0.57395738 0.10265487 0.014663773
0.57392299 0.10421494 0.0146309
0.57542944 0.10581651 0.015895138
0.57693601 0.1074103 0.017159494
0.5776723 0.10897949 0.017775437
0.58072019 0.11058958 0.020337392
0.58068621 0.11213221 0.020304887
0.58219343 0.11369694 0.021569898
0.58215952 0.1152357 0.021537475
0.5821256 0.11677445 0.021505052
0.58209169 0.11831321 0.021472629
0.58051622 0.11984536 0.020142362
0.57894057 0.12138528 0.018811973
0.57890648 0.12293178 0.018779386
0.57051146 0.10093816 0.0097398292
0.57355243 0.10260831 0.012305815
0.57505584 0.10421761 0.013572475
0.57502145 0.10577768 0.013539602
0.57652515 0.10737535 0.014806545
0.57802898 0.10896527 0.016073614
0.58030218 0.11056237 0.017990856
0.58026809 0.11210887 0.01795827
0.58177239 0.11367747 0.019225787
0.58173835 0.11522011 0.019193282
0.58170438 0.11676273 0.019160777
0.5816704 0.11830536 0.019128272
0.58009768 0.1198414 0.017795336
0.58006358 0.12138791 0.01776275
0.58002949 0.12293442 0.017730163
0.5784564 0.12448596 0.016396901
0.57315314 0.10256176 0.0099425931
0.57465363 0.10417493 0.0112118
0.57615429 0.10578035 0.012481172
0.5776552 0.10737801 0.01375075
0.57915622 0.10896792 0.015020448
0.58142513 0.11056501 0.016941633
0.5813911 0.11211152 0.016909046
0.581357 0.11365802 0.016876459
0.58132291 0.11520453 0.016843872
0.58282459 0.11676537 0.018114183
0.58125472 0.11829754 0.0167787
0.58122069 0.11984405 0.016746113
0.58118659 0.12139055 0.016713526
0.57961643 0.12293823 0.015377715
0.57958227 0.12448861 0.015345047
0.57728714 0.10578301 0.011422747
0.57725275 0.10734309 0.011389874
0.57875097 0.10893687 0.012662158
0.58024925 0.1105229 0.013934568
0.58098137 0.1120882 0.014554541
0.58248001 0.11366066 0.015827235
0.58244592 0.11520717 0.015794648
0.58241183 0.11675368 0.015762063
0.58237773 0.11830018 0.015729476
0.58234364 0.11984669 0.015696889
0.58077639 0.12139049 0.01435853
0.58074224 0.12294088 0.014325862
0.57689047 0.10574422 0.0090567321
0.57838565 0.10734574 0.010331444
0.57835126 0.10890582 0.010298572
0.57984668 0.11049572 0.011573572
0.58210725 0.11209084 0.013502687
0.58207303 0.11364122 0.013470018
0.58203888 0.11519161 0.01343735
0.58353484 0.11675631 0.014712838
0.58197057 0.11829238 0.013372013
0.58193636 0.11984276 0.013339345
0.581137 0.12139179 0.012652433
0.57948411 0.10890848 0.0092401411
0.57944971 0.11046856 0.0092072682
0.58094245 0.11205457 0.01048498
0.58243525 0.11363284 0.011762813
0.58240104 0.11518516 0.011730104
0.58236682 0.11673748 0.011697394
0.58233261 0.1182898 0.011664685
0.5822984 0.11984212 0.011631976
0.58073664 0.12139175 0.010288236
0.58070236 0.12294795 0.010255445
0.58207244 0.11205723 0.0094291857
0.58203816 0.11361343 0.0093963947
0.58200389 0.11516962 0.0093636038
0.58349407 0.11674013 0.010644224
0.58345985 0.11829245 0.010611515
0.58190095 0.11983822 0.009265231
