# .PCD v0.7 - Point Cloud Data file format
VERSION 0.7
FIELDS x y z
SIZE 4 4 4
TYPE F F F
COUNT 1 1 1
WIDTH 1406
HEIGHT 1
VIEWPOINT 0 0 0 1 0 0 0
POINTS 1406
DATA ascii
0.406975 0.11500786 0.043304954
0.40790713 0.11583696 0.043771185
0.40793696 0.11681803 0.043765206
0.40796676 0.11779912 0.043759227
0.40799659 0.11878018 0.043753251
0.4080264 0.11976126 0.043747272
0.40805623 0.12074234 0.043741293
0.40808606 0.12172341 0.043735314
0.40811586 0.12270448 0.043729335
0.4081457 0.12368556 0.043723356
0.4081755 0.12466664 0.043717381
0.40820533 0.12564771 0.043711402
0.40823516 0.12662879 0.043705422
0.4073633 0.12778254 0.043227106
0.40739316 0.12876521 0.04322112
0.40742305 0.12974787 0.04321513
0.40835443 0.13055308 0.04368151
0.40838426 0.13153417 0.043675531
0.40841407 0.13251524 0.043669552
0.4084439 0.13349631 0.043663573
0.4084737 0.13447739 0.043657593
0.40850353 0.13545847 0.043651618
0.40853336 0.13643953 0.043645639
0.40946442 0.13723199 0.04411212
0.40949419 0.13821147 0.044106152
0.40952396 0.13919096 0.044100184
0.40865263 0.14036384 0.043621726
0.40868247 0.1413449 0.043615747
0.40871227 0.142326 0.043609768
0.4087421 0.14330706 0.043603789
0.4087719 0.14428814 0.04359781
0.40790093 0.14547056 0.043119323
0.40793079 0.14645323 0.043113332
0.40796068 0.1474359 0.043107346
0.40799055 0.14841856 0.043101355
0.40802041 0.14940123 0.043095369
0.40714973 0.15059321 0.042616818
0.40717962 0.15157747 0.04261082
0.40720955 0.15256172 0.042604823
0.25142133 0.39797413 -0.043722667
0.25413758 0.39782396 -0.042307869
0.25685349 0.39766428 -0.040893052
0.25956917 0.39749503 -0.039478138
0.26228455 0.39731622 -0.038063169
0.26410726 0.39760792 -0.037122387
0.26503748 0.39837489 -0.036655776
0.26775214 0.39817223 -0.035240661
0.26868206 0.39892966 -0.034773991
0.26961192 0.39968389 -0.034307312
0.2714338 0.39994693 -0.033366319
0.27236339 0.40069321 -0.032899585
0.2732929 0.4014363 -0.032432824
0.2751143 0.40168339 -0.031491734
0.27693549 0.40192413 -0.030550644
0.2787565 0.4021585 -0.029609475
0.28057724 0.40238649 -0.028668296
0.28239784 0.40260813 -0.027727088
0.39533174 0.098898798 0.036499705
0.39536226 0.09990216 0.036493592
0.39719692 0.10065262 0.037434079
0.39722732 0.10165281 0.037427984
0.39815968 0.10252336 0.037895199
0.39999396 0.10325948 0.038835764
0.40002421 0.10425489 0.038829699
0.40095627 0.10511588 0.03929697
0.40188825 0.10597369 0.039764263
0.40191841 0.10696591 0.039758217
0.40285027 0.10781894 0.040225524
0.40378201 0.10866879 0.040692866
0.40471369 0.10951543 0.041160252
0.4047437 0.11050288 0.041154232
0.4056752 0.11134475 0.041621622
0.40660661 0.11218346 0.04208903
0.40663654 0.11316772 0.042083032
0.4075678 0.11400163 0.042550456
0.40759766 0.1149843 0.042544469
0.40762752 0.11596697 0.042538483
0.40855858 0.11679451 0.043005958
0.40858841 0.1177756 0.042999979
0.40861824 0.11875666 0.042994
0.40864804 0.11973774 0.042988021
0.40867788 0.12071881 0.042982042
0.40870768 0.12169989 0.042976066
0.40783662 0.12284563 0.042496566
0.40786648 0.12382831 0.042490575
0.40789634 0.12481098 0.042484589
0.4079262 0.12579365 0.042478599
0.40795609 0.12677632 0.042472612
0.40798596 0.12775898 0.042466626
0.40801582 0.12874165 0.042460635
0.40804568 0.12972431 0.042454649
0.40807554 0.13070698 0.042448658
0.40810543 0.13168965 0.042442672
0.40813529 0.13267231 0.042436682
0.40816516 0.133655 0.042430695
0.40819502 0.13463765 0.042424709
0.40912518 0.13543494 0.042892367
0.40915498 0.136416 0.042886388
0.40918481 0.1373971 0.042880408
0.40921462 0.13837816 0.042874433
0.40924445 0.13935925 0.042868454
0.40927428 0.14034031 0.042862475
0.40930408 0.14132139 0.042856496
0.40843397 0.142499 0.042376801
0.40846384 0.14348166 0.042370815
0.40849373 0.14446433 0.042364825
0.40852359 0.145447 0.042358838
0.40855345 0.14642966 0.042352851
0.40768361 0.14761683 0.041873109
0.40771353 0.14860108 0.041867111
0.40684387 0.14979303 0.041387327
0.40687382 0.15077887 0.041381322
0.4069038 0.15176474 0.041375313
0.40693375 0.15275058 0.041369308
0.25133508 0.39841571 -0.045181625
0.25404829 0.3982673 -0.043763176
0.25765273 0.39763403 -0.041869216
0.26036537 0.3974649 -0.040450614
0.26307774 0.39728621 -0.039031956
0.26489842 0.39757797 -0.038088698
0.26671892 0.39786339 -0.03714541
0.26853928 0.39814246 -0.036202047
0.26946819 0.39889991 -0.035734143
0.27039704 0.39965418 -0.035266232
0.27221692 0.39991727 -0.034322772
0.2731455 0.40066361 -0.033854801
0.27496499 0.40091556 -0.032911312
0.27589339 0.40165392 -0.032443266
0.2786034 0.40140039 -0.031024178
0.28042236 0.4016332 -0.030080533
0.28224105 0.4018597 -0.029136876
0.28405961 0.40207979 -0.028193166
0.28587794 0.40229356 -0.027249431
0.28769606 0.40250093 -0.02630567
0.3950358 0.097993009 0.035254832
0.39596751 0.09887474 0.035723213
0.39689916 0.099753283 0.036191635
0.39692962 0.10075506 0.036185533
0.39786106 0.10162883 0.036653958
0.3996934 0.10236982 0.037596937
0.39972371 0.10336681 0.037590861
0.40065491 0.10423102 0.038059372
0.401586 0.10509206 0.038527869
0.40251696 0.1059499 0.038996391
0.40254712 0.10694212 0.038990345
0.40347794 0.10779519 0.039458901
0.40440869 0.10864507 0.03992746
0.40443873 0.10963411 0.039921433
0.40536937 0.11047921 0.040390063
0.40629986 0.11132112 0.040858682
0.40632984 0.11230698 0.040852677
0.40726018 0.11314412 0.041321326
0.4072901 0.11412838 0.041315328
0.40822029 0.11496074 0.041783996
0.40825015 0.11594341 0.041778009
0.40828004 0.11692608 0.041772023
0.40830991 0.11790875 0.041766033
0.40833977 0.11889141 0.041760046
0.40836963 0.11987408 0.041754056
0.40839952 0.12085674 0.041748069
0.40842938 0.12183942 0.041742083
0.40845925 0.12282208 0.041736092
0.40848911 0.12380475 0.041730106
0.40851897 0.12478742 0.041724116
0.40854886 0.12577009 0.041718129
0.40857872 0.12675275 0.041712139
0.40860859 0.12773542 0.041706152
0.40863845 0.12871809 0.041700166
0.40866834 0.12970075 0.041694175
0.4086982 0.13068342 0.041688189
0.40872806 0.13166609 0.041682199
0.40875793 0.13264875 0.041676212
0.40878779 0.13363144 0.041670222
0.40881768 0.1346141 0.041664235
0.40884754 0.13559677 0.041658249
0.4088774 0.13657942 0.041652258
0.40890726 0.1375621 0.041646272
0.40893716 0.13854475 0.041640282
0.40896702 0.13952744 0.041634295
0.40899688 0.1405101 0.041628309
0.40902674 0.14149277 0.041622318
0.4090566 0.14247544 0.041616332
0.4090865 0.1434581 0.041610342
0.40821752 0.14464045 0.041129395
0.40824744 0.1456247 0.041123398
0.40827736 0.14660898 0.0411174
0.4074086 0.14779769 0.040636405
0.40743855 0.14878353 0.040630396
0.40746853 0.1497694 0.040624391
0.40749848 0.15075524 0.040618382
0.40662995 0.15195192 0.040137339
0.40665999 0.15293936 0.040131323
0.40669 0.15392682 0.040125303
0.25214139 0.3983852 -0.04616642
0.25485158 0.3982369 -0.044744272
0.258452 0.39760378 -0.042845391
0.2611616 0.39743477 -0.041423079
0.26387092 0.3972562 -0.040000718
0.26568958 0.39754805 -0.039055005
0.26750806 0.39783353 -0.03810925
0.26932639 0.39811265 -0.037163422
0.27025431 0.39887014 -0.036694285
0.27118215 0.3996245 -0.03622514
0.273 0.39988765 -0.035279214
0.27392757 0.40063402 -0.03481001
0.27574503 0.40088606 -0.033864055
0.27756235 0.40113172 -0.032918032
0.27937943 0.40137103 -0.031971987
0.28119636 0.40160394 -0.031025887
0.28301305 0.40183049 -0.030079763
0.28482959 0.40205067 -0.029133586
0.28664589 0.40226451 -0.028187385
0.28846198 0.40247193 -0.027241156
0.29027796 0.40267301 -0.026294863
0.3947418 0.097083949 0.034007512
0.39567259 0.097968914 0.034477107
0.39660329 0.098850682 0.034946706
0.39663377 0.099854052 0.034940593
0.39756438 0.10073105 0.035410259
0.39849481 0.10160485 0.035879921
0.39942518 0.10247547 0.036349591
0.40035543 0.10334291 0.03681929
0.40128562 0.10420716 0.037289035
0.40221569 0.10506823 0.037758764
0.40314567 0.10592611 0.038228519
0.40317583 0.10691833 0.038222473
0.40410563 0.10777144 0.038692251
0.40503538 0.10862136 0.039162055
0.40506542 0.1096104 0.039156027
0.40599504 0.11045553 0.039625891
0.40602508 0.11144298 0.039619874
0.4069545 0.11228334 0.040089726
0.40698448 0.11326919 0.040083718
0.40791374 0.11410478 0.040553614
0.40794367 0.11508904 0.040547617
0.40887281 0.11591985 0.04101754
0.40890267 0.11690252 0.04101155
0.40893254 0.11788519 0.041005563
0.4089624 0.11886785 0.040999573
0.40899229 0.11985052 0.040993586
0.40902215 0.12083318 0.040987596
0.40905201 0.12181586 0.040981609
0.40908188 0.12279852 0.040975623
0.40821293 0.12394739 0.040493634
0.40824285 0.12493165 0.040487636
0.40827274 0.1259159 0.040481638
0.40830266 0.12690017 0.04047564
0.40833259 0.12788442 0.040469643
0.40836251 0.12886868 0.040463645
0.40839243 0.12985294 0.040457647
0.40842235 0.1308372 0.04045165
0.40845227 0.13182147 0.040445652
0.40848216 0.13280572 0.040439654
0.40941045 0.13360788 0.040909752
0.40944031 0.13459054 0.040903766
0.40947017 0.13557321 0.040897775
0.40950003 0.13655587 0.040891789
0.40952992 0.13753854 0.040885799
0.40955979 0.13852119 0.040879812
0.40958965 0.13950388 0.040873822
0.40961951 0.14048654 0.040867835
0.40875143 0.14166407 0.040385675
0.40878135 0.14264832 0.040379677
0.40881127 0.14363259 0.040373679
0.40884119 0.14461684 0.040367682
0.40797332 0.14580233 0.039885473
0.4080033 0.14678819 0.039879464
0.40713558 0.14797847 0.039397236
0.40716559 0.14896591 0.03939122
0.40629798 0.15016097 0.038908925
0.40632802 0.15115 0.038902897
0.40635809 0.15213905 0.03889687
0.40638816 0.15312809 0.038890842
0.40552086 0.1543311 0.038408529
0.25024021 0.39849332 -0.048577033
0.25294769 0.39835471 -0.047151215
0.25565487 0.3982065 -0.045725368
0.25836179 0.39804873 -0.044299435
0.26195782 0.39740464 -0.042395566
0.26466411 0.39722618 -0.040969506
0.26648074 0.3975181 -0.040021311
0.26740795 0.39828521 -0.039551012
0.27011353 0.39808288 -0.038124807
0.27104044 0.3988404 -0.037654441
0.27196726 0.39959478 -0.037184063
0.27378309 0.39985803 -0.036235668
0.27559868 0.40011492 -0.035287276
0.27652511 0.40085655 -0.034816809
0.27834043 0.40110227 -0.03386832
0.28015548 0.40134165 -0.032919817
0.28197038 0.40157464 -0.031971239
0.28378505 0.40180126 -0.031022662
0.28559959 0.40202153 -0.030074017
0.28741384 0.40223545 -0.02912535
0.29011661 0.4019407 -0.027698582
0.29193047 0.40214026 -0.026749838
0.29285559 0.40283889 -0.026279122
0.39534897 0.096053258 0.033234686
0.39537957 0.097059816 0.033228554
0.39630935 0.097944818 0.033699378
0.39633989 0.098949783 0.033693254
0.39726952 0.099829994 0.034164101
0.39819911 0.10070702 0.034635
0.39912856 0.10158087 0.035105884
0.40005791 0.10245153 0.035576798
0.40098715 0.10331901 0.036047719
0.40191635 0.10418329 0.036518697
0.40284541 0.1050444 0.03698967
0.40377435 0.10590232 0.037460648
0.40380451 0.10689455 0.037454601
0.40473333 0.10774769 0.037925623
0.40566203 0.10859765 0.038396653
0.4056921 0.10958669 0.038390625
0.40662071 0.11043186 0.038861718
0.40665072 0.1114193 0.038855702
0.40757915 0.11225971 0.039326802
0.40760911 0.11324555 0.039320793
0.40763909 0.11423141 0.039314784
0.40856731 0.11506545 0.03978591
0.40859723 0.11604971 0.039779913
0.40862715 0.11703397 0.039773915
0.40865707 0.11801822 0.039767917
0.408687 0.11900248 0.03976192
0.40871692 0.11998674 0.039755922
0.40874681 0.120971 0.039749924
0.40877673 0.12195526 0.039743926
0.40880665 0.12293952 0.039737929
0.40883657 0.12392379 0.039731931
0.40886649 0.12490805 0.039725933
0.40889642 0.12589231 0.039719936
0.40892631 0.12687658 0.039713938
0.40895623 0.12786083 0.03970794
0.40898615 0.1288451 0.039701942
0.40901607 0.12982935 0.039695945
0.40904599 0.13081361 0.039689947
0.40907592 0.13179787 0.039683949
0.40910584 0.13278213 0.039677951
0.40913573 0.1337664 0.039671954
0.40916565 0.13475065 0.039665956
0.40919557 0.13573492 0.039659955
0.40922549 0.13671917 0.039653957
0.40925542 0.13770343 0.039647959
0.40928534 0.13868769 0.039641961
0.40931523 0.13967195 0.039635964
0.40934515 0.14065622 0.039629966
0.40937507 0.14164047 0.039623968
0.40940499 0.14262474 0.039617971
0.40853804 0.14380699 0.039134558
0.40856802 0.14479285 0.039128553
0.40859798 0.1457787 0.039122544
0.40773124 0.14696735 0.038639084
0.40776125 0.14795479 0.038633063
0.40689459 0.14914823 0.038149547
0.40692466 0.15013726 0.038143519
0.40695471 0.1511263 0.038137492
0.40608829 0.15232609 0.037653975
0.40611842 0.15331671 0.037647936
0.40614852 0.15430735 0.037641902
0.25104952 0.39846271 -0.049565531
0.25286546 0.39879611 -0.048615098
0.25645813 0.3981761 -0.046706464
0.25916204 0.39801845 -0.045276832
0.26186565 0.39785123 -0.04384714
0.26368055 0.39815283 -0.04289655
0.26638365 0.39796808 -0.041466765
0.26819813 0.39825532 -0.04051609
0.27001247 0.39853618 -0.039565336
0.27182657 0.39881065 -0.038614582
0.27275237 0.39956507 -0.038142972
0.2745662 0.3998284 -0.03719211
0.27637976 0.40008536 -0.036241248
0.27730519 0.40082702 -0.035769559
0.27911845 0.40107283 -0.034818593
0.2809315 0.40131229 -0.033867627
0.28274438 0.40154535 -0.032916594
0.28455704 0.40177205 -0.03196555
0.28636956 0.40199241 -0.031014439
0.28906947 0.40170577 -0.029584045
0.29088154 0.40191174 -0.028632848
0.29269338 0.40211138 -0.027681638
0.29450506 0.40230465 -0.026730362
0.29542902 0.40299851 -0.02625837
0.39595616 0.095022574 0.032461848
0.39598677 0.096029125 0.032455716
0.39691558 0.096915752 0.032927766
0.39694613 0.097920723 0.032921642
0.3978748 0.098802574 0.033393711
0.39790529 0.099805936 0.033387594
0.39883387 0.10068301 0.03385973
0.3997623 0.10155689 0.034331847
0.40069064 0.10242759 0.034803994
0.40161887 0.10329511 0.035276148
0.40254706 0.10415942 0.035748359
0.40347511 0.10502058 0.036220554
0.40440306 0.10587853 0.036692776
0.40443322 0.10687076 0.03668673
0.40536103 0.10772394 0.037158974
0.40628871 0.10857394 0.037631247
0.40631878 0.10956297 0.03762522
0.40724638 0.11040818 0.038097549
0.40727639 0.11139563 0.038091529
0.40730643 0.11238308 0.038085513
0.40823379 0.11322192 0.038557842
0.40826374 0.11420777 0.038551837
0.40829372 0.11519363 0.038545828
0.4092209 0.11602611 0.039018203
0.4092508 0.11701036 0.039012205
0.40928072 0.11799463 0.039006207
0.40931064 0.11897888 0.039000209
0.40934056 0.11996315 0.038994212
0.40937048 0.12094741 0.038988214
0.4094004 0.12193166 0.038982216
0.4094303 0.12291592 0.038976219
0.40946022 0.12390019 0.038970221
0.40859339 0.12505217 0.038485754
0.40862334 0.12603801 0.038479745
0.40865329 0.12702386 0.038473736
0.40868327 0.12800972 0.038467731
0.40871322 0.12899557 0.038461722
0.4087432 0.12998143 0.038455714
0.40877315 0.13096727 0.038449708
0.40880314 0.13195314 0.038443699
0.40972948 0.13275853 0.038916238
0.4097594 0.13374279 0.03891024
0.40978932 0.13472705 0.038904242
0.408923 0.13589653 0.038419671
0.40895295 0.13688239 0.038413662
0.40898293 0.13786824 0.038407654
0.40990898 0.1386641 0.038880251
0.40904287 0.13983995 0.03839564
0.40907282 0.14082581 0.038389634
0.4091028 0.14181165 0.038383625
0.40913275 0.14279751 0.038377617
0.4091627 0.14378336 0.038371611
0.40829688 0.14496878 0.037886944
0.40832689 0.14595622 0.037880927
0.40746114 0.14714643 0.037396196
0.40749121 0.14813547 0.037390169
0.40662566 0.14933044 0.036905434
0.40665579 0.15032108 0.036899399
0.40668589 0.1513117 0.03689336
0.40582052 0.15251304 0.036408599
0.40585068 0.15350527 0.036402553
0.40588084 0.15449749 0.036396507
0.25185886 0.39843208 -0.050554026
0.25367278 0.39876556 -0.049601138
0.25637394 0.3986192 -0.048167899
0.25907487 0.39846325 -0.046734586
0.26177549 0.39829776 -0.045301206
0.26358843 0.398601 -0.044348162
0.26628852 0.39841798 -0.04291467
0.26810107 0.39870685 -0.041961551
0.26991338 0.39898941 -0.041008379
0.27172557 0.39926556 -0.04005513
0.27353752 0.39953536 -0.039101891
0.27534929 0.39979875 -0.038148563
0.27716085 0.40005583 -0.037195235
0.27897224 0.40030646 -0.036241844
0.27989653 0.40104339 -0.035768893
0.28259444 0.40078872 -0.034334969
0.2835184 0.40151605 -0.033861957
0.28532904 0.40174285 -0.032908447
0.28713953 0.40196326 -0.03195487
0.28983644 0.40167674 -0.030520776
0.29164648 0.4018828 -0.029567113
0.29345629 0.4020825 -0.028613435
0.29526594 0.40227586 -0.027659694
0.29707536 0.40246284 -0.026705939
0.29799819 0.40315196 -0.026232697
0.395666 0.094106995 0.031209648
0.39659396 0.094998442 0.03168289
0.39752179 0.095886692 0.032156162
0.39755234 0.096891664 0.032150041
0.39758289 0.097896628 0.032143917
0.39851055 0.098778516 0.032617215
0.39854106 0.099781886 0.032611102
0.40036565 0.10053273 0.033563916
0.40129301 0.10140506 0.034037273
0.40222028 0.1022742 0.034510665
0.40225059 0.1032712 0.034504589
0.40317777 0.10413556 0.034978032
0.40410483 0.10499675 0.035451461
0.40503174 0.10585474 0.035924911
0.4050619 0.10684697 0.035918865
0.40598869 0.10770018 0.036392342
0.4069154 0.10855022 0.036865842
0.40694547 0.10953926 0.036859814
0.40697554 0.1105283 0.036853787
0.40790209 0.11137195 0.037327353
0.4079321 0.1123594 0.037321337
0.40796211 0.11334684 0.03731532
0.4088884 0.11418413 0.037788898
0.40891838 0.11516999 0.037782889
0.40894833 0.11615585 0.037776884
0.40897831 0.11714169 0.037770875
0.40900826 0.11812755 0.037764866
0.40903825 0.1191134 0.037758861
0.4090682 0.12009926 0.037752852
0.40909818 0.12108511 0.037746847
0.40912813 0.12207096 0.037740838
0.40915811 0.12305681 0.037734829
0.40918806 0.12404267 0.037728824
0.40921804 0.12502852 0.037722815
0.40924799 0.12601438 0.037716806
0.40927798 0.12700023 0.037710801
0.40930793 0.12798609 0.037704792
0.40933791 0.12897193 0.037698783
0.40936786 0.12995778 0.037692778
0.40939781 0.13094364 0.037686769
0.40942779 0.1319295 0.037680764
0.40945774 0.13291535 0.037674755
0.40948772 0.13390121 0.037668746
0.40951768 0.13488705 0.037662741
0.40954766 0.1358729 0.037656732
0.40957761 0.13685875 0.037650723
0.40960759 0.13784461 0.037644718
0.40963754 0.13883045 0.037638709
0.40966752 0.13981631 0.037632704
0.40969747 0.14080217 0.037626695
0.40883252 0.14198276 0.03714082
0.40886253 0.14297022 0.037134804
0.40889254 0.14395766 0.037128784
0.40892255 0.1449451 0.037122767
0.40805775 0.14613368 0.036636818
0.40808782 0.14712273 0.036630791
0.40722325 0.14831607 0.036144838
0.40725335 0.14930668 0.036138803
0.40638891 0.15050481 0.035652827
0.40641907 0.15149704 0.035646781
0.40644923 0.15248926 0.035640735
0.40558499 0.15369374 0.035154715
0.40561518 0.15468755 0.035148658
0.4056454 0.15568139 0.035142601
0.2526682 0.39840147 -0.051542509
0.25448009 0.39873502 -0.050587155
0.25717822 0.39858878 -0.049150229
0.25898969 0.39890799 -0.048194788
0.26168731 0.3987442 -0.046757754
0.26349834 0.3990491 -0.045802224
0.26530913 0.39934763 -0.044846684
0.268006 0.39915836 -0.043409467
0.26981634 0.39944258 -0.042453837
0.27162656 0.39972037 -0.041498143
0.27343652 0.39999184 -0.040542435
0.2761324 0.39976913 -0.039105017
0.27794191 0.40002626 -0.038149223
0.2797513 0.40027699 -0.037193362
0.28067458 0.40101394 -0.036719169
0.28336945 0.4007594 -0.035281554
0.28517821 0.40099102 -0.034325603
0.28610104 0.40171364 -0.033851333
0.28790951 0.40193412 -0.032895289
0.29060337 0.40164772 -0.03145751
0.29241142 0.40185386 -0.030501377
0.2942192 0.40205365 -0.029545235
0.29602686 0.40224707 -0.028589025
0.29783425 0.40243414 -0.027632805
0.29964146 0.4026148 -0.026676545
0.30056316 0.40329915 -0.026202014
0.39720112 0.093967751 0.030910064
0.39723173 0.094974309 0.03090393
0.39815858 0.095862605 0.031378426
0.39818913 0.096867569 0.031372301
0.39911583 0.097751088 0.031846825
0.39914632 0.098754458 0.031840712
0.40007293 0.099633195 0.032315303
0.4009994 0.10050874 0.032789875
0.40192574 0.10138112 0.033264473
0.40285203 0.10225029 0.03373909
0.40377825 0.10311629 0.034213755
0.40470433 0.1039791 0.034688406
0.40563029 0.10483873 0.035163082
0.40566045 0.10583096 0.035157036
0.40658629 0.1066858 0.035631739
0.40661639 0.10767644 0.035625704
0.40664652 0.10866707 0.035619665
0.40757215 0.10951555 0.036094405
0.40760222 0.11050458 0.036088377
0.40763226 0.11149362 0.03608235
0.40766233 0.11248267 0.036076322
0.40858778 0.11332317 0.03655114
0.40861779 0.11431061 0.036545124
0.40864781 0.11529806 0.036539108
0.40867782 0.11628551 0.036533091
0.40870783 0.11727296 0.036527075
0.40963295 0.11810391 0.037001923
0.4096629 0.11908977 0.036995918
0.40969288 0.12007562 0.036989909
0.40972283 0.12106147 0.0369839
0.40975279 0.12204733 0.036977895
0.40978277 0.12303317 0.036971886
0.40981272 0.12401903 0.036965877
0.40894794 0.12517253 0.036478937
0.40897796 0.12615997 0.036472917
0.40900797 0.12714742 0.0364669
0.40903798 0.12813485 0.036460884
0.40906799 0.1291223 0.036454868
0.40909803 0.13010974 0.036448848
0.40912804 0.1310972 0.036442831
0.40915805 0.13208464 0.036436815
0.40918806 0.13307209 0.036430798
0.40921807 0.13405953 0.036424782
0.40924808 0.13504697 0.036418762
0.40927809 0.13603443 0.036412746
0.40930811 0.13702187 0.036406729
0.40933812 0.13800931 0.036400713
0.40936813 0.13899675 0.036394693
0.40939814 0.13998421 0.036388677
0.40942818 0.14097165 0.03638266
0.40945819 0.1419591 0.036376644
0.4094882 0.14294654 0.036370624
0.40862432 0.1441319 0.03588346
0.40865439 0.14512093 0.035877436
0.40868443 0.14610997 0.035871409
0.40782082 0.14730167 0.035384238
0.40785092 0.14829232 0.035378203
0.40788105 0.14928293 0.035372164
0.40701762 0.15048102 0.034884948
0.40704778 0.15147324 0.034878902
0.40618449 0.15267611 0.03439166
0.40621468 0.15366991 0.034385603
0.4062449 0.15466373 0.034379546
0.4053818 0.15587297 0.03389227
0.25078186 0.39849949 -0.053971566
0.25347754 0.39837083 -0.052531019
0.25528744 0.39870447 -0.051573198
0.25709707 0.39903176 -0.050615363
0.25890651 0.39935267 -0.04965749
0.26160118 0.39919057 -0.048216742
0.26341024 0.39949712 -0.047258753
0.26521906 0.39979735 -0.046300769
0.26791295 0.39960974 -0.044859849
0.26972136 0.39989564 -0.043901775
0.27241471 0.39969057 -0.042460751
0.27422267 0.3999621 -0.041502587
0.27514538 0.40071502 -0.04102727
0.27783802 0.40048608 -0.039586101
0.27964541 0.40073848 -0.038627822
0.28145263 0.40098453 -0.037669465
0.28414449 0.40073007 -0.036228154
0.28506643 0.40145749 -0.035752665
0.28687304 0.40168443 -0.034794234
0.28867948 0.401905 -0.03383572
0.29137033 0.40161872 -0.032394242
0.29317635 0.40182492 -0.031435642
0.29498211 0.40202478 -0.030477032
0.29678774 0.40221828 -0.029518357
0.29859313 0.40240541 -0.028559681
0.30039832 0.40258616 -0.027600953
0.30220336 0.40276051 -0.026642162
0.30312386 0.40344018 -0.026166396
0.39783892 0.093943618 0.030131098
0.39876479 0.094833538 0.030606823
0.39879534 0.09583851 0.030600699
0.39972109 0.096723653 0.031076448
0.39975157 0.097727031 0.031070333
0.39978209 0.0987304 0.031064218
0.40160275 0.099484585 0.032021943
0.40163314 0.10048477 0.032015849
0.40255848 0.10135718 0.032491677
0.40348375 0.10222639 0.032967526
0.40440896 0.10309242 0.033443421
0.40533403 0.10395528 0.033919308
0.406259 0.10481495 0.034395214
0.40628916 0.10580717 0.034389168
0.40721399 0.10666206 0.0348651
0.40724409 0.10765269 0.034859065
0.40727419 0.10864332 0.03485303
0.40819883 0.10949183 0.035329007
0.40822887 0.11048087 0.035322979
0.40825894 0.11146991 0.035316952
0.40828902 0.11245895 0.035310924
0.40831906 0.11344799 0.035304897
0.40924346 0.11428694 0.035780959
0.40927348 0.11527439 0.035774942
0.40930349 0.11626184 0.035768926
0.4093335 0.11724928 0.035762906
0.40936351 0.11823673 0.03575689
0.40939352 0.11922417 0.035750873
0.40942353 0.12021162 0.035744857
0.40945354 0.12119906 0.035738837
0.40948358 0.12218651 0.035732821
0.40951359 0.12317394 0.035726804
0.4095436 0.1241614 0.035720788
0.40957361 0.12514885 0.035714772
0.40960363 0.12613629 0.035708752
0.40963364 0.12712374 0.035702735
0.40966365 0.12811117 0.035696719
0.40969366 0.12909862 0.035690702
0.40972367 0.13008606 0.035684682
0.40975368 0.13107352 0.035678666
0.40978372 0.13206097 0.03567265
0.40981373 0.13304842 0.035666633
0.40984374 0.13403586 0.035660613
0.40987375 0.1350233 0.035654597
0.40990376 0.13601075 0.035648581
0.40993378 0.13699819 0.035642564
0.40996379 0.13798565 0.035636544
0.4099938 0.13897307 0.035630528
0.41002381 0.13996053 0.035624512
0.40916082 0.14114107 0.035136145
0.40919086 0.14213011 0.035130117
0.40922093 0.14311914 0.03512409
0.409251 0.14410818 0.035118062
0.40928105 0.14509721 0.035112035
0.40841839 0.14628729 0.034623638
0.40844852 0.14727792 0.034617599
0.40847862 0.14826857 0.034611564
0.40761614 0.14946501 0.03412313
0.4076463 0.15045723 0.034117084
0.40767646 0.15144946 0.034111038
0.40770662 0.15244168 0.034104992
0.40684441 0.15364608 0.033616506
0.40598226 0.15485369 0.033128005
0.40601251 0.1558491 0.03312194
0.25159422 0.39846873 -0.054963749
0.25340232 0.39881042 -0.054003511
0.25521019 0.39914575 -0.053043272
0.25701791 0.39947465 -0.052082952
0.25882539 0.39979723 -0.051122624
0.26151708 0.39963686 -0.049678184
0.26243982 0.40042326 -0.049201835
0.26513103 0.40024695 -0.047757294
0.26693767 0.40054247 -0.046796814
0.26962838 0.40034866 -0.045352168
0.27143458 0.40062982 -0.044391587
0.27412471 0.40041849 -0.042946834
0.27593049 0.40068531 -0.041986179
0.27862012 0.40045649 -0.040541321
0.28042546 0.40070897 -0.039580561
0.28223068 0.40095508 -0.038619742
0.28403562 0.40119484 -0.037658919
0.28584045 0.40142819 -0.036698017
0.28764504 0.40165523 -0.03573712
0.28944945 0.40187585 -0.03477614
0.29125366 0.40209016 -0.033815153
0.29394126 0.40179598 -0.032369897
0.29574502 0.40199593 -0.031408831
0.29754862 0.40218946 -0.03044769
0.29935199 0.40237671 -0.029486535
0.30115518 0.40255752 -0.028525352
0.30295819 0.40273196 -0.027564093
0.30476099 0.40290004 -0.026602834
0.39937103 0.093804486 0.029835209
0.39940158 0.09480945 0.029829085
0.39943212 0.095814414 0.029822962
0.40035686 0.096699603 0.030299949
0.40038735 0.097702973 0.030293833
0.40131199 0.098583378 0.030770877
0.40223649 0.099460602 0.031247906
0.40316087 0.10033464 0.031724956
0.40408516 0.10120549 0.032202031
0.40500942 0.10207315 0.032679152
0.40503967 0.10306856 0.032673083
0.40596372 0.10393145 0.033150204
0.40688768 0.10479116 0.033627339
0.40691784 0.10578338 0.033621293
0.406948 0.1067756 0.033615246
0.40787178 0.10762893 0.034092426
0.40790188 0.10861956 0.034086391
0.40793198 0.10961019 0.034080353
0.40796211 0.11060082 0.034074318
0.40799221 0.11159146 0.034068279
0.4089157 0.11243524 0.034545515
0.40894574 0.11342428 0.034539487
0.40897581 0.11441331 0.03453346
0.40900588 0.11540236 0.034527432
0.40903595 0.11639139 0.034521405
0.40906599 0.11738043 0.034515381
0.40998918 0.11821305 0.034992713
0.41001919 0.11920049 0.034986697
0.41004923 0.12018795 0.034980677
0.41007924 0.12117539 0.034974661
0.41010925 0.12216283 0.034968644
0.41013926 0.12315027 0.034962628
0.41016927 0.12413772 0.034956612
0.41019928 0.12512517 0.034950592
0.4102293 0.12611261 0.034944575
0.40936664 0.12727082 0.034455109
0.40939668 0.12825985 0.034449082
0.40942675 0.12924889 0.034443058
0.40945682 0.13023792 0.034437031
0.40948686 0.13122697 0.034431003
0.40951693 0.13221601 0.034424976
0.409547 0.13320504 0.034418948
0.40957707 0.13419409 0.03441292
0.40960711 0.13518311 0.034406897
0.40963718 0.13617216 0.034400869
0.40966725 0.1371612 0.034394842
0.40969729 0.13815023 0.034388814
0.40972736 0.13913926 0.034382787
0.40975744 0.14012831 0.034376759
0.40978751 0.14111736 0.034370732
0.40981755 0.14210638 0.034364708
0.40984762 0.14309543 0.03435868
0.40898585 0.14428228 0.033869073
0.40901598 0.14527291 0.033863034
0.40904608 0.14626354 0.033856999
0.40907618 0.14725418 0.03385096
0.40821469 0.148449 0.033361301
0.40824485 0.14944121 0.033355255
0.40827501 0.15043344 0.033349209
0.40741369 0.15163463 0.032859512
0.40744391 0.15262845 0.032853454
0.4074741 0.15362225 0.032847401
0.40750432 0.15461607 0.032841343
0.40753451 0.15560991 0.032835286
0.40667349 0.15682064 0.032345533
0.25240657 0.39843801 -0.055955946
0.25332913 0.39924988 -0.055478491
0.25601852 0.39911515 -0.054030534
0.25694078 0.39991751 -0.053553022
0.2587463 0.40024173 -0.052590236
0.2605516 0.40055963 -0.05162742
0.26235679 0.4008711 -0.050664529
0.26416171 0.40117624 -0.049701639
0.2668497 0.40099367 -0.048253361
0.26953739 0.40080157 -0.046805028
0.27134165 0.40108442 -0.045841999
0.27402881 0.40087476 -0.044393558
0.27583262 0.40114328 -0.043430444
0.27851924 0.40091613 -0.041981898
0.28032261 0.40117031 -0.041018683
0.28212586 0.40141809 -0.040055417
0.28481168 0.40116549 -0.038606741
0.28661448 0.40139893 -0.037643384
0.28841701 0.40162602 -0.036680005
0.29021946 0.40184674 -0.035716575
0.2920216 0.4020611 -0.034753118
0.2938236 0.40226907 -0.033789635
0.29650795 0.40196705 -0.032340631
0.29830953 0.40216067 -0.031377021
0.30011088 0.40234798 -0.030413412
0.30191204 0.40252888 -0.029449763
0.30371305 0.4027034 -0.028486038
0.3055138 0.40287158 -0.027522312
0.30731443 0.40303335 -0.026558509
0.40000781 0.093780391 0.029057477
0.40093163 0.094668798 0.029535672
0.40096211 0.095672168 0.029529558
0.40099263 0.096675545 0.029523443
0.40102312 0.097678922 0.02951733
0.40283984 0.09843643 0.030479964
0.40287024 0.099436618 0.030473869
0.4037936 0.1003107 0.030952152
0.40471691 0.10118159 0.031430461
0.40564016 0.10204928 0.031908806
0.4056704 0.1030447 0.031902742
0.40659344 0.10390762 0.032381099
0.40751639 0.10476737 0.032859467
0.40754655 0.10575959 0.032853421
0.40757671 0.10675181 0.032847375
0.40760687 0.10774404 0.032841329
0.40852958 0.10859581 0.033319745
0.40855968 0.10958645 0.03331371
0.40858981 0.11057708 0.033307675
0.40861991 0.11156771 0.033301637
0.40865001 0.11255834 0.033295602
0.40868014 0.11354897 0.033289563
0.40960249 0.1143896 0.03376805
0.40963256 0.11537865 0.033762023
0.40966263 0.11636768 0.033755995
0.40969267 0.11735672 0.033749968
0.40972275 0.11834576 0.03374394
0.40975282 0.11933479 0.033737916
0.40978286 0.12032384 0.033731889
0.40981293 0.12131287 0.033725861
0.409843 0.12230191 0.033719834
0.40987307 0.12329094 0.033713806
0.40990311 0.12427999 0.033707779
0.40993318 0.12526903 0.033701755
0.40996325 0.12625806 0.033695728
0.40999332 0.12724711 0.0336897
0.41002336 0.12823613 0.033683673
0.41005343 0.12922518 0.033677645
0.4100835 0.13021421 0.033671618
0.41011354 0.13120326 0.033665594
0.41014361 0.1321923 0.033659566
0.41017368 0.13318133 0.033653539
0.41020375 0.13417037 0.033647511
0.4102338 0.1351594 0.033641484
0.41026387 0.13614845 0.033635456
0.41029394 0.13713749 0.033629432
0.41032398 0.13812652 0.033623405
0.41035405 0.13911556 0.033617377
0.40949312 0.14029601 0.033126574
0.40952322 0.14128664 0.033120539
0.40955335 0.14227727 0.0331145
0.40958345 0.1432679 0.033108465
0.40961355 0.14425853 0.033102427
0.40964368 0.14524917 0.033096392
0.40967378 0.14623979 0.033090353
0.40881324 0.14743298 0.032599475
0.4088434 0.14842521 0.032593429
0.40887356 0.14941743 0.032587383
0.40890372 0.15040965 0.032581337
0.40804338 0.15161081 0.032090407
0.4080736 0.15260462 0.03208435
0.40810382 0.15359843 0.032078296
0.40813401 0.15459225 0.032072239
0.40816423 0.15558608 0.032066181
0.40730423 0.15679678 0.031575192
0.25145379 0.3993443 -0.057921071
0.2541405 0.39921919 -0.056469455
0.25594437 0.39955628 -0.055504292
0.25686562 0.40036029 -0.05502557
0.25955158 0.40021127 -0.05357381
0.26047257 0.40100572 -0.053095043
0.26227576 0.40131891 -0.052129693
0.26407874 0.40162569 -0.051164348
0.26676372 0.40144482 -0.049712379
0.26856625 0.4017373 -0.048746943
0.27125072 0.40153894 -0.04729487
0.27305281 0.40181708 -0.046329346
0.27573675 0.40160117 -0.044877179
0.27753839 0.40186501 -0.043911558
0.28022182 0.40163159 -0.042459279
0.28290492 0.40138859 -0.041006938
0.28470591 0.40163013 -0.04004119
0.28650674 0.40186524 -0.039075367
0.28830731 0.40209401 -0.038109541
0.29010773 0.40231639 -0.037143681
0.29278958 0.40203205 -0.035691082
0.29458952 0.4022401 -0.034725133
0.29727086 0.40193817 -0.033272427
0.29907045 0.40213189 -0.032306366
0.30086976 0.40231928 -0.03134029
0.3026689 0.40250024 -0.030374162
0.30446789 0.40267482 -0.029407982
0.30626664 0.40284309 -0.028441789
0.30894646 0.40249181 -0.026988784
0.31074476 0.40264574 -0.026022503
0.40064457 0.093756296 0.028279752
0.40156737 0.09464474 0.02875918
0.40159789 0.095648117 0.028753065
0.40162838 0.096651487 0.028746951
0.40344316 0.097412266 0.029712027
0.40347356 0.098412454 0.029705932
0.404396 0.099288166 0.030185444
0.40442634 0.10028675 0.030179359
0.40534863 0.10115769 0.030658893
0.40627086 0.10202542 0.031138474
0.40630111 0.10302083 0.031132409
0.40722314 0.1038838 0.031611994
0.4081451 0.10474358 0.032091595
0.40817526 0.1057358 0.032085549
0.40820542 0.10672802 0.032079503
0.40823558 0.10772025 0.032073457
0.40826574 0.10871247 0.032067411
0.40918738 0.1095627 0.032547079
0.40921748 0.11055332 0.03254104
0.40924761 0.11154395 0.032535005
0.40927771 0.11253459 0.032528967
0.40930781 0.11352522 0.032522932
0.40933794 0.11451586 0.032516893
0.40936804 0.11550649 0.032510858
0.40939814 0.11649712 0.032504823
0.40942827 0.11748774 0.032498784
0.40945837 0.11847838 0.032492749
0.41037947 0.11931108 0.032972515
0.41040954 0.12030012 0.032966491
0.41043961 0.12128916 0.032960463
0.41046968 0.1222782 0.032954436
0.41049972 0.12326723 0.032948408
0.41052979 0.12425628 0.032942381
0.41055986 0.12524532 0.032936353
0.41058993 0.12623435 0.032930329
0.41061997 0.12722339 0.032924302
0.40975946 0.12838468 0.032432381
0.40978959 0.12937532 0.032426346
0.40981969 0.13036594 0.032420307
0.40984979 0.13135658 0.032414272
0.40987992 0.13234721 0.032408234
0.40991002 0.13333784 0.032402199
0.40994012 0.13432848 0.03239616
0.40997025 0.1353191 0.032390125
0.41000035 0.13630974 0.03238409
0.41003045 0.13730036 0.032378051
0.41006058 0.138291 0.032372016
0.41009068 0.13928162 0.032365978
0.41012079 0.14027226 0.032359943
0.41015092 0.14126289 0.032353904
0.41018102 0.14225352 0.032347869
0.41021115 0.14324416 0.03234183
0.40935144 0.14443251 0.031849742
0.4093816 0.14542475 0.031843696
0.40941176 0.14641698 0.03183765
0.40944192 0.1474092 0.031831603
0.40947208 0.14840142 0.031825557
0.40950224 0.14939365 0.031819511
0.40864289 0.15059316 0.031327359
0.40867311 0.15158698 0.031321302
0.40959272 0.15237032 0.031801373
0.40873352 0.1535746 0.031309191
0.40876374 0.15456842 0.031303134
0.40790468 0.15577751 0.030810924
0.40793493 0.15677291 0.030804858
0.40796518 0.15776832 0.030798793
0.40799543 0.15876372 0.030792726
0.25138661 0.399782 -0.059403431
0.25407025 0.39965862 -0.057948142
0.25587222 0.39999735 -0.056980494
0.25767395 0.40032968 -0.056012835
0.25859416 0.40113053 -0.055532847
0.26039553 0.40145174 -0.054565117
0.26219669 0.40176663 -0.053597338
0.26399773 0.40207502 -0.052629508
0.26579854 0.40237713 -0.051661663
0.26848033 0.40219006 -0.050205968
0.27116182 0.40199339 -0.048750207
0.27296194 0.40227318 -0.047782227
0.2756429 0.40205899 -0.046326369
0.27744257 0.4023245 -0.0453583
0.280123 0.40209278 -0.043902323
0.28280309 0.40185153 -0.042446326
0.28460217 0.40209469 -0.041478097
0.28728175 0.40183592 -0.040021952
0.28908032 0.40206474 -0.039053664
0.29087871 0.40228724 -0.038085334
0.29267693 0.40250331 -0.037116937
0.29535547 0.4022111 -0.035660621
0.29803377 0.40190932 -0.034204226
0.29983133 0.4021031 -0.033235695
0.30162865 0.40229055 -0.032267153
0.30342576 0.4024716 -0.031298559
0.30610302 0.40213639 -0.029841963
0.30789971 0.40230313 -0.028873295
0.30969626 0.40246344 -0.027904561
0.31149256 0.40261745 -0.026935814
0.40217265 0.093617313 0.02798879
0.40220314 0.09462069 0.027982675
0.40223363 0.095624059 0.027976561
0.40315536 0.096507765 0.028457284
0.40318581 0.097509541 0.02845118
0.4041073 0.098388478 0.028931899
0.40502873 0.099264219 0.029412638
0.40505907 0.10026281 0.029406553
0.40598035 0.10113378 0.029887322
0.40690157 0.10200156 0.030368136
0.40693182 0.10299697 0.030362071
0.40785286 0.10385997 0.030842887
0.40788308 0.10485379 0.030836832
0.40791327 0.1058476 0.030830776
0.4088341 0.10670424 0.031311631
0.40886426 0.10769646 0.031305585
0.40889442 0.10868868 0.031299539
0.40892458 0.10968091 0.031293493
0.40895474 0.11067313 0.031287447
0.4089849 0.11166535 0.0312814
0.40901506 0.11265758 0.031275354
0.40904522 0.1136498 0.031269308
0.4099656 0.1144921 0.031750251
0.40999573 0.11548273 0.031744216
0.41002584 0.11647337 0.031738177
0.41005594 0.11746399 0.031732142
0.41008607 0.11845463 0.031726103
0.41011617 0.11944525 0.031720068
0.4101463 0.12043589 0.03171403
0.4101764 0.12142652 0.031707995
0.4102065 0.12241715 0.031701956
0.41023663 0.12340777 0.031695921
0.41026673 0.12439841 0.031689886
0.41029683 0.12538905 0.031683847
0.41032696 0.12637967 0.031677812
0.41035706 0.12737031 0.031671774
0.41038716 0.12836093 0.031665739
0.41041729 0.12935157 0.0316597
0.41044739 0.13034219 0.031653665
0.41047749 0.13133283 0.031647626
0.41050762 0.13232347 0.031641591
0.41053772 0.13331409 0.031635556
0.41056782 0.13430473 0.031629518
0.41059795 0.13529535 0.031623483
0.41062805 0.13628599 0.031617444
0.40976903 0.13746317 0.031124195
0.40979919 0.13845539 0.031118149
0.40982935 0.13944761 0.031112103
0.40985951 0.14043984 0.031106057
0.40988967 0.14143208 0.03110001
0.40991983 0.14242429 0.031093964
0.40994999 0.14341651 0.031087918
0.40998015 0.14440873 0.03108187
0.41001031 0.14540096 0.031075824
0.41004047 0.14639318 0.031069778
0.41007063 0.1473854 0.031063732
0.41010079 0.14837764 0.031057686
0.40924239 0.14957552 0.03056431
0.40927261 0.15056933 0.030558255
0.4093028 0.15156315 0.030552197
0.40933302 0.15255697 0.030546142
0.40847486 0.15376282 0.030052718
0.40939343 0.15454459 0.030534029
0.40853539 0.15575364 0.030040586
0.40856564 0.15674905 0.03003452
0.40859589 0.15774445 0.030028455
0.40862617 0.15873986 0.030022388
0.40776831 0.15995687 0.029528871
0.25044084 0.40068805 -0.061377216
0.25312161 0.40056798 -0.059918217
0.25580212 0.40043831 -0.058459174
0.25760186 0.40077233 -0.057489056
0.25940147 0.40109998 -0.056518875
0.26120082 0.40142125 -0.055548679
0.26211971 0.40221423 -0.055067435
0.264799 0.40204471 -0.053608149
0.26571763 0.4028281 -0.053126846
0.26839644 0.4026427 -0.051667463
0.27019483 0.40293217 -0.050697073
0.2728731 0.40272921 -0.049237583
0.27555102 0.40251675 -0.047778063
0.2782287 0.40229475 -0.046318442
0.28090611 0.40206316 -0.044858776
0.28270334 0.40231436 -0.043888155
0.28538021 0.40206528 -0.042428382
0.287177 0.40230215 -0.041457675
0.28897366 0.40253264 -0.040486898
0.29077005 0.40275675 -0.039516114
0.29344591 0.40247419 -0.038056139
0.29612142 0.40218213 -0.036596131
0.29879668 0.40188044 -0.035136025
0.30059221 0.40207431 -0.034165028
0.30238751 0.40226185 -0.03319402
0.30506203 0.40193465 -0.03173377
0.30685687 0.40210786 -0.030762674
0.30865154 0.4022747 -0.029791538
0.31044605 0.40243506 -0.028820338
0.31224033 0.40258914 -0.027849125
0.31403446 0.40273681 -0.026877847
0.4028084 0.093593262 0.027212296
0.40283892 0.094596632 0.027206182
0.4028694 0.095600002 0.027200067
0.40379012 0.096483745 0.027682018
0.40382054 0.097485527 0.027675914
0.40474105 0.098364495 0.028157867
0.40566146 0.099240281 0.02863984
0.4056918 0.10023887 0.028633755
0.40661207 0.10110988 0.029115757
0.40664238 0.10210688 0.029109681
0.40756255 0.1029731 0.029591739
0.4075928 0.10396851 0.029585673
0.40762305 0.10496392 0.029579608
0.40854299 0.10582378 0.030061677
0.40857318 0.1068176 0.030055622
0.4086034 0.10781141 0.030049564
0.40863359 0.10880522 0.030043509
0.40866381 0.10979903 0.030037453
0.40958345 0.11064934 0.03051958
0.40961361 0.11164156 0.030513534
0.40964377 0.11263379 0.030507488
0.4096739 0.11362602 0.030501442
0.40970406 0.11461823 0.030495396
0.40973422 0.11561047 0.03048935
0.40976438 0.11660269 0.030483304
0.40979454 0.11759491 0.030477257
0.4098247 0.11858714 0.030471209
0.41074386 0.1194215 0.030953435
0.41077396 0.12041214 0.030947398
0.40991518 0.1215638 0.030453071
0.40994534 0.12255603 0.030447025
0.4099755 0.12354825 0.030440979
0.41000566 0.12454048 0.030434933
0.41003582 0.1255327 0.030428886
0.41006598 0.12652491 0.03042284
0.41009614 0.12751715 0.030416792
0.4101263 0.12850936 0.030410746
0.41015646 0.1295016 0.0304047
0.41018662 0.1304938 0.030398654
0.41021678 0.13148603 0.030392608
0.41024694 0.13247827 0.030386562
0.4102771 0.13347049 0.030380515
0.41030726 0.13446271 0.030374469
0.41033742 0.13545494 0.030368423
0.41036758 0.13644716 0.030362377
0.41039774 0.13743939 0.030356329
0.4104279 0.13843161 0.030350283
0.41045806 0.13942383 0.030344237
0.41048822 0.14041606 0.03033819
0.41051838 0.14140828 0.030332144
0.41054854 0.1424005 0.030326098
0.4105787 0.14339273 0.030320052
0.40972108 0.1445826 0.029825492
0.40975127 0.14557643 0.029819435
0.40978149 0.14657024 0.029813379
0.40981168 0.14756405 0.029807324
0.4098419 0.14855789 0.029801266
0.40987211 0.14955169 0.029795211
0.4099023 0.15054551 0.029789155
0.40904507 0.15174814 0.029294517
0.40907535 0.15274355 0.029288452
0.4091056 0.15373895 0.029282385
0.40913585 0.15473436 0.029276319
0.4091661 0.15572979 0.029270254
0.40919635 0.15672518 0.029264187
0.40833941 0.15793897 0.028769456
0.40836972 0.15893596 0.02876338
0.40840003 0.15993297 0.028757306
0.25037867 0.40112555 -0.062865719
0.2530565 0.40100715 -0.061403044
0.25573397 0.40087923 -0.059940346
0.25753179 0.40121493 -0.058967747
0.25932938 0.40154424 -0.057995133
0.2602475 0.40234354 -0.057512667
0.26204476 0.40266174 -0.05653999
0.26384181 0.40297356 -0.055567268
0.26651788 0.40279782 -0.054104242
0.26831454 0.4030953 -0.053131409
0.27099001 0.40290207 -0.051668305
0.27278626 0.40318516 -0.050695386
0.2754612 0.40297443 -0.04923217
0.2781359 0.4027541 -0.047768872
0.2799314 0.40301496 -0.046795845
0.28260559 0.40277711 -0.045332439
0.28527948 0.40252972 -0.043868978
0.28795302 0.40227279 -0.042405494
0.28974766 0.40250334 -0.041432254
0.29154205 0.40272754 -0.040459
0.29421487 0.40244511 -0.038995326
0.29688737 0.40215313 -0.037531618
0.29955959 0.40185156 -0.036067825
0.30135313 0.40204552 -0.035094362
0.30314639 0.40223312 -0.034120884
0.30581787 0.40190607 -0.032656934
0.30761069 0.40207934 -0.031683374
0.30940333 0.40224624 -0.03070977
0.31119585 0.40240669 -0.029736103
0.3129881 0.40256086 -0.028762423
0.31478021 0.40270859 -0.027788678
0.3165721 0.40285 -0.026814932
0.40347466 0.094572574 0.026429677
0.40350518 0.095575951 0.026423564
0.40442485 0.096459724 0.026906747
0.4044553 0.097461507 0.026900643
0.4053748 0.098340519 0.027383829
0.40540519 0.099340707 0.027377734
0.40632454 0.10021493 0.027860951
0.40724379 0.10108598 0.028344186
0.4072741 0.10208298 0.02833811
0.40730441 0.10307997 0.028332034
0.40822351 0.10394464 0.028815335
0.40825379 0.10494006 0.02880927
0.40828404 0.10593546 0.028803203
0.40831429 0.10693087 0.028797138
0.40834454 0.10792628 0.028791072
0.40837479 0.10892168 0.028785007
0.40840507 0.1099171 0.02877894
0.40932372 0.11076903 0.029262286
0.40935394 0.11176284 0.02925623
0.40938413 0.11275666 0.029250175
0.40941435 0.11375048 0.029244117
0.40944457 0.11474429 0.029238062
0.41036293 0.11558668 0.029721472
0.41039309 0.1165789 0.029715426
0.41042325 0.11757112 0.02970938
0.41045341 0.11856335 0.029703334
0.41048357 0.11955556 0.029697286
0.41051373 0.12054779 0.02969124
0.41054389 0.12154001 0.029685194
0.41057405 0.12253224 0.029679148
0.41060421 0.12352446 0.029673101
0.41063437 0.12451669 0.029667055
0.41066453 0.1255089 0.029661009
0.41069469 0.12650113 0.029654963
0.41072485 0.12749335 0.029648917
0.41075501 0.12848558 0.029642871
0.41078517 0.12947781 0.029636823
0.41081533 0.13047002 0.029630776
0.41084549 0.13146225 0.02962473
0.40998828 0.13263299 0.029129053
0.4100185 0.1336268 0.029122997
0.41004869 0.13462062 0.029116942
0.41007891 0.13561444 0.029110886
0.41010913 0.13660826 0.029104829
0.41013932 0.13760206 0.029098773
0.41016954 0.13859589 0.029092718
0.41019973 0.1395897 0.029086661
0.41022995 0.14058352 0.029080605
0.41026017 0.14157733 0.02907455
0.41029036 0.14257115 0.029068492
0.41032058 0.14356497 0.029062437
0.41035077 0.14455877 0.029056381
0.41038099 0.14555261 0.029050324
0.40952453 0.14674722 0.028554508
0.40955478 0.14774263 0.028548442
0.40958503 0.14873806 0.028542377
0.40961528 0.14973345 0.02853631
0.40964553 0.15072887 0.028530246
0.40967581 0.15172426 0.028524179
0.40970606 0.15271968 0.028518112
0.40973631 0.15371509 0.028512048
0.40976655 0.1547105 0.028505981
0.40891054 0.15592107 0.028010035
0.40894082 0.15691806 0.028003961
0.40897113 0.15791507 0.027997885
0.40811536 0.15913199 0.027501926
0.4081457 0.16013059 0.027495841
0.25031856 0.40156296 -0.064356714
0.25211486 0.40191627 -0.063381776
0.25478944 0.4017916 -0.061915375
0.25746375 0.40165737 -0.060448904
0.25925937 0.40198842 -0.059473835
0.26105481 0.40231299 -0.058498699
0.26285005 0.40263128 -0.057523552
0.2646451 0.40294319 -0.056548379
0.26643997 0.40324864 -0.055573128
0.26823461 0.40354782 -0.054597862
0.27090716 0.40335628 -0.05313104
0.27357945 0.40315515 -0.051664159
0.2753734 0.40343201 -0.050688773
0.27804515 0.40321341 -0.049221784
0.27983868 0.40347591 -0.048246298
0.28250986 0.40323976 -0.0467792
0.28518072 0.40299413 -0.045312088
0.28785136 0.40273887 -0.043844875
0.289644 0.40297106 -0.04286918
0.29231405 0.40269834 -0.0414019
0.29410627 0.40291625 -0.040426113
0.29677579 0.40262598 -0.038958717
0.29944503 0.40232614 -0.037491232
0.30211401 0.40201673 -0.036023691
0.30390528 0.40220442 -0.035047762
0.30569634 0.40238568 -0.034071781
0.30836454 0.40205082 -0.032604083
0.31015515 0.40221778 -0.031628013
0.31194565 0.40237832 -0.030651892
0.31373587 0.40253255 -0.029675744
0.31552598 0.40268037 -0.028699534
0.31731582 0.40282187 -0.027723309
0.31910554 0.40295693 -0.02674702
0.32001805 0.40360659 -0.026262436
0.40411043 0.094548523 0.025653185
0.40414092 0.095551893 0.02564707
0.40505961 0.096435711 0.026131488
0.40509006 0.097437494 0.026125383
0.40512052 0.098439269 0.026119279
0.40603894 0.099316724 0.026603708
0.40606934 0.10031691 0.026597613
0.40698764 0.10118958 0.027082067
0.40790582 0.10205907 0.027566545
0.40793613 0.10305607 0.027560469
0.40796643 0.10405307 0.027554393
0.40799674 0.10505009 0.027548319
0.40802705 0.10604708 0.027542243
0.40894499 0.10690701 0.028026806
0.40897524 0.10790242 0.02802074
0.40900552 0.10889782 0.028014675
0.40903577 0.10989323 0.028008608
0.40906602 0.11088864 0.028002543
0.40909627 0.11188405 0.027996477
0.40912652 0.11287946 0.02799041
0.4091568 0.11387487 0.027984345
0.40918705 0.11487027 0.027978279
0.41010445 0.11571428 0.028462907
0.41013467 0.11670811 0.028456852
0.41016489 0.11770192 0.028450795
0.41019508 0.11869574 0.028444739
0.4102253 0.11968955 0.028438684
0.41025549 0.12068337 0.028432626
0.41028571 0.12167718 0.028426571
0.41031593 0.12267099 0.028420515
0.41034612 0.1236648 0.02841446
0.41037634 0.12465863 0.028408403
0.41040653 0.12565245 0.028402347
0.41043675 0.12664627 0.028396292
0.41046697 0.12764008 0.028390234
0.40961063 0.12880599 0.027893359
0.40964088 0.12980141 0.027887294
0.41055757 0.13062152 0.028372066
0.40970141 0.13179223 0.027875163
0.40973166 0.13278764 0.027869096
0.40976191 0.13378304 0.027863031
0.40979216 0.13477845 0.027856965
0.4098224 0.13577387 0.027850898
0.40985268 0.13676928 0.027844833
0.40988293 0.13776468 0.027838767
0.40991318 0.13876009 0.027832702
0.40994343 0.13975549 0.027826635
0.40997371 0.1407509 0.02782057
0.41000396 0.14174633 0.027814504
0.41003421 0.14274172 0.027808439
0.41006446 0.14373714 0.027802372
0.41009471 0.14473253 0.027796308
0.41012499 0.14572795 0.027790241
0.41015524 0.14672336 0.027784176
0.41018549 0.14771877 0.02777811
0.41021574 0.14871418 0.027772045
0.41024598 0.14970958 0.027765978
0.41027626 0.15070499 0.027759913
0.40942103 0.15190916 0.027262772
0.40945134 0.15290615 0.027256696
0.40948164 0.15390316 0.027250621
0.40951195 0.15490016 0.027244546
0.40954226 0.15589717 0.02723847
0.40868738 0.15711085 0.026741298
0.40871772 0.15810946 0.026735213
0.40874809 0.15910804 0.026729127
0.40877843 0.16010664 0.026723042
0.40792382 0.16132832 0.026225826
0.25205478 0.40235525 -0.064872772
0.25472638 0.40223232 -0.063402668
0.25739765 0.40209985 -0.061932541
0.25919136 0.40243247 -0.060954988
0.26098481 0.40275878 -0.059977435
0.2627781 0.40307871 -0.058999803
0.26457116 0.40339226 -0.05802216
0.26724124 0.40321833 -0.056551758
0.26903385 0.40351757 -0.055574026
