# .PCD v0.7 - Point Cloud Data file format
VERSION 0.7
FIELDS x y z
SIZE 4 4 4
TYPE F F F
COUNT 1 1 1
WIDTH 1410
HEIGHT 1
VIEWPOINT 0 0 0 1 0 0 0
POINTS 1410
DATA ascii
0.39717114 0.12342637 0.041327197
0.39810646 0.12425853 0.041789737
0.39813671 0.12525393 0.041783672
0.39907181 0.12608133 0.042246211
0.4000068 0.12690553 0.042708773
0.4009417 0.12772657 0.043171357
0.40187651 0.12854439 0.043633956
0.40190658 0.12953344 0.043627929
0.4028413 0.13034649 0.044090588
0.40377587 0.13115637 0.044553235
0.40471035 0.13196306 0.045015905
0.40564471 0.13276656 0.045478594
0.40567458 0.13374923 0.045472603
0.40660882 0.13454795 0.045935322
0.40754297 0.13534348 0.046398096
0.40757275 0.13632296 0.046392128
0.40760252 0.13730244 0.046386156
0.40763229 0.13828193 0.046380188
0.40766206 0.13926141 0.04637422
0.40769184 0.14024089 0.046368252
0.40772161 0.14122038 0.046362285
0.40775138 0.14219986 0.046356313
0.40778115 0.14317934 0.046350345
0.40781093 0.14415883 0.046344377
0.4078407 0.14513831 0.046338409
0.40787047 0.14611779 0.046332441
0.40790024 0.14709727 0.04632647
0.40793002 0.14807676 0.046320502
0.40795979 0.14905624 0.046314534
0.40798956 0.15003571 0.046308566
0.40801933 0.15101521 0.046302598
0.40804911 0.15199468 0.046296626
0.40807888 0.15297416 0.046290658
0.40810865 0.15395366 0.04628469
0.40813842 0.15493312 0.046278723
0.4081682 0.15591262 0.046272751
0.40819797 0.15689209 0.046266783
0.40822774 0.15787159 0.046260815
0.40825751 0.15885106 0.046254847
0.40828729 0.15983054 0.046248879
0.40831706 0.16081002 0.046242908
0.40834683 0.16178951 0.04623694
0.4083766 0.16276899 0.046230972
0.40930927 0.16351674 0.046693999
0.40843615 0.16472796 0.046219036
0.40936872 0.16547252 0.046682082
0.40849569 0.16668692 0.046207096
0.40942818 0.16742831 0.046670165
0.40855524 0.16864589 0.046195161
0.40858501 0.16962537 0.046189193
0.25262633 0.39744124 -0.038897797
0.25445578 0.397755 -0.037964538
0.25628504 0.39806238 -0.037031207
0.2581141 0.39836344 -0.036097873
0.25994301 0.39865807 -0.035164472
0.26177168 0.39894634 -0.034231059
0.26270488 0.39971167 -0.03376814
0.26453328 0.39998877 -0.032834634
0.26636142 0.40025955 -0.031901114
0.2681894 0.4005239 -0.03096753
0.27001715 0.40078199 -0.030033935
0.27184469 0.40103364 -0.029100299
0.27277711 0.40177181 -0.028637175
0.27549925 0.40151784 -0.027232874
0.3959341 0.12172849 0.039628189
0.39686856 0.12256707 0.040091898
0.39780289 0.12340247 0.040555626
0.39783317 0.12439946 0.04054955
0.39876741 0.12523007 0.041013334
0.39879769 0.12622549 0.041007265
0.40063551 0.12688175 0.041940905
0.40066567 0.12787397 0.041934859
0.40159953 0.12869343 0.04239868
0.40253326 0.12950973 0.042862527
0.40346697 0.13032281 0.043326415
0.40440053 0.13113274 0.043790296
0.405334 0.13193946 0.044254199
0.40536392 0.13292371 0.044248201
0.40629724 0.13372567 0.044712134
0.40723044 0.13452443 0.045176081
0.40726027 0.13550551 0.045170106
0.40819338 0.13629948 0.04563411
0.40822315 0.13727896 0.045628142
0.40825292 0.13825844 0.045622174
0.4082827 0.13923793 0.045616206
0.40831247 0.14021742 0.045610234
0.40834224 0.14119689 0.045604266
0.40837201 0.14217637 0.045598298
0.40840179 0.14315586 0.04559233
0.40843156 0.14413534 0.045586362
0.40846133 0.14511482 0.045580391
0.4084911 0.14609431 0.045574423
0.40852088 0.14707379 0.045568455
0.40855065 0.14805327 0.045562487
0.40858042 0.14903276 0.045556515
0.40861019 0.15001222 0.045550548
0.40863997 0.15099172 0.04554458
0.40866974 0.15197119 0.045538612
0.40869951 0.15295069 0.045532644
0.40872929 0.15393017 0.045526672
0.40875906 0.15490964 0.045520704
0.40878883 0.15588914 0.045514736
0.4088186 0.15686861 0.045508768
0.40884838 0.1578481 0.0455028
0.40887815 0.15882757 0.045496829
0.40890792 0.15980706 0.045490861
0.40893769 0.16078654 0.045484893
0.40896747 0.16176602 0.045478925
0.40899724 0.16274551 0.045472957
0.40902701 0.16372499 0.045466986
0.40905678 0.16470447 0.045461018
0.40908656 0.16568395 0.04545505
0.4091163 0.16666344 0.045449082
0.40824431 0.16788098 0.044972818
0.40917584 0.1686224 0.045437142
0.40830398 0.16984314 0.04496086
0.25070533 0.39756289 -0.041283831
0.25253305 0.39788467 -0.040348131
0.2543605 0.39820012 -0.039412417
0.25708228 0.39803222 -0.038004912
0.25890931 0.39833334 -0.037069123
0.2607362 0.39862806 -0.036133248
0.26256287 0.39891642 -0.035197381
0.26349506 0.39968178 -0.034733225
0.26621562 0.39947405 -0.033325478
0.26714754 0.40022981 -0.032861266
0.2689735 0.40049425 -0.031925216
0.27079922 0.4007524 -0.030989155
0.27173075 0.40149543 -0.030524865
0.2735562 0.40174234 -0.029588707
0.27538139 0.40198296 -0.028652538
0.27720645 0.40221715 -0.027716303
0.39563435 0.1208627 0.038389243
0.39566478 0.12186449 0.038383137
0.39659825 0.12270469 0.038848069
0.39753163 0.12354172 0.039313018
0.39846492 0.12437556 0.039777979
0.39849523 0.12537256 0.039771903
0.3994284 0.12620163 0.040236939
0.40036142 0.12702748 0.040701948
0.40129435 0.12785019 0.041166987
0.40222719 0.12866969 0.041632045
0.40315995 0.12948601 0.042097121
0.40409264 0.13029914 0.042562243
0.40502518 0.13110909 0.04302736
0.40505517 0.13209495 0.043021351
0.40598756 0.13290012 0.043486498
0.40691987 0.13370211 0.04395166
0.40694973 0.13468477 0.043945674
0.40788189 0.13548198 0.044410866
0.40791172 0.13646305 0.044404887
0.40794152 0.13744414 0.044398911
0.40887356 0.13823496 0.044864167
0.40890333 0.13921444 0.044858199
0.4089331 0.14019394 0.044852231
0.40896288 0.14117341 0.044846263
0.40809062 0.14234951 0.044369016
0.40812045 0.14333059 0.04436304
0.40815029 0.14431165 0.044357061
0.40818009 0.14529273 0.044351082
0.40820992 0.14627381 0.044345103
0.40823972 0.1472549 0.044339124
0.40826955 0.14823596 0.044333149
0.40829939 0.14921704 0.04432717
0.40832919 0.15019812 0.044321191
0.40835902 0.15117919 0.044315211
0.40838882 0.15216026 0.044309232
0.40841866 0.15314133 0.044303253
0.40844849 0.15412241 0.044297278
0.40847829 0.15510347 0.044291299
0.40850812 0.15608457 0.04428532
0.40853792 0.15706563 0.044279341
0.40856776 0.15804672 0.044273362
0.40859759 0.15902779 0.044267386
0.40862739 0.16000886 0.044261407
0.40865722 0.16098994 0.044255428
0.40868703 0.16197102 0.044249449
0.40871686 0.1629521 0.04424347
0.40874669 0.16393316 0.044237494
0.40877649 0.16491425 0.044231515
0.40970716 0.16566047 0.044697046
0.40883613 0.16687638 0.044219557
0.40796527 0.16809547 0.043742076
0.40799513 0.16907814 0.043736089
0.408025 0.17006083 0.043730102
0.25061604 0.39800462 -0.04273909
0.25244173 0.39832807 -0.041800957
0.25516075 0.39816985 -0.040389813
0.25698608 0.39847896 -0.03945158
0.25881115 0.39878178 -0.038513321
0.26152939 0.39859805 -0.037102021
0.26246074 0.39936817 -0.036636662
0.26428521 0.39965189 -0.035698291
0.26700276 0.39944425 -0.034286857
0.26793367 0.40020007 -0.033821408
0.2697576 0.40046456 -0.032882892
0.27158132 0.4007228 -0.031944364
0.27251184 0.40146586 -0.031478841
0.27433524 0.40171286 -0.030540215
0.27615842 0.40195355 -0.02960158
0.27798146 0.40218782 -0.028662888
0.27980426 0.40241575 -0.027724175
0.28162685 0.4026373 -0.026785422
0.39530593 0.11899029 0.037153922
0.39533645 0.11999367 0.037147809
0.39536694 0.12099704 0.037141696
0.39629954 0.12184047 0.037607867
0.397232 0.12268071 0.038074031
0.39816436 0.12351777 0.038540214
0.39819473 0.12451637 0.038534131
0.39912695 0.12534866 0.039000332
0.39915726 0.12634566 0.038994256
0.40008938 0.12717316 0.039460525
0.40192306 0.12782641 0.040399116
0.40285489 0.12864594 0.040865406
0.40288499 0.12963657 0.040859368
0.40381667 0.13045134 0.041325688
0.40474832 0.13126291 0.041792054
0.40567982 0.13207132 0.0422584
0.4066112 0.13287652 0.042724781
0.40664113 0.13386078 0.042718783
0.40757239 0.13466121 0.043185189
0.40760225 0.13564388 0.043179203
0.40763211 0.13662654 0.043173213
0.40856317 0.13742061 0.04363966
0.408593 0.13840169 0.043633681
0.4086228 0.13938276 0.043627702
0.40865263 0.14036384 0.043621726
0.40868247 0.1413449 0.043615747
0.40871227 0.142326 0.043609768
0.4087421 0.14330706 0.043603789
0.4087719 0.14428814 0.04359781
0.40880173 0.14526922 0.043591831
0.40793079 0.14645323 0.043113332
0.40796068 0.1474359 0.043107346
0.40799055 0.14841856 0.043101355
0.40802041 0.14940123 0.043095369
0.40805027 0.15038389 0.043089379
0.40808013 0.15136658 0.043083392
0.40811002 0.15234923 0.043077406
0.40813988 0.15333191 0.043071415
0.4090701 0.1540989 0.043538027
0.40909994 0.15507996 0.043532047
0.40912974 0.15606104 0.043526072
0.40915957 0.15704212 0.043520093
0.4091894 0.15802319 0.043514114
0.40921921 0.15900426 0.043508135
0.40924904 0.15998533 0.043502156
0.40837884 0.16119324 0.043023512
0.4084087 0.16217591 0.043017522
0.40843856 0.16315858 0.043011535
0.40846843 0.16414125 0.043005548
0.40849832 0.16512391 0.042999558
0.40852818 0.16610657 0.042993572
0.40855804 0.16708925 0.042987581
0.40768823 0.1683099 0.042508859
0.40771815 0.16929415 0.042502861
0.40774807 0.17027842 0.042496864
0.40777797 0.17126268 0.042490866
0.25052875 0.39844623 -0.044196814
0.25235251 0.39877138 -0.043256238
0.25506854 0.39861485 -0.041841403
0.25689185 0.39892563 -0.040900737
0.25960734 0.39875165 -0.039485797
0.26232257 0.39856803 -0.038070798
0.26325291 0.39933819 -0.037604216
0.26507539 0.39962196 -0.036663376
0.26689771 0.3998993 -0.035722468
0.26871976 0.40017033 -0.034781553
0.27054173 0.40043491 -0.033840578
0.27236339 0.40069321 -0.032899585
0.2732929 0.4014363 -0.032432824
0.2751143 0.40168339 -0.031491734
0.27693549 0.40192413 -0.030550644
0.2787565 0.4021585 -0.029609475
0.28057724 0.40238649 -0.028668296
0.28239784 0.40260813 -0.027727088
0.39500996 0.1181164 0.035910077
0.39504051 0.11912136 0.035903957
0.39597219 0.11996961 0.036371306
0.39600271 0.12097298 0.036365189
0.3969343 0.12181646 0.036832597
0.39786574 0.12265673 0.037299994
0.39789614 0.12365692 0.0372939
0.39882746 0.12449243 0.037761327
0.3988578 0.12549102 0.03775524
0.39978898 0.12632176 0.038222685
0.40072009 0.12714928 0.038690187
0.40165105 0.12797366 0.039157681
0.40258193 0.12879483 0.039625198
0.40351269 0.12961282 0.040092718
0.40444338 0.13042763 0.040560272
0.40537399 0.13123924 0.04102787
0.40540403 0.13222669 0.041021854
0.40633446 0.13303353 0.041489456
0.40726477 0.13383719 0.041957077
0.40729469 0.13482144 0.041951079
0.40822491 0.13562033 0.042418718
0.40825477 0.13660298 0.042412732
0.40828463 0.13758565 0.042406742
0.4083145 0.13856831 0.042400755
0.40834436 0.139551 0.042394765
0.40837425 0.14053367 0.042388778
0.40840411 0.14151633 0.042382792
0.40843397 0.142499 0.042376801
0.40846384 0.14348166 0.042370815
0.40849373 0.14446433 0.042364825
0.40852359 0.145447 0.042358838
0.40855345 0.14642966 0.042352851
0.40858331 0.14741234 0.042346861
0.40861318 0.148395 0.042340875
0.40864307 0.14937767 0.042334884
0.40867293 0.15036033 0.042328898
0.40870279 0.15134302 0.042322908
0.40873265 0.15232567 0.042316921
0.40876254 0.15330835 0.042310935
0.40879241 0.154291 0.042304944
0.40882227 0.15527368 0.042298958
0.40885213 0.15625635 0.042292967
0.40888199 0.157239 0.042286981
0.40891188 0.15822168 0.042280991
0.40894175 0.15920435 0.042275004
0.40897161 0.16018702 0.042269018
0.40900147 0.16116968 0.042263027
0.40903136 0.16215235 0.042257041
0.40906122 0.16313502 0.04225105
0.40819222 0.16434926 0.041771147
0.40822214 0.16533351 0.041765146
0.40825203 0.16631778 0.041759148
0.40828195 0.16730204 0.041753151
0.40831187 0.16828629 0.041747153
0.40744317 0.1695101 0.041267179
0.40747312 0.17049594 0.04126117
0.4075031 0.17148179 0.041255165
0.25226527 0.39921457 -0.044713974
0.25408682 0.39953503 -0.043770902
0.25769109 0.39889541 -0.041876901
0.26040357 0.39872152 -0.040458273
0.26222441 0.39901808 -0.039515052
0.26404509 0.39930823 -0.03857176
0.26586553 0.39959207 -0.037628449
0.26768586 0.3998695 -0.036685091
0.26950592 0.40014058 -0.035741705
0.27043471 0.40089324 -0.035273783
0.27225447 0.40115318 -0.034330305
0.27407399 0.40140674 -0.033386812
0.27589339 0.40165392 -0.032443266
0.27771252 0.40189475 -0.031499699
0.27953151 0.40212917 -0.030556073
0.28135026 0.40235725 -0.029612428
0.28316882 0.40257895 -0.028668752
0.28587794 0.40229356 -0.027249431
0.3956162 0.11708734 0.035138477
0.39564675 0.11809231 0.035132352
0.3956773 0.11909726 0.035126228
0.39660797 0.11994556 0.03559481
0.39663845 0.12094893 0.035588697
0.39756906 0.12179244 0.036057334
0.39759949 0.1227942 0.036051232
0.39852989 0.12363295 0.036519874
0.39856029 0.12463313 0.036513776
0.39949054 0.12546708 0.036982436
0.4004207 0.12629786 0.037451126
0.4013508 0.12712543 0.03791986
0.40228075 0.12794983 0.038388576
0.40321061 0.12877104 0.038857326
0.40414038 0.12958908 0.039326094
0.40507004 0.13040391 0.03979487
0.40510011 0.13139296 0.039788842
0.4060297 0.13220301 0.040257685
0.40695912 0.13300988 0.04072652
0.40698907 0.13399576 0.040720511
0.40791836 0.13479784 0.041189376
0.40794826 0.13578211 0.041183379
0.40797818 0.13676636 0.041177381
0.4080081 0.13775063 0.041171383
0.40803802 0.13873488 0.041165385
0.40896702 0.13952744 0.041634295
0.40899688 0.1405101 0.041628309
0.40902674 0.14149277 0.041622318
0.4090566 0.14247544 0.041616332
0.4090865 0.1434581 0.041610342
0.40911636 0.14444077 0.041604355
0.40824744 0.1456247 0.041123398
0.40827736 0.14660898 0.0411174
0.40830728 0.14759323 0.041111402
0.40833718 0.1485775 0.041105404
0.4083671 0.14956175 0.041099407
0.40839702 0.15054601 0.041093409
0.40842694 0.15153027 0.041087411
0.40845686 0.15251453 0.041081414
0.40848678 0.1534988 0.041075416
0.40941504 0.15426745 0.041544475
0.4094449 0.15525012 0.041538484
0.40947479 0.15623279 0.041532498
0.40950465 0.15721545 0.041526508
0.40953451 0.15819812 0.041520521
0.40956438 0.15918079 0.041514535
0.40959424 0.16016346 0.041508544
0.4087261 0.16137287 0.041027434
0.40875602 0.16235714 0.041021436
0.40878594 0.1633414 0.041015439
0.40881586 0.16432565 0.041009441
0.40884578 0.16530992 0.041003443
0.4088757 0.16629417 0.040997446
0.4089056 0.16727844 0.040991448
0.40803787 0.16850059 0.040510248
0.40806782 0.16948645 0.040504239
0.40720022 0.17071339 0.04002301
0.40723023 0.17170084 0.040016994
0.40726024 0.17268828 0.040010978
0.25128955 0.40013134 -0.046650801
0.25489011 0.39950463 -0.044751998
0.25670952 0.39981878 -0.043806382
0.25941908 0.39964816 -0.042384069
0.26212829 0.399468 -0.040961727
0.26394701 0.39975983 -0.040015977
0.26665571 0.39956218 -0.038593527
0.26847398 0.39983967 -0.037647698
0.27029201 0.40011081 -0.036701847
0.27121982 0.40086356 -0.036232691
0.27303755 0.40112355 -0.035286747
0.27485508 0.4013772 -0.034340799
0.27667242 0.40162441 -0.033394776
0.27848956 0.40186533 -0.03244875
0.28030655 0.40209985 -0.031502649
0.28212327 0.40232798 -0.030556547
0.28393981 0.40254977 -0.029610407
0.28664589 0.40226451 -0.028187385
0.28846198 0.40247193 -0.027241156
0.39622241 0.11605828 0.034366876
0.39625296 0.11706325 0.034360752
0.39628351 0.11806821 0.034354627
0.39631405 0.11907317 0.034348503
0.39724374 0.11992151 0.034818307
0.39727423 0.12092487 0.034812193
0.39730471 0.12192825 0.03480608
0.39823425 0.12277019 0.035275958
0.39916363 0.12360896 0.035745833
0.39919403 0.12460915 0.035739738
0.40012327 0.12544315 0.036209632
0.40105242 0.12627396 0.036679555
0.4019815 0.12710156 0.037149522
0.40201178 0.12809698 0.037143458
0.40383932 0.12874725 0.038089454
0.40386948 0.12973948 0.038083408
0.40479818 0.13055594 0.038553406
0.40572679 0.13136925 0.039023437
0.40665534 0.13217933 0.039493512
0.40668538 0.13316679 0.039487496
0.40761375 0.13397211 0.039957561
0.40764371 0.13495795 0.039951555
0.40767369 0.13594382 0.039945547
0.40860185 0.13674277 0.040415663
0.40863177 0.13772704 0.040409666
0.40866166 0.13871129 0.040403668
0.40869159 0.13969555 0.04039767
0.40872151 0.14067981 0.040391672
0.40875143 0.14166407 0.040385675
0.40878135 0.14264832 0.040379677
0.40881127 0.14363259 0.040373679
0.40884119 0.14461684 0.040367682
0.40887108 0.14560111 0.040361684
0.40890101 0.14658538 0.040355686
0.40893093 0.14756964 0.040349688
0.40896085 0.14855389 0.040343691
0.40899077 0.14953816 0.040337693
0.40902069 0.15052241 0.040331695
0.40905058 0.15150668 0.040325698
0.40908051 0.15249093 0.0403197
0.40911043 0.1534752 0.040313702
0.40914035 0.15445946 0.040307704
0.40917027 0.15544371 0.040301707
0.40920019 0.15642798 0.040295705
0.40923011 0.15741223 0.040289707
0.40926 0.1583965 0.04028371
0.40928993 0.15938075 0.040277712
0.40931985 0.16036502 0.040271714
0.40934977 0.16134928 0.040265717
0.40937969 0.16233353 0.040259719
0.40851271 0.16354771 0.039777335
0.40854266 0.16453354 0.03977133
0.40857264 0.1655194 0.039765321
0.4086026 0.16650526 0.039759312
0.40773585 0.16772738 0.03927689
0.40776587 0.16871482 0.039270874
0.40689921 0.16994174 0.038788386
0.40692928 0.17093077 0.038782358
0.4078559 0.17167717 0.039252821
0.4069894 0.17290886 0.038770307
0.25120732 0.40057439 -0.048114728
0.25391451 0.40042457 -0.046688844
0.25662136 0.40026519 -0.045262903
0.25932792 0.40009633 -0.04383694
0.26203421 0.39991787 -0.04241088
0.2647402 0.39972982 -0.040984761
0.26655665 0.40001538 -0.040036529
0.26837292 0.4002946 -0.039088272
0.27018905 0.40056741 -0.038139947
0.27200493 0.40083385 -0.037191611
0.27382067 0.40109393 -0.0362432
0.27563617 0.40134764 -0.035294786
0.27745152 0.40159494 -0.034346309
0.2792666 0.40183595 -0.033397805
0.28108156 0.40207052 -0.032449249
0.28289628 0.40229875 -0.031500679
0.28559959 0.40202153 -0.030074017
0.28741384 0.40223545 -0.02912535
0.29011661 0.4019407 -0.027698582
0.29193047 0.40214026 -0.026749838
0.39682862 0.11502922 0.033595271
0.39685917 0.11603418 0.033589147
0.39778799 0.11688732 0.034060158
0.39692026 0.11804412 0.033576898
0.39784899 0.11889407 0.034047928
0.39787948 0.11989745 0.034041815
0.39791 0.12090082 0.034035701
0.39794049 0.12190419 0.034029584
0.39886901 0.12274617 0.034500699
0.39979738 0.12358499 0.034971796
0.40072566 0.12442061 0.035442922
0.400756 0.1254192 0.035436839
0.40168414 0.12625006 0.035907984
0.40171444 0.12724705 0.035901908
0.40264249 0.12807311 0.03637312
0.40357038 0.12889598 0.036844324
0.40449819 0.1297157 0.037315536
0.40542588 0.13053219 0.037786782
0.40635347 0.13134553 0.038258031
0.40638354 0.13233458 0.038252003
0.40731105 0.13314311 0.038723323
0.40734106 0.13413055 0.038717307
0.40826836 0.13493432 0.039188627
0.40829831 0.13592018 0.039182618
0.40832829 0.13690603 0.039176613
0.40835825 0.13789189 0.039170604
0.40838823 0.13887773 0.039164599
0.40841818 0.13986358 0.03915859
0.40844816 0.14084944 0.039152581
0.40847811 0.14183529 0.039146576
0.40850809 0.14282115 0.039140567
0.40853804 0.14380699 0.039134558
0.40856802 0.14479285 0.039128553
0.40859798 0.1457787 0.039122544
0.40862793 0.14676456 0.039116535
0.40865791 0.14775042 0.03911053
0.40868786 0.14873627 0.039104521
0.40871784 0.14972213 0.039098516
0.40874779 0.15070798 0.039092507
0.40877777 0.15169384 0.039086498
0.40880772 0.15267967 0.039080493
0.40973407 0.15345159 0.039551996
0.40976399 0.15443586 0.039545998
0.40979391 0.15542011 0.03954
0.40982383 0.15640439 0.039534003
0.40985376 0.15738864 0.039528005
0.40988368 0.15837291 0.039522007
0.40991357 0.15935716 0.039516009
0.40994349 0.16034143 0.039510012
0.40907744 0.16155235 0.039026424
0.40910739 0.1625382 0.039020415
0.40913734 0.16352408 0.03901441
0.40916732 0.16450991 0.039008401
0.4083015 0.16572882 0.038524754
0.40833151 0.16671626 0.038518738
0.40836152 0.1677037 0.038512722
0.40839154 0.16869114 0.038506702
0.4075259 0.16991803 0.03802298
0.40755597 0.17090707 0.038016956
0.40758601 0.1718961 0.038010929
0.40761608 0.17288513 0.038004901
0.40675074 0.17411996 0.037521169
0.25112718 0.40101734 -0.049581096
0.25294292 0.40134436 -0.048630625
0.25564682 0.40118831 -0.047201041
0.25835046 0.4010227 -0.045771357
0.26194212 0.40036762 -0.043862473
0.26375684 0.40066281 -0.042911846
0.26645964 0.40046856 -0.041482002
0.26827395 0.40074942 -0.040531285
0.27097619 0.40053761 -0.039101325
0.27279004 0.40080413 -0.038150519
0.27460375 0.40106431 -0.037199643
0.27641723 0.40131807 -0.036248762
0.27823055 0.40156546 -0.035297815
0.28004363 0.40180653 -0.034346856
0.2818566 0.4020412 -0.033395834
0.28455704 0.40177205 -0.03196555
0.28636956 0.40199241 -0.031014439
0.28818181 0.40220639 -0.030063314
0.29088154 0.40191174 -0.028632848
0.29269338 0.40211138 -0.027681638
0.29450506 0.40230465 -0.026730362
0.39746541 0.11500513 0.032817535
0.39839327 0.1158599 0.033289768
0.39842376 0.11686327 0.033283651
0.39845425 0.11786665 0.033277538
0.39848477 0.11887001 0.033271424
0.39851525 0.1198734 0.033265311
0.39854574 0.12087676 0.033259194
0.39947331 0.12172038 0.033731535
0.40040073 0.12256081 0.034203853
0.40043113 0.123561 0.034197759
0.4013584 0.12439666 0.034670118
0.40138873 0.12539525 0.034664035
0.40231588 0.12622616 0.035136413
0.40324295 0.12705383 0.035608847
0.4032732 0.12804925 0.035602782
0.40420011 0.12887216 0.036075208
0.40512687 0.1296919 0.036547665
0.40605357 0.13050844 0.037020132
0.40608367 0.13149908 0.037014093
0.40701023 0.13231085 0.037486602
0.40704027 0.13329989 0.037480574
0.40796673 0.13410689 0.037953135
0.40799674 0.13509431 0.037947118
0.40802675 0.13608177 0.037941102
0.40805677 0.13706921 0.037935082
0.40808678 0.13805667 0.037929066
0.40901288 0.1388541 0.038401648
0.40904287 0.13983995 0.03839564
0.40907282 0.14082581 0.038389634
0.4091028 0.14181165 0.038383625
0.40913275 0.14279751 0.038377617
0.4091627 0.14378336 0.038371611
0.40919268 0.14476922 0.038365602
0.40922263 0.14575507 0.038359594
0.40925261 0.14674093 0.038353588
0.40928257 0.14772679 0.03834758
0.40931255 0.14871264 0.038341571
0.4093425 0.14969848 0.038335565
0.40937248 0.15068434 0.038329557
0.40940243 0.15167019 0.038323551
0.40943241 0.15265603 0.038317543
0.40946236 0.15364189 0.038311534
0.40949234 0.15462776 0.038305528
0.40952229 0.1556136 0.03829952
0.40955228 0.15659945 0.038293511
0.40958223 0.15758531 0.038287506
0.40961221 0.15857115 0.038281497
0.40964216 0.15955701 0.038275491
0.40967211 0.16054286 0.038269483
0.40970209 0.16152872 0.038263474
0.40973204 0.16251457 0.038257468
0.40886712 0.16373026 0.037772618
0.40889716 0.16471769 0.037766602
0.40892717 0.16570514 0.037760582
0.4080624 0.16692719 0.037275657
0.40809244 0.16791624 0.03726963
0.40812251 0.16890527 0.037263602
0.40725797 0.1701337 0.036778666
0.4072881 0.17112434 0.036772627
0.4073182 0.17211495 0.036766592
0.40734833 0.1731056 0.036760554
0.40737844 0.17409621 0.036754519
0.25016156 0.40193367 -0.051530257
0.25286275 0.40178892 -0.05009703
0.25556374 0.40163454 -0.048663728
0.25737703 0.40194899 -0.04771075
0.26096475 0.40129721 -0.045796964
0.26366484 0.4011142 -0.044363476
0.26636463 0.40092161 -0.042929929
0.26817697 0.40120417 -0.041976769
0.27087623 0.40099406 -0.040543113
0.27268812 0.40126225 -0.039589856
0.27538687 0.40103465 -0.038156096
0.27719831 0.40128854 -0.037202749
0.27900961 0.40153599 -0.036249336
0.28170753 0.40128294 -0.034815457
0.2835184 0.40151605 -0.033861957
0.28532904 0.40174285 -0.032908447
0.28713953 0.40196326 -0.03195487
0.28983644 0.40167674 -0.030520776
0.29164648 0.4018828 -0.029567113
0.29345629 0.4020825 -0.028613435
0.29615247 0.4017705 -0.027179172
0.29707536 0.40246284 -0.026705939
0.39810216 0.11498103 0.032039806
0.39902902 0.11583585 0.032513272
0.39905953 0.11683922 0.032507159
0.39909002 0.11784259 0.032501046
0.39912051 0.11884596 0.032494932
0.39915103 0.11984934 0.032488815
0.40007761 0.12069458 0.032962378
0.40100408 0.12153666 0.033435922
0.40103447 0.12253683 0.033429828
0.40106487 0.12353703 0.033423733
0.40199113 0.12437272 0.033897314
0.4029173 0.12520525 0.034370929
0.4029476 0.12620224 0.034364853
0.40387365 0.12702997 0.03483852
0.40390393 0.12802538 0.034832455
0.4048298 0.12884833 0.035306115
0.40575558 0.12966812 0.0357798
0.40578574 0.13066034 0.035773754
0.40671137 0.13147533 0.036247462
0.40674147 0.13246597 0.036241423
0.40766695 0.13327618 0.036715169
0.40769702 0.13426523 0.036709141
0.40772709 0.13525425 0.036703113
0.40775713 0.1362433 0.036697086
0.40868244 0.13704553 0.037170906
0.40871245 0.13803299 0.037164889
0.40874246 0.13902043 0.037158873
0.40877247 0.14000787 0.037152853
0.40880248 0.14099532 0.037146837
0.40883252 0.14198276 0.03714082
0.40886253 0.14297022 0.037134804
0.40889254 0.14395766 0.037128784
0.40892255 0.1449451 0.037122767
0.40895256 0.14593254 0.037116751
0.40898257 0.14692 0.037110735
0.40901259 0.14790745 0.037104715
0.4090426 0.14889489 0.037098698
0.40907261 0.14988235 0.037092682
0.40910262 0.15086977 0.037086666
0.40913263 0.15185723 0.037080649
0.40916267 0.15284467 0.037074629
0.40919268 0.15383212 0.037068613
0.410117 0.15460412 0.037542589
0.41014695 0.15558997 0.03753658
0.41017693 0.15657581 0.037530575
0.41020688 0.15756167 0.037524566
0.41023687 0.15854752 0.037518561
0.41026682 0.15953337 0.037512552
0.40940276 0.16074423 0.037026491
0.40943277 0.16173169 0.037020475
0.40946281 0.16271913 0.037014458
0.40949282 0.16370659 0.037008442
0.40862894 0.16492541 0.036522307
0.40865901 0.16591445 0.036516279
0.40868908 0.16690348 0.036510251
0.40871912 0.16789253 0.036504228
0.40785557 0.16911931 0.03601807
0.40788567 0.17010994 0.036012035
0.40791577 0.17110059 0.036005996
0.4079459 0.1720912 0.035999961
0.40708256 0.17332596 0.035513762
0.40711272 0.17431818 0.035507716
0.2500864 0.40237647 -0.053002808
0.25189826 0.40270844 -0.052047443
0.25459629 0.40255737 -0.050610449
0.25729397 0.40239683 -0.049173433
0.25999144 0.40222663 -0.047736336
0.26268861 0.40204689 -0.046299167
0.26538542 0.40185767 -0.044861976
0.26808199 0.40165883 -0.043424703
0.27077824 0.40145046 -0.041987386
0.27347425 0.40123251 -0.040549997
0.27616996 0.40100503 -0.039112549
0.2779794 0.40125898 -0.038156733
0.28067458 0.40101394 -0.036719169
0.28248358 0.40125355 -0.035763279
0.28429243 0.40148678 -0.034807313
0.28610104 0.40171364 -0.033851333
0.28790951 0.40193412 -0.032895289
0.29060337 0.40164772 -0.03145751
0.29241142 0.40185386 -0.030501377
0.2942192 0.40205365 -0.029545235
0.29602686 0.40224707 -0.028589025
0.29783425 0.40243414 -0.027632805
0.29964146 0.4026148 -0.026676545
0.39873895 0.11495694 0.03126207
0.39966479 0.11581179 0.031736769
0.39969528 0.11681516 0.031730656
0.39972579 0.11781853 0.031724542
0.39975628 0.1188219 0.031718425
0.40068191 0.11966878 0.03219321
0.40071237 0.12067056 0.032187108
0.40163782 0.12151267 0.032661885
0.40166822 0.12251285 0.03265579
0.40259352 0.12335019 0.033130601
0.40262386 0.12434877 0.033124514
0.40354902 0.12518133 0.033599358
0.40357932 0.12617834 0.033593282
0.40450439 0.1270061 0.034068178
0.40453464 0.12800151 0.03406211
0.40545949 0.1288245 0.034537006
0.40548971 0.12981832 0.034530949
0.40641442 0.13063654 0.035005875
0.40644458 0.13162877 0.034999829
0.40736917 0.13244222 0.035474788
0.40739927 0.13343284 0.03546875
0.40832371 0.13424151 0.035943732
0.40835378 0.13523054 0.035937704
0.40838382 0.13621959 0.035931677
0.40841389 0.13720863 0.035925649
0.40844396 0.13819766 0.035919622
0.408474 0.1391867 0.035913598
0.40850407 0.14017574 0.03590757
0.40853414 0.14116478 0.035901543
0.40945819 0.1419591 0.036376644
0.4094882 0.14294654 0.036370624
0.40951821 0.14393398 0.036364608
0.40954822 0.14492144 0.036358591
0.40957823 0.14590888 0.036352575
0.40960824 0.14689632 0.036346555
0.40963826 0.14788377 0.036340538
0.40966827 0.14887121 0.036334522
0.40969828 0.14985867 0.036328506
0.40972832 0.15084611 0.036322489
0.40975833 0.15183355 0.036316469
0.40978834 0.15282099 0.036310453
0.40981835 0.15380844 0.036304437
0.40984836 0.1547959 0.03629842
0.40987837 0.15578333 0.0362924
0.40990838 0.15677078 0.036286384
0.4099384 0.15775822 0.036280368
0.40996841 0.15874568 0.036274351
0.40999842 0.15973312 0.036268331
0.41002843 0.16072056 0.036262315
0.41005847 0.16170801 0.036256298
0.40919551 0.16292362 0.035768948
0.40922555 0.16391265 0.035762925
0.40925562 0.16490169 0.035756897
0.40928569 0.16589074 0.03575087
0.40842304 0.1671143 0.035263505
0.40845314 0.16810493 0.03525747
0.40848324 0.16909556 0.035251431
0.40851337 0.17008619 0.035245396
0.40765095 0.17131773 0.034757975
0.40768111 0.17230995 0.034751929
0.40771127 0.17330217 0.034745883
0.40774143 0.1742944 0.034739837
0.40777159 0.17528662 0.034733791
0.25182319 0.40315279 -0.053519975
0.25451818 0.40300345 -0.052079327
0.25632763 0.40332279 -0.051121421
0.25902212 0.40315595 -0.049680669
0.26260155 0.4024981 -0.047756989
0.26529548 0.40231058 -0.046316084
0.26798907 0.40211344 -0.044875108
0.27068233 0.40190679 -0.04343411
0.27337533 0.40169051 -0.041993029
0.27695307 0.40097541 -0.040069003
0.27876046 0.40122941 -0.03911072
0.28145263 0.40098453 -0.037669465
0.28414449 0.40073007 -0.036228154
0.28506643 0.40145749 -0.035752665
0.28687304 0.40168443 -0.034794234
0.28867948 0.401905 -0.03383572
0.29137033 0.40161872 -0.032394242
0.29317635 0.40182492 -0.031435642
0.29498211 0.40202478 -0.030477032
0.29678774 0.40221828 -0.029518357
0.29859313 0.40240541 -0.028559681
0.30039832 0.40258616 -0.027600953
0.30220336 0.40276051 -0.026642162
0.39934519 0.11392788 0.030490467
0.39937574 0.11493284 0.030484343
0.39940625 0.1159378 0.03047822
0.40033105 0.1167911 0.030954162
0.40036154 0.11779448 0.030948048
0.40039203 0.11879785 0.030941933
0.40131667 0.11964476 0.031417947
0.40224114 0.1204885 0.031893954
0.40227157 0.1214887 0.031887859
0.40319589 0.12232765 0.032363888
0.40322626 0.12332624 0.032357801
0.4032566 0.12432484 0.032351717
0.40418074 0.12515743 0.032827791
0.40421104 0.12615444 0.032821715
0.4051351 0.12698223 0.033297844
0.40516534 0.12797765 0.033291779
0.40608922 0.12880068 0.033767905
0.40611941 0.12979449 0.033761848
0.40704313 0.13061276 0.034238011
0.40707329 0.13160498 0.034231964
0.40710345 0.13259721 0.034225918
0.40802696 0.1334091 0.034702111
0.40805706 0.13439973 0.034696076
0.40808719 0.13539036 0.034690041
0.40811729 0.13638099 0.034684002
0.40814739 0.13737161 0.034677967
0.40907061 0.13817395 0.035154223
0.40910068 0.13916299 0.035148196
0.40913075 0.14015202 0.035142172
0.40916082 0.14114107 0.035136145
0.40919086 0.14213011 0.035130117
0.40922093 0.14311914 0.03512409
0.409251 0.14410818 0.035118062
0.40928105 0.14509721 0.035112035
0.40931112 0.14608625 0.035106011
0.40934119 0.1470753 0.035099983
0.40937126 0.14806433 0.035093956
0.4094013 0.14905336 0.035087928
0.40943137 0.15004241 0.035081901
0.40946144 0.15103145 0.035075873
0.40949148 0.15202048 0.035069849
0.40952155 0.15300952 0.035063822
0.41044402 0.15378477 0.035540272
0.41047403 0.15477222 0.035534251
0.41050404 0.15575966 0.035528235
0.41053405 0.1567471 0.035522219
0.41056406 0.15773454 0.035516202
0.41059408 0.158722 0.035510182
0.40973198 0.15993279 0.035021633
0.40976205 0.16092183 0.035015605
0.40979213 0.16191086 0.035009578
0.40982217 0.16289991 0.03500355
0.40985224 0.16388895 0.034997523
0.40988231 0.16487798 0.034991499
0.4090206 0.16609992 0.034502905
0.40905073 0.16709055 0.034496866
0.40908083 0.16808118 0.034490831
0.40911093 0.16907181 0.034484793
0.4082495 0.17030171 0.033996157
0.40827963 0.17129393 0.033990111
0.40830979 0.17228615 0.033984065
0.40833995 0.17327838 0.033978019
0.40837011 0.1742706 0.033971973
0.40840027 0.17526282 0.033965927
0.25175008 0.40359709 -0.054995
0.2535578 0.40392601 -0.054034684
0.25624964 0.40377042 -0.052590273
0.25894114 0.40360528 -0.051145829
0.26163238 0.40343055 -0.0497013
0.2652075 0.40276337 -0.047772631
0.26789808 0.40256798 -0.046328001
0.27058843 0.402363 -0.044883288
0.27416247 0.40166074 -0.042954404
0.27685219 0.40143508 -0.041509565
0.27954155 0.40119988 -0.040064696
0.28223068 0.40095508 -0.038619742
0.2849195 0.40070075 -0.037174728
0.28672424 0.40093252 -0.036213856
0.28852874 0.40115798 -0.035252936
0.29033315 0.40137696 -0.03429196
0.29213727 0.40158969 -0.033330962
0.29394126 0.40179598 -0.032369897
0.29574502 0.40199593 -0.031408831
0.29754862 0.40218946 -0.03044769
0.29935199 0.40237671 -0.029486535
0.30115518 0.40255752 -0.028525352
0.30295819 0.40273196 -0.027564093
0.30476099 0.40290004 -0.026602834
0.39998195 0.11390378 0.029712729
0.40001249 0.11490875 0.029706607
0.40004304 0.1159137 0.029700482
0.40007359 0.11691868 0.029694358
0.40099731 0.11777043 0.030171549
0.4010278 0.11877379 0.030165434
0.40195143 0.11962075 0.030642681
0.40287489 0.12046453 0.031119915
0.40290532 0.12146471 0.03111382
0.40382862 0.1223037 0.031591084
0.40385899 0.1233023 0.031584997
0.40478218 0.12413653 0.032062296
0.40481246 0.12513353 0.03205622
0.40484276 0.12613054 0.032050144
0.4057658 0.12695837 0.032527506
0.40579608 0.12795378 0.032521442
0.40671891 0.12877685 0.0329988
0.40674913 0.12977067 0.032992743
0.40677932 0.13076448 0.032986689
0.407702 0.13158119 0.033464089
0.40773216 0.13257343 0.033458039
0.40776229 0.13356563 0.033451993
0.40779245 0.13455787 0.033445947
0.40871486 0.1353666 0.033923402
0.40874499 0.13635723 0.033917364
0.40877509 0.13734786 0.033911329
0.40880519 0.13833851 0.03390529
0.40883532 0.13932912 0.033899255
0.40886542 0.14031976 0.033893216
0.40889552 0.14131039 0.033887181
0.40892565 0.14230102 0.033881146
0.40984762 0.14309543 0.03435868
0.40987769 0.14408447 0.034352653
0.40990773 0.1450735 0.034346625
0.4099378 0.14606254 0.034340598
0.40996787 0.14705159 0.03433457
0.40999794 0.14804062 0.034328546
0.41002798 0.14902966 0.034322519
0.41005805 0.15001871 0.034316491
0.41008812 0.15100773 0.034310464
0.41011816 0.15199678 0.034304436
0.41014823 0.15298581 0.034298409
0.4101783 0.15397486 0.034292385
0.41020837 0.1549639 0.034286357
0.41023842 0.15595293 0.03428033
0.41026849 0.15694197 0.034274302
0.41029856 0.157931 0.034268275
0.41032863 0.15892005 0.034262247
0.41035867 0.15990908 0.03425622
0.41038874 0.16089812 0.034250196
0.41041881 0.16188715 0.034244169
0.40955797 0.16310428 0.033754375
0.40958807 0.16409491 0.03374834
0.4096182 0.16508554 0.033742301
0.4096483 0.16607617 0.033736266
0.4096784 0.1670668 0.033730228
0.40970853 0.16805743 0.033724193
0.40884802 0.1692857 0.033234328
0.40887818 0.17027792 0.033228282
0.40890834 0.17127015 0.033222232
0.4089385 0.17226237 0.033216186
0.40896866 0.17325459 0.03321014
0.40899882 0.17424682 0.033204094
0.40813866 0.17548622 0.032714166
0.25167906 0.40404126 -0.056472465
0.25348482 0.40437189 -0.055509705
0.25617361 0.40421802 -0.054061629
0.2588622 0.40405458 -0.052613471
0.26155046 0.40388155 -0.051165249
0.26423839 0.40369901 -0.049717013
0.26780918 0.40302244 -0.047783349
0.27137959 0.40233305 -0.04584961
0.2740666 0.40211862 -0.044401139
0.27763629 0.40140539 -0.042467255
0.28032261 0.40117031 -0.041018683
0.28300872 0.40092564 -0.039570041
0.28569454 0.40067142 -0.038121328
0.28749722 0.40090328 -0.037157975
0.28929973 0.4011288 -0.0361946
0.29198477 0.40084904 -0.03474573
0.29290423 0.40156066 -0.034267694
0.2947062 0.40176702 -0.033304162
0.29650795 0.40196705 -0.032340631
0.29830953 0.40216067 -0.031377021
0.30011088 0.40234798 -0.030413412
0.30191204 0.40252888 -0.029449763
0.30371305 0.4027034 -0.028486038
0.3055138 0.40287158 -0.027522312
0.39972636 0.1140265 0.028450495
0.39975697 0.11503306 0.028444361
0.40067983 0.11588961 0.02892275
0.40071037 0.11689459 0.028916625
0.40163308 0.11774637 0.029395044
0.40166357 0.11874974 0.029388931
0.40258619 0.11959673 0.029867409
0.40350866 0.12044054 0.030345876
0.40353906 0.12144074 0.030339781
0.40446138 0.12227976 0.030818278
0.40449172 0.12327836 0.030812193
0.4054139 0.12411262 0.031290725
0.4054442 0.12510963 0.031284649
0.40636629 0.1259391 0.03176323
0.40639654 0.1269345 0.031757165
0.40642679 0.12792993 0.031751096
0.40645704 0.12892532 0.031745031
0.40737882 0.12974684 0.032223642
0.40740904 0.13074066 0.032217585
0.40833068 0.1315574 0.032696217
0.40836084 0.13254963 0.032690171
0.408391 0.13354185 0.032684125
0.40842116 0.13453408 0.032678079
0.40845132 0.1355263 0.032672029
0.40848148 0.13651852 0.032665983
0.40851164 0.13751075 0.032659937
0.4085418 0.13850297 0.032653891
0.40946302 0.13930537 0.033132613
0.40949312 0.14029601 0.033126574
0.40952322 0.14128664 0.033120539
0.40955335 0.14227727 0.0331145
0.40958345 0.1432679 0.033108465
0.40961355 0.14425853 0.033102427
0.40964368 0.14524917 0.033096392
0.40967378 0.14623979 0.033090353
0.40970388 0.14723043 0.033084318
0.40973401 0.14822106 0.033078283
0.40976411 0.14921169 0.033072244
0.40979421 0.15020232 0.033066209
0.40982434 0.15119295 0.033060171
0.41074488 0.15197307 0.033539027
0.41077492 0.1529621 0.033532999
0.41080499 0.15395114 0.033526972
0.41083506 0.15494017 0.033520944
0.40997487 0.15614611 0.033029988
0.410005 0.15713674 0.03302395
0.4100351 0.15812737 0.033017915
0.4100652 0.159118 0.03301188
0.41009533 0.16010863 0.033005841
0.41012543 0.16109927 0.032999806
0.41015553 0.1620899 0.032993767
0.41018566 0.16308053 0.032987732
0.41021577 0.16407116 0.032981694
0.41024587 0.16506179 0.032975659
0.410276 0.16605242 0.03296962
0.40941641 0.16727746 0.032478549
0.40944657 0.16826968 0.032472502
0.40947673 0.1692619 0.032466456
0.40950689 0.17025413 0.03246041
0.40953705 0.17124635 0.032454364
0.40956721 0.17223857 0.032448318
0.40959737 0.1732308 0.032442268
0.40873817 0.17446858 0.031951118
0.40876839 0.17546239 0.031945061
0.25068855 0.40367344 -0.05843107
0.25161004 0.4044854 -0.0579524
0.25429618 0.40434119 -0.056500666
0.25609967 0.40466553 -0.055535425
0.25878525 0.40450376 -0.054083575
0.2614705 0.40433249 -0.052631706
0.26415551 0.40415165 -0.051179737
0.26772231 0.4034768 -0.049241152
0.27128872 0.40278918 -0.047302488
0.27485475 0.40208882 -0.045363758
0.27753839 0.40186501 -0.043911558
0.28110373 0.40114075 -0.041972682
0.28378677 0.40089619 -0.040520325
0.28646955 0.4006421 -0.039067913
0.289152 0.40037844 -0.037615478
0.2909525 0.4006024 -0.0366496
0.29275274 0.40081999 -0.035683695
0.2945528 0.40103126 -0.034717765
0.29547116 0.40173808 -0.034238439
0.29727086 0.40193817 -0.033272427
0.29907045 0.40213189 -0.032306366
0.30086976 0.40231928 -0.03134029
0.3026689 0.40250024 -0.030374162
0.30446789 0.40267482 -0.029407982
0.30626664 0.40284309 -0.028441789
0.30894646 0.40249181 -0.026988784
0.40036416 0.11400237 0.027671535
0.40039474 0.11500893 0.027665401
0.40042534 0.11601548 0.027659267
0.40134713 0.11687049 0.0281389
0.40137768 0.11787546 0.028132776
0.40229931 0.11872568 0.028612437
0.40322092 0.11957271 0.029092144
0.40414238 0.12041657 0.029571844
0.40417278 0.12141676 0.02956575
0.40509409 0.12225582 0.030045485
0.40512446 0.12325442 0.0300394
0.40604562 0.12408872 0.030519158
0.40607592 0.12508573 0.030513084
0.406997 0.12591524 0.030992897
0.40702724 0.12691064 0.030986831
0.40705749 0.12790605 0.030980766
0.40708777 0.12890147 0.030974699
0.40711802 0.12989688 0.030968634
0.40803874 0.13071683 0.03144848
0.40806895 0.13171065 0.031442422
0.40809917 0.13270447 0.031436369
0.40812936 0.13369828 0.031430312
0.40904987 0.13451029 0.031910207
0.40908003 0.1355025 0.031904161
0.40911019 0.13649474 0.031898115
0.40914035 0.13748695 0.031892065
0.40917051 0.13847917 0.031886019
0.40920067 0.1394714 0.031879973
0.40923083 0.14046362 0.031873927
0.40926096 0.14145586 0.03186788
0.40929112 0.14244807 0.031861834
0.40932128 0.14344029 0.031855788
0.40935144 0.14443251 0.031849742
0.41027135 0.14522542 0.03232976
0.41030148 0.14621603 0.032323722
0.41033158 0.14720668 0.032317687
0.41036168 0.14819731 0.032311648
0.41039181 0.14918794 0.032305613
0.41042191 0.15017858 0.032299574
0.41045201 0.1511692 0.032293539
0.41048214 0.15215984 0.032287501
0.41051224 0.15315045 0.032281466
0.41054234 0.1541411 0.032275431
0.41057247 0.15513173 0.032269392
0.41060257 0.15612236 0.032263357
0.41063267 0.15711299 0.032257318
0.4106628 0.15810362 0.032251284
0.4106929 0.15909426 0.032245245
0.410723 0.16008487 0.03223921
0.41075313 0.16107552 0.032233171
0.40989432 0.16229255 0.031740908
0.40992448 0.16328478 0.031734861
0.40995464 0.164277 0.031728815
0.4099848 0.16526923 0.031722769
0.41001496 0.16626145 0.031716723
0.41004512 0.16725367 0.031710677
0.41007528 0.1682459 0.031704631
0.40921685 0.16947566 0.031212294
0.40924704 0.17046948 0.031206237
0.40927726 0.17146331 0.031200182
0.40930745 0.17245711 0.031194126
0.40844926 0.17369488 0.03070174
0.40847954 0.17469026 0.030695675
0.40939808 0.17543857 0.031175958
0.40854004 0.17668109 0.030683544
0.25150394 0.40364259 -0.059426956
0.25242445 0.40445459 -0.058947064
0.25510752 0.40431046 -0.057491619
0.25690898 0.40463489 -0.056523912
0.25871032 0.40495291 -0.055556137
0.26139259 0.40478331 -0.054100566
0.26495576 0.40412137 -0.052157134
0.26763743 0.40393108 -0.050701421
0.27119988 0.40324521 -0.048757836
0.27476186 0.40254661 -0.046814207
0.2783235 0.40183529 -0.044870466
0.28188479 0.40111122 -0.042926658
0.28456482 0.40086675 -0.041470613
0.28724459 0.40061277 -0.040014502
0.289924 0.40034923 -0.038558368
0.29172248 0.40057325 -0.037590019
0.29352069 0.40079093 -0.036621664
0.29531872 0.40100229 -0.035653252
0.29711664 0.40120721 -0.034684792
0.29803377 0.40190932 -0.034204226
0.29983133 0.4021031 -0.033235695
0.30162865 0.40229055 -0.032267153
0.30342576 0.4024716 -0.031298559
0.30522272 0.40264627 -0.030329913
0.30789971 0.40230313 -0.028873295
0.30969626 0.40246344 -0.027904561
0.31149256 0.40261745 -0.026935814
0.40008095 0.11311682 0.026411736
0.40011159 0.11412498 0.026405593
0.40103254 0.1149848 0.02688643
0.40106311 0.11599135 0.026880296
0.40198392 0.1168464 0.027361162
0.40201446 0.11785136 0.027355038
0.40293509 0.11870162 0.027835932
0.40296561 0.119705 0.027829818
0.40388614 0.12055047 0.028310774
0.40480652 0.12139278 0.028791718
0.40572685 0.12223188 0.029272681
0.40575719 0.12323048 0.029266596
0.40667734 0.12406482 0.029747587
0.40670764 0.12506182 0.029741511
0.4076277 0.12589137 0.030222559
0.40765798 0.12688677 0.030216493
0.40768823 0.1278822 0.030210428
0.40771848 0.1288776 0.030204361
0.40774873 0.12987301 0.030198297
0.40777901 0.13086841 0.03019223
0.40780926 0.13186382 0.030186163
0.40872887 0.13268064 0.030667262
0.40875909 0.13367446 0.030661207
0.40878928 0.13466828 0.030655151
0.4088195 0.13566209 0.030649094
0.40884972 0.13665591 0.030643038
0.40887991 0.13764971 0.030636983
0.40891013 0.13864355 0.030630926
0.40894032 0.13963735 0.03062487
0.40897053 0.14063117 0.030618815
0.40900075 0.14162499 0.030612757
0.40991983 0.14242429 0.031093964
0.40994999 0.14341651 0.031087918
0.40998015 0.14440873 0.03108187
0.41001031 0.14540096 0.031075824
0.41004047 0.14639318 0.031069778
0.41007063 0.1473854 0.031063732
0.41010079 0.14837764 0.031057686
0.41013095 0.14936985 0.031051639
0.41016111 0.15036207 0.031045593
0.41019127 0.1513543 0.031039547
0.41022143 0.15234652 0.031033501
0.41025159 0.15333875 0.031027455
0.41028175 0.15433097 0.031021407
0.41031191 0.15532321 0.031015361
0.41034207 0.15631542 0.031009315
0.41037223 0.15730764 0.031003268
0.41040239 0.15829986 0.030997222
0.41043255 0.15929209 0.030991176
0.41046268 0.16028431 0.03098513
0.41049284 0.16127653 0.030979084
0.410523 0.16226876 0.030973038
0.41055316 0.16326098 0.03096699
0.41058332 0.16425321 0.030960944
0.40972573 0.16547659 0.030467413
0.40975592 0.16647039 0.030461358
0.40978613 0.1674642 0.030455301
0.40981635 0.16845803 0.030449245
0.40984654 0.16945183 0.03044319
0.40987676 0.17044565 0.030437132
0.40901947 0.17168018 0.029943533
0.40904975 0.17267559 0.029937468
0.40908 0.17367101 0.029931402
0.40911025 0.1746664 0.029925337
0.40825316 0.17590891 0.029431663
0.40828347 0.1769059 0.029425588
0.40831378 0.17790291 0.029419512
0.25231934 0.40361172 -0.060422841
0.25323883 0.4044238 -0.059941713
0.25591889 0.40427977 -0.058482584
0.25771832 0.40460426 -0.057512406
0.25951764 0.40492237 -0.056542166
0.2621969 0.40475288 -0.055082906
0.26487589 0.40457386 -0.053623561
0.26843467 0.40390092 -0.05167513
0.27199307 0.40321517 -0.049726609
0.27467105 0.40300432 -0.048267107
0.2782287 0.40229475 -0.046318442
0.28178599 0.40157241 -0.044369709
0.28534287 0.4008373 -0.042420901
0.2880196 0.40058345 -0.040961098
0.290696 0.40032002 -0.039501265
0.29249245 0.40054411 -0.03853045
0.29516831 0.40026316 -0.037070513
0.29608467 0.40097329 -0.036588762
0.29788056 0.4011783 -0.035617821
0.29967618 0.40137696 -0.03464688
0.30147168 0.40156925 -0.033675876
0.30238751 0.40226185 -0.03319402
0.30418262 0.40244296 -0.032222971
0.30685687 0.40210786 -0.030762674
0.30865154 0.4022747 -0.029791538
0.31044605 0.40243506 -0.028820338
0.31224033 0.40258914 -0.027849125
0.31403446 0.40273681 -0.026877847
0.40071973 0.11309265 0.025631543
0.4007504 0.11410081 0.0256254
0.40078104 0.11510896 0.025619257
0.40081167 0.1161171 0.025613114
0.40173149 0.11697377 0.026095202
0.40265122 0.11782727 0.026577311
0.40357086 0.11867756 0.02705944
0.40360135 0.11968095 0.027053325
0.4045209 0.12052646 0.027535509
0.40544027 0.1213688 0.028017685
0.40635958 0.12220794 0.028499881
0.40638992 0.12320654 0.028493796
0.40730906 0.12404092 0.028976021
0.40733936 0.12503792 0.028969945
0.40736967 0.12603493 0.028963871
0.40828869 0.12686291 0.02944616
0.40831894 0.12785833 0.029440096
0.40834919 0.12885372 0.029434029
0.40837947 0.12984914 0.029427964
0.40840971 0.13084455 0.029421898
0.40843996 0.13183996 0.029415833
0.40847021 0.13283537 0.029409766
0.40850046 0.13383077 0.0294037
0.40853074 0.13482618 0.029397635
0.40856099 0.1358216 0.029391568
0.40859124 0.13681701 0.029385503
0.40862149 0.13781241 0.029379437
0.40865174 0.13880782 0.029373372
0.40868202 0.13980323 0.029367305
0.40871227 0.14079863 0.029361241
0.40874252 0.14179406 0.029355174
0.40966064 0.14259498 0.029837603
0.40969086 0.1435888 0.029831547
0.40972108 0.1445826 0.029825492
0.40975127 0.14557643 0.029819435
0.40978149 0.14657024 0.029813379
0.41069931 0.14736162 0.030295866
0.41072947 0.14835384 0.030289819
0.41075963 0.14934607 0.030283773
0.41078979 0.15033829 0.030277727
0.41081995 0.15133052 0.030271681
0.41085011 0.15232274 0.030265635
0.41088027 0.15331495 0.030259589
0.41091043 0.15430719 0.030253543
0.41094059 0.15529941 0.030247496
0.41097075 0.15629163 0.03024145
0.41100091 0.15728386 0.030235402
0.41103107 0.15827608 0.030229356
0.41106123 0.1592683 0.03022331
0.41109139 0.16026051 0.030217264
0.4102346 0.16147749 0.029722538
0.41026479 0.16247131 0.029716482
0.41029501 0.16346513 0.029710427
0.4103252 0.16445895 0.02970437
0.41035542 0.16545276 0.029698314
0.40949893 0.16667928 0.02920353
0.40952918 0.16767468 0.029197466
0.40955943 0.16867009 0.029191399
0.40958968 0.1696655 0.029185334
0.40961993 0.17066091 0.029179268
0.40965021 0.17165633 0.029173203
0.40968046 0.17265174 0.029167136
0.40882427 0.17389101 0.028672248
0.40885457 0.174888 0.028666174
0.40888488 0.17588499 0.028660098
0.40891519 0.176882 0.028654022
0.4089455 0.17787901 0.028647946
0.2504572 0.40370885 -0.062881462
0.25313473 0.40358087 -0.061418727
0.25493255 0.40391818 -0.060446173
0.25673023 0.40424907 -0.059473544
0.25852767 0.40457365 -0.058500905
0.26032495 0.40489182 -0.057528198
0.26300117 0.40472245 -0.056065235
0.26567715 0.40454355 -0.054602191
0.26835284 0.40435505 -0.053139087
0.27190718 0.40367112 -0.051185682
0.2754612 0.40297443 -0.04923217
0.27901483 0.40226498 -0.047278583
0.28256807 0.40154281 -0.045324918
0.28612095 0.40080786 -0.043371186
0.28879464 0.40055412 -0.041907687
0.29146799 0.40029082 -0.040444151
0.29326242 0.40051499 -0.039470874
0.29593524 0.40023416 -0.038007233
0.29772925 0.40044403 -0.037033867
0.29864448 0.40114939 -0.036550853
0.30043808 0.40134814 -0.035577446
0.30223155 0.40154049 -0.034603972
0.30402479 0.40172648 -0.033630487
0.30581787 0.40190607 -0.032656934
0.30761069 0.40207934 -0.031683374
0.30940333 0.40224624 -0.03070977
0.31119585 0.40240669 -0.029736103
0.3129881 0.40256086 -0.028762423
0.31478021 0.40270859 -0.027788678
0.3165721 0.40285 -0.026814932
0.399551 0.1123473 0.023878627
0.39958176 0.11335862 0.023872465
0.40050086 0.11422329 0.024355765
0.40053156 0.11523304 0.024349611
0.40145046 0.11609294 0.024832916
0.40236929 0.11694964 0.025316237
0.40328801 0.11780317 0.02579958
0.40331855 0.11880814 0.025793456
0.40423712 0.11965689 0.026276821
0.40515566 0.12050243 0.026760237
0.40607402 0.12134482 0.027243648
0.40610442 0.12234499 0.027237553
