# .PCD v0.7 - Point Cloud Data file format
VERSION 0.7
FIELDS x y z
SIZE 4 4 4
TYPE F F F
COUNT 1 1 1
WIDTH 1393
HEIGHT 1
VIEWPOINT 0 0 0 1 0 0 0
POINTS 1393
DATA ascii
0.40818807 0.12827419 0.024878882
0.40821847 0.12927437 0.024872785
0.40824887 0.13027455 0.024866691
0.40827927 0.13127474 0.024860596
0.40830967 0.13227493 0.024854502
0.40745574 0.13345352 0.024355082
0.4074862 0.13445529 0.024348978
0.40663236 0.13563867 0.023849497
0.40666288 0.13664204 0.023843382
0.40669337 0.13764542 0.023837266
0.40672386 0.13864879 0.023831153
0.40587035 0.13984013 0.02333165
0.4050169 0.14103462 0.022832133
0.40416354 0.14223233 0.022332596
0.40419421 0.14324048 0.022326453
0.25015026 0.40287477 -0.068844482
0.2519407 0.40323302 -0.067862168
0.25373089 0.40358496 -0.066879824
0.25639629 0.40345746 -0.065402299
0.25906137 0.40332043 -0.063924745
0.26085094 0.40365005 -0.062942252
0.26264024 0.40397334 -0.061959736
0.2653046 0.4038108 -0.060481999
0.26796865 0.40363872 -0.059004202
0.27063236 0.40345708 -0.057526376
0.27417085 0.40278172 -0.055553272
0.27770898 0.40209356 -0.053580087
0.28037176 0.40188006 -0.05210204
0.28303421 0.40165707 -0.050623961
0.28657126 0.40093386 -0.048650566
0.28923315 0.40069011 -0.047172334
0.29276946 0.39994305 -0.045198791
0.29543066 0.39967862 -0.043720461
0.29721698 0.39990151 -0.042737316
0.29987764 0.39961955 -0.041258879
0.30166352 0.39982814 -0.040275633
0.30344915 0.40003037 -0.039292391
0.30523464 0.40022621 -0.038309071
0.30701992 0.40041569 -0.037325751
0.30880502 0.40059876 -0.036342364
0.31058988 0.40077552 -0.03535895
0.31150028 0.40145555 -0.034870863
0.31328487 0.40162116 -0.03388736
0.3150692 0.40178037 -0.032903854
0.31597921 0.40244767 -0.032415677
0.31776327 0.40259573 -0.031432077
0.31954706 0.40273744 -0.030448452
0.32133073 0.40287274 -0.029464774
0.3222402 0.40352252 -0.028976489
0.32402349 0.40364674 -0.02799277
0.32580659 0.40376449 -0.027008975
0.32758948 0.40387598 -0.026025178
0.40097687 0.07483089 0.020976007
0.40189376 0.075756229 0.021463871
0.40281054 0.076678395 0.021951724
0.40284118 0.077686548 0.021945581
0.40375781 0.078603931 0.022433462
0.40467432 0.079518124 0.022921363
0.40470487 0.080523089 0.022915239
0.40562126 0.081432514 0.023403168
0.40653759 0.082338743 0.023891149
0.40745378 0.083241791 0.024379117
0.40748417 0.084241979 0.024373023
0.40840021 0.085140251 0.024861021
0.40843055 0.086138844 0.024854936
0.40846092 0.087137438 0.02484885
0.40937674 0.08802934 0.025336893
0.40940705 0.089026347 0.025330817
0.40943736 0.090023346 0.025324741
0.40946767 0.091020346 0.025318667
0.40949798 0.092017353 0.025312591
0.40952826 0.093014352 0.025306515
0.40955856 0.094011351 0.025300439
0.40958887 0.095008351 0.025294365
0.40873408 0.096124783 0.024794085
0.40876442 0.097123384 0.024788
0.40879479 0.098121978 0.024781914
0.40882513 0.099120572 0.024775829
0.4088555 0.10011917 0.024769744
0.40888584 0.10111776 0.024763659
0.40891621 0.10211635 0.024757573
0.40894654 0.10311495 0.024751488
0.40897691 0.10411354 0.024745403
0.40900725 0.10511214 0.024739318
0.40903762 0.10611073 0.024733232
0.40906796 0.10710932 0.024727147
0.4090983 0.10810792 0.024721062
0.40912867 0.10910651 0.024714977
0.409159 0.1101051 0.024708891
0.40918937 0.1111037 0.024702806
0.40921971 0.11210229 0.024696721
0.40925008 0.11310089 0.024690636
0.40928042 0.11409949 0.024684552
0.40931079 0.11509807 0.024678467
0.40845701 0.11624796 0.024177987
0.40848741 0.11724816 0.024171893
0.40851781 0.11824833 0.024165798
0.40854821 0.11924852 0.024159703
0.4085786 0.12024871 0.024153609
0.408609 0.1212489 0.024147512
0.4086394 0.12224907 0.024141418
0.4086698 0.12324927 0.024135323
0.4087002 0.12424945 0.024129229
0.4087306 0.12524964 0.024123134
0.40876099 0.12624983 0.02411704
0.40879142 0.12725002 0.024110943
0.40882182 0.12825021 0.024104849
0.4079687 0.12942238 0.023604235
0.40799916 0.13042416 0.023598131
0.40802962 0.13142593 0.023592025
0.40806004 0.13242772 0.023585921
0.4080905 0.1334295 0.023579815
0.40723765 0.13461125 0.023079112
0.40726814 0.13561462 0.023072997
0.40729862 0.13661799 0.023066882
0.40644601 0.1378061 0.022566171
0.40647656 0.13881105 0.022560047
0.40562409 0.14000393 0.022059307
0.40565467 0.14101049 0.022053173
0.40480235 0.14220816 0.021552403
0.4039501 0.14340901 0.021051614
0.40309793 0.14461304 0.020550773
0.2500982 0.40331185 -0.07034532
0.25188667 0.4036718 -0.069360547
0.25454929 0.40355399 -0.067879409
0.25633731 0.40389961 -0.066894546
0.2581251 0.40423891 -0.065909669
0.26078701 0.40409559 -0.064428352
0.26344857 0.40394276 -0.062946998
0.26523572 0.40425968 -0.061961949
0.26789674 0.40408933 -0.060480502
0.27055752 0.40390942 -0.058998957
0.27409205 0.40323576 -0.057020929
0.27762616 0.40254939 -0.055042833
0.28028592 0.40233761 -0.053561121
0.28294545 0.40211627 -0.052079327
0.28647852 0.40139484 -0.050101008
0.28913742 0.40115276 -0.048619084
0.29179597 0.4009012 -0.047137141
0.29445431 0.40064004 -0.045655105
0.29711232 0.40036932 -0.04417301
0.29977 0.40008906 -0.042690881
0.30155391 0.40029931 -0.04170518
0.30333757 0.40050322 -0.040719479
0.30512109 0.40070069 -0.039733712
0.30777776 0.40038702 -0.038251381
0.30956087 0.40057018 -0.037265528
0.3104704 0.40125501 -0.036776222
0.31225312 0.40142706 -0.035790328
0.31403568 0.40159273 -0.03480437
0.31581798 0.40175205 -0.033818386
0.31760013 0.40190494 -0.032832347
0.31850901 0.40256751 -0.032342907
0.3202908 0.40270928 -0.03135683
0.32207245 0.40284467 -0.030370684
0.32385382 0.40297371 -0.029384527
0.32476217 0.40361878 -0.028894981
0.32654327 0.40373662 -0.027908729
0.32832411 0.40384817 -0.026922455
0.32923207 0.40448046 -0.026432842
0.33013999 0.40510952 -0.025943171
0.39795324 0.071073256 0.018237244
0.39886954 0.072011381 0.018726259
0.39890042 0.073027492 0.018720068
0.40070173 0.07387808 0.019704295
0.40073252 0.074891001 0.019698123
0.4016484 0.07581798 0.020187179
0.40256426 0.07674177 0.020676287
0.40347996 0.077662379 0.021165382
0.40351063 0.078670524 0.021159237
0.40531111 0.079494029 0.02214363
0.40534166 0.080499001 0.022137506
0.406257 0.081408463 0.02262667
0.40628752 0.082411833 0.022620555
0.40720278 0.083316505 0.023109773
0.40811792 0.084217995 0.023598986
0.40814832 0.085218184 0.023592891
0.40906328 0.086114906 0.024082132
0.40909365 0.087113492 0.024076046
0.40912399 0.088112086 0.024069961
0.40915436 0.089110687 0.024063876
0.40918469 0.090109281 0.024057791
0.40921506 0.091107875 0.024051705
0.4092454 0.092106469 0.02404562
0.40927577 0.093105063 0.024039535
0.40930611 0.094103657 0.02403345
0.40933648 0.095102251 0.024027364
0.40936682 0.096100844 0.024021279
0.40939718 0.097099438 0.024015194
0.40942752 0.09809804 0.024009109
0.40945786 0.099096633 0.024003023
0.40948823 0.10009522 0.023996938
0.40951857 0.10109382 0.023990855
0.40954894 0.10209242 0.023984769
0.40957928 0.103091 0.023978684
0.40960965 0.1040896 0.023972599
0.40875635 0.10522193 0.023470992
0.40878674 0.10622212 0.023464898
0.40881714 0.1072223 0.023458803
0.40884754 0.10822248 0.023452708
0.40887794 0.10922267 0.023446614
0.40890834 0.11022286 0.023440519
0.40893874 0.11122304 0.023434425
0.40896913 0.11222323 0.023428328
0.40899953 0.11322342 0.023422234
0.40902993 0.11422361 0.023416139
0.40906033 0.11522379 0.023410045
0.40909076 0.11622398 0.02340395
0.40912116 0.11722417 0.023397855
0.40915155 0.11822435 0.023391759
0.40829897 0.11938057 0.022890009
0.40832943 0.12038235 0.022883905
0.40835986 0.12138413 0.022877799
0.40839031 0.1223859 0.022871695
0.40842077 0.12338769 0.022865592
0.4084512 0.12438946 0.022859486
0.40848166 0.12539124 0.022853382
0.40851212 0.12639304 0.022847276
0.40854257 0.1273948 0.022841172
0.408573 0.12839659 0.022835068
0.40860346 0.12939836 0.022828963
0.40863392 0.13040015 0.022822859
0.4077819 0.13157706 0.022320956
0.40781239 0.13258044 0.022314841
0.4078429 0.13358381 0.022308728
0.40787339 0.13458718 0.022302613
0.40790391 0.13559057 0.022296498
0.40705225 0.13677703 0.021794563
0.40708277 0.13778201 0.021788439
0.40711331 0.13878696 0.021782314
0.40626186 0.13997981 0.021280341
0.4054105 0.14117584 0.020778349
0.40455922 0.14237505 0.020276334
0.40370798 0.14357747 0.019774271
0.40285692 0.14478305 0.019272219
0.4028877 0.14579597 0.019266047
0.40203676 0.14700633 0.018763965
0.2509217 0.40328068 -0.071351089
0.25270811 0.40364072 -0.070363835
0.25449431 0.40399441 -0.069376573
0.25628033 0.40434173 -0.068389282
0.2589395 0.40420809 -0.066904329
0.26072505 0.40454105 -0.065916948
0.26338369 0.40438992 -0.064431883
0.26516888 0.40470853 -0.063444376
0.26870003 0.40405893 -0.061461598
0.27135777 0.40387914 -0.059976365
0.27488825 0.40320563 -0.057993405
0.27754539 0.40300509 -0.056508046
0.28020218 0.40279505 -0.055022646
0.28285873 0.4025754 -0.05353716
0.2863878 0.40185574 -0.051553927
0.28904366 0.40161538 -0.050068341
0.29169929 0.40136552 -0.048582681
0.29435465 0.40110603 -0.047096953
0.29613701 0.4013339 -0.046108931
0.2987918 0.40105692 -0.044623096
0.30144626 0.40077043 -0.04313723
0.30322802 0.40097597 -0.042149045
0.30588201 0.4006719 -0.040663045
0.30766326 0.40086314 -0.0396748
0.30944434 0.40104803 -0.038686518
0.31122527 0.40122646 -0.037698168
0.31300592 0.4013986 -0.036709808
0.31478646 0.40156433 -0.03572138
0.31656677 0.40172371 -0.034732942
0.31834692 0.40187669 -0.033744425
0.31925479 0.40253928 -0.033253763
0.32103455 0.40268114 -0.032265216
0.32281417 0.40281659 -0.031276606
0.32459354 0.4029457 -0.030287983
0.32550088 0.40359083 -0.029797204
0.32727996 0.40370876 -0.028808486
0.3290588 0.40382037 -0.027819755
0.32996574 0.40445268 -0.027328897
0.33087263 0.40508181 -0.026837993
0.33177939 0.40570781 -0.026347108
0.33268604 0.40633059 -0.025856193
0.39765179 0.069088213 0.016965667
0.39856717 0.070031151 0.017455854
0.39948249 0.070970908 0.017946098
0.39951336 0.071987018 0.017939907
0.39954427 0.073003136 0.017933713
0.40045935 0.073936522 0.018423965
0.40137434 0.07486672 0.018914236
0.40228921 0.075793736 0.019404525
0.40320405 0.076717563 0.019894861
0.40411878 0.077638209 0.020385189
0.40414941 0.078646354 0.020379046
0.40506396 0.079562224 0.020869402
0.40597841 0.080474906 0.021359779
0.40600896 0.08147987 0.021353656
0.40692326 0.082387775 0.021844056
0.40695378 0.083391145 0.021837942
0.407868 0.084294267 0.022328408
0.40878206 0.085194208 0.022818863
0.40881246 0.086194389 0.022812769
0.40884286 0.087194577 0.022806674
0.40887326 0.088194765 0.02280058
0.40890366 0.089194953 0.022794485
0.40893406 0.090195142 0.022788391
0.4098478 0.091083936 0.023278913
0.40899485 0.092195518 0.0227762
0.40902525 0.093195707 0.022770105
0.40905565 0.094195887 0.02276401
0.40908605 0.095196076 0.022757916
0.40911645 0.096196264 0.022751821
0.40914688 0.097196452 0.022745725
0.40917727 0.098196641 0.02273963
0.40920767 0.099196829 0.022733536
0.40923807 0.10019701 0.022727441
0.40926847 0.1011972 0.022721346
0.40929887 0.10219738 0.022715252
0.40932927 0.10319757 0.022709155
0.40935966 0.10419776 0.022703061
0.40939006 0.10519795 0.022696966
0.40942046 0.10619813 0.022690872
0.40945086 0.10719832 0.022684777
0.40948129 0.1081985 0.022678683
0.40951169 0.1091987 0.022672588
0.40954208 0.11019888 0.022666492
0.40957248 0.11119907 0.022660397
0.40872055 0.11234409 0.022157481
0.40875101 0.11334588 0.022151377
0.40878147 0.11434765 0.022145271
0.40881193 0.11534943 0.022139167
0.40884236 0.11635121 0.022133064
0.40887281 0.11735299 0.022126958
0.40890327 0.11835478 0.022120854
0.4089337 0.11935655 0.02211475
0.40808219 0.12051592 0.021611713
0.40811267 0.1215193 0.0216056
0.40814319 0.12252266 0.021599485
0.40817368 0.12352604 0.021593371
0.40820417 0.12452941 0.021587256
0.40823469 0.12553278 0.021581143
0.40826517 0.12653616 0.021575028
0.40829566 0.12753952 0.021568913
0.40832618 0.1285429 0.0215628
0.40835667 0.12954627 0.021556685
0.40838715 0.13054964 0.021550572
0.40841767 0.13155301 0.021544456
0.40844816 0.13255639 0.021538343
0.40847865 0.13355976 0.021532228
0.40762791 0.13474301 0.021029085
0.40765846 0.13574797 0.021022961
0.40768901 0.13675293 0.021016836
0.40683845 0.13794257 0.020513648
0.40686905 0.13894911 0.020507514
0.40601864 0.14014351 0.020004299
0.40604928 0.14115167 0.019998156
0.40431806 0.14254189 0.018997779
0.40434879 0.14355321 0.018991617
0.40349871 0.14475876 0.018488333
0.4035295 0.1457717 0.01848216
0.40179887 0.14717941 0.017481703
0.40006837 0.14859352 0.016481183
0.25174513 0.40324953 -0.072356828
0.25352958 0.40360963 -0.071367115
0.25531375 0.40396342 -0.070377395
0.25709772 0.40431079 -0.069387637
0.25888157 0.40465179 -0.068397805
0.2615374 0.40451029 -0.066909134
0.26332083 0.40483698 -0.06591922
0.26597619 0.40467799 -0.064430408
0.26863122 0.40450943 -0.062941566
0.27128598 0.40433133 -0.061452635
0.27481246 0.40365958 -0.05946476
0.27746657 0.40346077 -0.057975739
0.28012043 0.40325239 -0.056486621
0.282774 0.40303448 -0.054997455
0.28542721 0.402807 -0.053508248
0.28895196 0.40207794 -0.051520023
0.29073292 0.40232337 -0.050529618
0.29425699 0.40157199 -0.048541259
0.29603738 0.4018015 -0.047550779
0.29868922 0.40152624 -0.046061266
0.3013407 0.40124145 -0.044571709
0.30312046 0.40144864 -0.043581069
0.30489999 0.4016495 -0.042590413
0.30755076 0.4013392 -0.041100685
0.30932987 0.40152574 -0.040109944
0.31110883 0.40170586 -0.039119139
0.31288752 0.40187967 -0.03812832
0.31466606 0.4020471 -0.037137464
0.31644443 0.40220812 -0.03614654
0.31822255 0.40236279 -0.035155606
0.32000053 0.40251106 -0.034164608
0.32177827 0.40265301 -0.033173595
0.32355589 0.40278855 -0.032182518
0.32446235 0.40343845 -0.031690534
0.32623956 0.40356287 -0.030699413
0.32801661 0.40368086 -0.029708229
0.32892272 0.40431803 -0.02921618
0.33069938 0.40442494 -0.028224953
0.33160526 0.40505409 -0.027732816
0.33251101 0.40568012 -0.027240697
0.33254611 0.40683481 -0.027247734
0.33345169 0.40745604 -0.026755575
0.3343572 0.40807405 -0.026263408
0.3352626 0.40868893 -0.025771212
0.39918107 0.068989046 0.016674463
0.399212 0.070006751 0.01666826
0.40012634 0.070946544 0.017159732
0.40015721 0.071962655 0.017153541
0.40107134 0.072897673 0.017645014
0.40198535 0.073829509 0.018136509
0.40201616 0.074842431 0.018130336
0.40293002 0.075769484 0.01862186
0.40296078 0.076780826 0.018615697
0.40387455 0.077703096 0.019107275
0.4047882 0.078622185 0.019598847
0.40570176 0.079538092 0.020090431
0.40573233 0.080544643 0.020084297
0.40664575 0.081455782 0.020575918
0.40667629 0.082460739 0.020569794
0.40758952 0.083367094 0.021061443
0.40762004 0.084370464 0.02105533
0.40853319 0.085272029 0.021547034
0.40856364 0.086273804 0.021540929
0.40947661 0.087170601 0.022032637
0.40950701 0.088170782 0.022026541
0.4095374 0.089170977 0.022020446
0.4095678 0.090171158 0.022014352
0.4095982 0.091171354 0.022008257
0.4096286 0.092171535 0.022002162
0.409659 0.093171723 0.021996068
0.4096894 0.094171911 0.021989971
0.40883768 0.095289826 0.021485988
0.40886813 0.096291602 0.021479882
0.40889859 0.097293384 0.021473778
0.40892902 0.09829516 0.021467675
0.40895948 0.099296942 0.021461569
0.40898994 0.10029873 0.021455465
0.40902039 0.1013005 0.021449361
0.40905082 0.10230228 0.021443255
0.40908128 0.10330406 0.021437151
0.40911174 0.10430583 0.021431047
0.40914217 0.10530762 0.021424942
0.40917262 0.1063094 0.021418838
0.40920308 0.10731117 0.021412732
0.40923354 0.10831296 0.021406628
0.40926397 0.10931473 0.021400524
0.40929443 0.11031651 0.021394419
0.40844348 0.11146151 0.020890243
0.40847397 0.11246489 0.020884128
0.40850446 0.11346826 0.020878015
0.40853497 0.11447163 0.0208719
0.40856546 0.115475 0.020865787
0.40859595 0.11647838 0.020859672
0.40862647 0.11748175 0.020853559
0.40865695 0.11848512 0.020847443
0.40868744 0.1194885 0.020841328
0.40871796 0.12049186 0.020835215
0.40874845 0.12149524 0.0208291
0.40877894 0.12249861 0.020822987
0.40880945 0.12350198 0.020816872
0.40883994 0.12450535 0.020810759
0.40887043 0.12550873 0.020804644
0.40890095 0.1265121 0.020798529
0.40893143 0.12751547 0.020792415
0.40896192 0.12851885 0.0207863
0.40899244 0.1295222 0.020780187
0.40902293 0.13052559 0.020774072
0.40905342 0.13152896 0.020767959
0.4082036 0.13270898 0.020263596
0.40823415 0.13371396 0.020257471
0.4082647 0.13471891 0.020251347
0.40829524 0.13572389 0.020245222
0.40744564 0.13691187 0.019740812
0.40747625 0.13791843 0.019734677
0.40750682 0.13892499 0.019728543
0.40665743 0.14011934 0.0192241
0.40580812 0.14131689 0.01871963
0.40495887 0.14251763 0.018215114
0.4049896 0.14352897 0.018208951
0.40414053 0.14473447 0.017704433
0.40417132 0.14574741 0.01769826
0.40244272 0.14715505 0.016695339
0.40071422 0.14856908 0.015692351
0.25165758 0.40238529 -0.073854677
0.2525686 0.40321836 -0.073362589
0.25435102 0.40357855 -0.07237041
0.25613317 0.40393242 -0.071378224
0.25704381 0.40475273 -0.070886046
0.25969696 0.40462092 -0.069393702
0.26147854 0.40495563 -0.068401396
0.26413119 0.40480632 -0.066908956
0.26591232 0.40512669 -0.065916561
0.2685644 0.40495986 -0.064424008
0.27208725 0.40430099 -0.062431276
0.27473873 0.40411344 -0.060938597
0.27738982 0.40391636 -0.059445873
0.28091159 0.40322247 -0.057452939
0.28356215 0.40300468 -0.055960067
0.28534156 0.40326771 -0.054967336
0.28799155 0.40303236 -0.053474352
0.29064122 0.40278751 -0.051981349
0.29329064 0.40253305 -0.050488263
0.2959398 0.40226904 -0.048995104
0.29771802 0.40249386 -0.048002131
0.30036664 0.40221235 -0.046508878
0.3030149 0.40192127 -0.045015592
0.30566293 0.40162063 -0.043522224
0.30744031 0.40181521 -0.042529039
0.30921742 0.40200341 -0.041535839
0.31186467 0.40167725 -0.040042304
0.31364137 0.40185115 -0.039049033
0.31541786 0.40201867 -0.038055707
0.31719422 0.40217975 -0.037062317
0.31897032 0.40233451 -0.036068916
0.3207463 0.40248284 -0.035075452
0.32252201 0.40262488 -0.034081973
0.32429761 0.40276048 -0.033088427
0.32520306 0.4034104 -0.032595221
0.32697824 0.40353492 -0.031601634
0.32875329 0.403653 -0.030607983
0.32965836 0.4042902 -0.030114701
0.33056334 0.40492421 -0.029621387
0.33146822 0.40555501 -0.029128063
0.33237305 0.40618268 -0.028634684
0.33327773 0.40680712 -0.028141323
0.33418232 0.40742838 -0.027647942
0.33508682 0.40804645 -0.027154531
0.3359912 0.40866137 -0.026661111
0.33689556 0.40927303 -0.026167635
0.33779976 0.40988156 -0.025674175
0.36612955 0.066411681 -0.0030371393
0.37410599 0.066875048 0.0014457299
0.39979497 0.067946941 0.015893077
0.40070838 0.068889961 0.016385762
0.40073928 0.069906071 0.016379571
0.40077016 0.070922181 0.016373379
0.40168333 0.071858831 0.016866077
0.40259638 0.072792292 0.017358789
0.40262717 0.07380522 0.017352616
0.40265796 0.074818149 0.017346444
0.40357083 0.07574524 0.017839199
0.40448368 0.076669142 0.018332001
0.40451434 0.077678889 0.018325849
0.40542698 0.078598015 0.018818654
0.40633953 0.07951396 0.019311473
0.4063701 0.080520511 0.019305339
0.4072825 0.081431687 0.019798191
0.40731305 0.082436644 0.019792067
0.4082253 0.083343036 0.020284951
0.40825579 0.084346406 0.020278836
0.40828627 0.085349783 0.020272722
0.40919837 0.086249791 0.02076567
0.40922883 0.087251566 0.020759564
0.40925929 0.088253349 0.02075346
0.40928975 0.089255132 0.020747356
0.40932018 0.090256907 0.02074125
0.40935063 0.09125869 0.020735146
0.40938109 0.092260465 0.020729043
0.40941152 0.093262248 0.020722937
0.40856075 0.094380125 0.020217692
0.40859127 0.095383503 0.020211579
0.40862176 0.096386872 0.020205464
0.40865225 0.097390249 0.020199351
0.40868276 0.098393619 0.020193236
0.40871325 0.099396989 0.020187121
0.40874374 0.10040036 0.020181008
0.40877426 0.10140373 0.020174893
0.40880474 0.10240711 0.020168779
0.40883523 0.10341047 0.020162664
0.40886575 0.10441384 0.020156551
0.40889624 0.10541723 0.020150436
0.40892673 0.1064206 0.020144321
0.40895724 0.10742397 0.020138208
0.40898773 0.10842735 0.020132093
0.40901822 0.10943072 0.02012598
0.40904874 0.11043409 0.020119864
0.40907922 0.11143746 0.020113751
0.40910971 0.11244083 0.020107636
0.40914023 0.1134442 0.020101521
0.40917072 0.11444757 0.020095408
0.40920123 0.11545095 0.020089293
0.40923172 0.11645432 0.02008318
0.40838218 0.11761042 0.019577729
0.40841272 0.11861538 0.019571604
0.40844327 0.11962035 0.01956548
0.40847382 0.12062531 0.019559357
0.40850434 0.12163027 0.019553233
0.40853488 0.12263525 0.019547109
0.40856543 0.12364021 0.019540984
0.40859598 0.12464517 0.01953486
0.40862653 0.12565014 0.019528737
0.40865707 0.1266551 0.019522613
0.40868762 0.12766007 0.019516489
0.40871817 0.12866503 0.019510364
0.40874872 0.12966999 0.01950424
0.40877926 0.13067497 0.019498117
0.40880981 0.13167992 0.019491993
0.40884036 0.13268489 0.019485869
0.40887091 0.13368987 0.019479744
0.40890145 0.13469481 0.01947362
0.40805283 0.13588119 0.018967986
0.40808341 0.13688773 0.018961852
0.40811402 0.1378943 0.018955719
0.40726557 0.13908702 0.01845005
0.40729621 0.14009517 0.018443907
0.40644792 0.14129268 0.017938204
0.40559968 0.14249338 0.017432455
0.40475157 0.14369726 0.016926713
0.40478235 0.1447102 0.01692054
0.40393439 0.14591885 0.016414775
0.40308654 0.14713068 0.015908984
0.40136009 0.14854464 0.01490353
0.39787662 0.15036598 0.012898789
0.25066167 0.40067828 -0.075848274
0.25244251 0.40105286 -0.074853718
0.25335255 0.40188763 -0.074360408
0.25426254 0.40271914 -0.073867075
0.25517246 0.40354747 -0.073373683
0.25695261 0.4039014 -0.072379045
0.25786221 0.40472177 -0.07188563
0.26051235 0.40459007 -0.070389591
0.26229191 0.40492487 -0.069394819
0.26407135 0.40525326 -0.068399996
0.26672065 0.40509611 -0.066903822
0.26936969 0.4049294 -0.065407559
0.27201846 0.40475309 -0.063911244
0.27553695 0.40408322 -0.061913528
0.27818504 0.40388626 -0.060417116
0.28083289 0.4036797 -0.058920618
0.28261057 0.40395239 -0.05792547
0.28612769 0.40323797 -0.055927478
0.28877464 0.40300271 -0.054430794
0.2905516 0.40325153 -0.053435512
0.29319805 0.40299878 -0.051938731
0.2958442 0.40273649 -0.050441884
0.29762048 0.40296298 -0.049446464
0.30026612 0.40268317 -0.047949523
0.3029114 0.40239382 -0.046452548
0.30468702 0.40259799 -0.045456953
0.3073318 0.40229115 -0.043959871
0.30997631 0.40197471 -0.042462707
0.31175122 0.40215659 -0.041467004
0.31352597 0.4023321 -0.040471233
0.31530052 0.40250126 -0.039475467
0.31707489 0.40266401 -0.038479619
0.31884903 0.40282047 -0.037483763
0.32062304 0.40297049 -0.036487836
0.32239679 0.40311417 -0.035491914
0.32417035 0.40325147 -0.034495939
0.32594377 0.40338239 -0.033499897
0.32771695 0.40350699 -0.032503847
0.32862121 0.40414894 -0.032009333
0.33039403 0.40426236 -0.031013211
0.33129799 0.40489641 -0.030518675
0.33220187 0.40552726 -0.030024119
0.33310568 0.40615496 -0.029529506
0.33400938 0.40677944 -0.029034913
0.33491296 0.40740076 -0.028540287
0.334948 0.40855381 -0.028547313
0.33671981 0.4086338 -0.027551001
0.33762315 0.40924549 -0.02705629
0.33765805 0.41039377 -0.027063288
0.39952737 0.066976301 0.014611611
0.40132135 0.06784948 0.015605595
0.40135223 0.068865597 0.015599403
0.4013831 0.069881707 0.015593211
0.40229532 0.070819981 0.016087126
0.40232614 0.071834505 0.016080944
0.40323821 0.07276801 0.016574895
0.40326899 0.073780939 0.016568722
0.40418091 0.074709654 0.017062698
0.40421164 0.075720996 0.017056534
0.40512347 0.076644935 0.017550569
0.40603513 0.077565692 0.018044598
0.40606576 0.078573845 0.018038455
0.4069773 0.079489827 0.018532507
0.4070079 0.080496378 0.018526373
0.40791929 0.081407592 0.019020453
0.40794984 0.082412556 0.019014331
0.40798038 0.08341752 0.019008206
0.40889156 0.084322348 0.019502331
0.40892205 0.085325725 0.019496217
0.40895256 0.086329095 0.019490102
0.40898305 0.087332465 0.019483989
0.40901354 0.088335834 0.019477874
0.40904406 0.089339212 0.019471761
0.40907454 0.090342581 0.019465646
0.40910503 0.091345958 0.019459531
0.40913555 0.092349328 0.019453418
0.40916604 0.093352698 0.019447302
0.40919653 0.094356075 0.019441189
0.40922704 0.095359445 0.019435074
0.40925753 0.096362814 0.019428961
0.40928802 0.097366191 0.019422846
0.40931854 0.098369561 0.019416731
0.40934902 0.099372931 0.019410618
0.40937951 0.1003763 0.019404503
0.40941003 0.10137968 0.019398389
0.40944052 0.10238305 0.019392274
0.40947101 0.10338642 0.019386159
0.40862185 0.10452178 0.018879602
0.4086524 0.10552675 0.018873477
0.40868294 0.10653171 0.018867355
0.40871349 0.10753668 0.01886123
0.40874404 0.10854164 0.018855106
0.40877458 0.1095466 0.018848982
0.40880513 0.11055157 0.018842859
0.40883568 0.11155653 0.018836735
0.40886623 0.1125615 0.01883061
0.40889674 0.11356647 0.018824486
0.40892729 0.11457143 0.018818362
0.40895784 0.11557639 0.018812239
0.40898839 0.11658136 0.018806115
0.40901893 0.11758633 0.01879999
0.40904948 0.11859129 0.018793866
0.40908003 0.11959626 0.018787742
0.40911058 0.12060121 0.018781619
0.40914112 0.12160618 0.018775495
0.40917167 0.12261115 0.01876937
0.40920222 0.12361611 0.018763246
0.40923277 0.12462107 0.018757124
0.40926331 0.12562604 0.018750999
0.40929386 0.12663101 0.018744875
0.40932441 0.12763597 0.01873875
0.40935495 0.12864093 0.018732626
0.4093855 0.1296459 0.018726503
0.40941605 0.13065088 0.018720379
0.4094466 0.13165583 0.018714255
0.40947714 0.13266079 0.01870813
0.40862942 0.13384394 0.018201288
0.40865999 0.13485049 0.018195154
0.4086906 0.13585705 0.01818902
0.40872121 0.1368636 0.018182887
0.40787372 0.1380547 0.017675994
0.40790436 0.13906285 0.017669851
0.40705702 0.14025873 0.017162925
0.40620974 0.1414578 0.016655952
0.40624049 0.14246914 0.01664979
0.40539339 0.14367299 0.016142821
0.40542418 0.14468591 0.016136648
0.40457723 0.14589453 0.015629644
0.40373039 0.14710632 0.015122625
0.40288356 0.14832133 0.014615556
0.39940414 0.1501409 0.012605922
0.25140887 0.39803827 -0.076841831
0.25144851 0.39934263 -0.076849781
0.25235781 0.40018374 -0.076355249
0.25326699 0.40102169 -0.075860716
0.25504553 0.40139002 -0.074863687
0.2559545 0.40221998 -0.07436908
0.2559939 0.40351638 -0.074376978
0.25777203 0.4038704 -0.073379859
0.25954998 0.40421802 -0.072382711
0.26132774 0.40455922 -0.071385488
0.2631053 0.40489408 -0.07038825
0.26488271 0.40522256 -0.069390953
0.26752898 0.40506554 -0.067891084
0.27017501 0.40489891 -0.066391133
0.27282074 0.40472275 -0.064891122
0.27546614 0.40453702 -0.063391075
0.27898026 0.40385619 -0.061388355
0.28162506 0.40364972 -0.059888158
0.28340074 0.4039225 -0.058890555
0.28604501 0.40369853 -0.05739025
0.28782025 0.40395698 -0.056392547
0.29133269 0.40322199 -0.054389495
0.29310748 0.40346444 -0.053391669
0.29575059 0.40320387 -0.05189117
0.29752496 0.40343201 -0.050893266
0.30016756 0.40315393 -0.049392659
0.30280989 0.40286627 -0.047891967
0.30458352 0.40307215 -0.046893954
0.30722535 0.40276697 -0.045393158
0.30986691 0.40245223 -0.043892302
0.31163982 0.40263578 -0.04289414
0.31341264 0.40281296 -0.041895915
0.31605336 0.40247276 -0.040394943
0.3178257 0.4026356 -0.039396629
0.31959784 0.40279213 -0.038398303
0.32136983 0.40294224 -0.037399925
0.32314155 0.40308598 -0.036401525
0.32491308 0.40322337 -0.035403095
0.32668447 0.40335435 -0.034404587
0.32845563 0.40347904 -0.033406068
0.32935891 0.40412104 -0.032910321
0.33026201 0.40475991 -0.032414582
0.33203265 0.4048686 -0.031415965
0.33293551 0.40549952 -0.030920174
0.33383834 0.40612724 -0.030424329
0.334741 0.40675175 -0.0299285
0.3347761 0.40790641 -0.029935537
0.33567861 0.40852618 -0.02943968
0.33658105 0.40914273 -0.028943803
0.33835074 0.40921795 -0.027944958
0.33838564 0.41036627 -0.027951954
0.40102279 0.06586273 0.014330294
0.40105373 0.066880435 0.014324093
0.40196517 0.067825116 0.014819236
0.40287647 0.068766624 0.01531437
0.40290731 0.069781139 0.015308188
0.40293813 0.070795663 0.015302006
0.40384924 0.071730793 0.015797175
0.40388003 0.072743729 0.015791003
0.40479097 0.073674075 0.0162862
0.40482172 0.07468541 0.016280038
0.40573257 0.07561098 0.016775297
0.40576327 0.076620728 0.016769143
0.40667391 0.077541523 0.017264405
0.40670457 0.078549676 0.017258262
0.40761507 0.079465695 0.017753547
0.40764567 0.080472246 0.017747413
0.40767628 0.081478812 0.01774128
0.40858659 0.082388461 0.018236604
0.40861714 0.083393425 0.018230479
0.40864769 0.084398389 0.018224355
0.40867823 0.085403353 0.018218232
0.40870878 0.086408317 0.018212108
0.40961879 0.087308407 0.018707495
0.40964931 0.088311784 0.018701382
0.4096798 0.089315154 0.018695267
0.40883097 0.090428181 0.018187612
0.40886152 0.091433138 0.018181488
0.40889207 0.092438109 0.018175364
0.40892261 0.093443073 0.018169239
0.40895316 0.094448037 0.018163117
0.40898371 0.095453002 0.018156992
0.40901423 0.096457966 0.018150868
0.40904477 0.097462937 0.018144744
0.40907532 0.098467894 0.018138619
0.40910587 0.099472858 0.018132497
0.40913641 0.10047782 0.018126372
0.40916696 0.10148279 0.018120248
0.40919751 0.10248776 0.018114123
0.40922806 0.10349272 0.018107999
0.4092586 0.10449769 0.018101877
0.40928915 0.10550265 0.018095752
0.4093197 0.10650762 0.018089628
0.40935025 0.10751259 0.018083503
0.40938079 0.10851754 0.018077381
0.40941134 0.10952251 0.018071257
0.40944189 0.11052747 0.018065132
0.40947244 0.11153244 0.018059008
0.40950298 0.11253741 0.018052883
0.40953353 0.11354237 0.018046761
0.40956408 0.11454733 0.018040637
0.40959463 0.11555229 0.018034512
0.40962517 0.11655727 0.018028388
0.40877768 0.11771489 0.017520467
0.40880826 0.11872144 0.017514333
0.40883887 0.119728 0.017508199
0.40886948 0.12073455 0.017502066
0.40890005 0.12174111 0.017495932
0.40893066 0.12274766 0.017489798
0.40896124 0.12375423 0.017483665
0.40899184 0.12476078 0.017477531
0.40902242 0.12576734 0.017471397
0.40905303 0.12677389 0.017465264
0.40908363 0.12778045 0.01745913
0.40911421 0.12878701 0.017452996
0.40914482 0.12979357 0.017446863
0.4091754 0.13080013 0.017440729
0.409206 0.13180669 0.017434595
0.40923661 0.13281325 0.017428461
0.40926719 0.1338198 0.017422328
0.40929779 0.13482636 0.017416194
0.40845123 0.13601424 0.016908089
0.40848187 0.13702238 0.016901946
0.4085125 0.13803053 0.016895801
0.40854314 0.13903868 0.016889658
0.40769681 0.14023453 0.016381498
0.40685055 0.14143355 0.015873292
0.40688127 0.14244489 0.015867129
0.40603521 0.1436487 0.015358927
0.406066 0.14466162 0.015352755
0.40522006 0.14587021 0.014844523
0.40437421 0.14708196 0.014336266
0.40352842 0.14829694 0.013827963
0.4009296 0.14991592 0.01231549
0.38083237 0.15664411 0.00075435825
0.25037876 0.39500433 -0.07883472
0.25128728 0.39585507 -0.078339033
0.25219572 0.39670259 -0.077843331
0.25223535 0.39800701 -0.077851281
0.25401235 0.39838812 -0.07685183
0.25405189 0.39968929 -0.076859765
0.25582853 0.40006086 -0.075860292
0.25586799 0.4013589 -0.075868204
0.25677595 0.4021889 -0.075372353
0.25768375 0.4030157 -0.074876525
0.25859144 0.40383941 -0.074380681
0.26036736 0.40418708 -0.073381066
0.26214314 0.40452838 -0.07238137
0.26391867 0.4048633 -0.071381681
0.26569405 0.40519187 -0.07038191
0.26833731 0.40503493 -0.068878353
0.2709803 0.40486845 -0.067374699
0.27275497 0.40517473 -0.066374816
0.27626538 0.40450677 -0.064367242
0.27890754 0.4043116 -0.062863424
0.28154939 0.40410686 -0.061359536
0.28419089 0.40389261 -0.059855618
0.28596437 0.40415907 -0.058855481
0.28860536 0.40392727 -0.057351455
0.29124609 0.4036859 -0.055847347
0.29388654 0.40343496 -0.05434319
0.29652664 0.40317452 -0.052838989
0.29829895 0.40340272 -0.051838621
0.30007106 0.40362462 -0.050838225
0.30184302 0.40384009 -0.049837779
0.30448207 0.40354618 -0.048333377
0.30712092 0.40324271 -0.046828888
0.30975947 0.40292969 -0.04532434
0.31153047 0.40311491 -0.044323735
0.31416848 0.40278435 -0.042819083
0.31593901 0.40295529 -0.041818388
0.31770936 0.40311983 -0.040817656
0.31947958 0.40327796 -0.039816849
0.32211658 0.40291399 -0.038311992
0.32388631 0.40305781 -0.037311133
0.32565582 0.40319526 -0.036310237
0.32655835 0.40384689 -0.035813302
0.32832754 0.40397322 -0.034812339
0.33009657 0.40409312 -0.033811297
0.33099866 0.40473202 -0.033314325
0.33190066 0.40536773 -0.03281733
0.33280256 0.40600026 -0.032320313
0.33457097 0.4060995 -0.031319149
0.33547264 0.40672407 -0.030822089
0.33550772 0.40787873 -0.030829126
0.33640924 0.40849853 -0.030332029
0.33731064 0.40911514 -0.029834921
0.33821198 0.40972853 -0.02933779
0.33911324 0.41033873 -0.028840611
0.37958243 0.064410664 0.00099870772
0.40163672 0.064820625 0.013548903
0.40254724 0.065768532 0.01404526
0.40257812 0.066784643 0.014039068
0.40348846 0.067727774 0.014535422
0.4035193 0.068742298 0.014529238
0.40442947 0.069680654 0.015025621
0.40446025 0.070693582 0.015019449
0.40449107 0.071706511 0.015013277
0.40540105 0.072638497 0.015509698
0.40543178 0.073649831 0.015503535
0.40634167 0.074577034 0.016000018
0.40637237 0.075586773 0.015993865
0.40728208 0.076509207 0.016490344
0.40731272 0.077517353 0.016484201
0.40734336 0.078525506 0.016478058
0.40825287 0.079441562 0.016974581
0.40828344 0.080448113 0.016968448
0.40831405 0.081454679 0.016962314
0.40834466 0.082461238 0.01695618
0.40925393 0.08336933 0.017452747
0.40928444 0.084374294 0.017446624
0.40931499 0.085379258 0.0174405
0.40934554 0.086384222 0.017434375
0.40937608 0.087389186 0.017428251
0.40940663 0.08839415 0.017422128
0.40943718 0.089399122 0.017416004
0.40946773 0.090404086 0.01740988
0.40949827 0.09140905 0.017403755
0.40952882 0.092414014 0.017397631
0.40955937 0.093418978 0.017391508
0.40958992 0.094423942 0.017385384
0.40962046 0.095428906 0.01737926
0.40965101 0.09643387 0.017373135
0.40968156 0.097438842 0.017367011
0.40971211 0.098443806 0.017360888
0.40974265 0.099448763 0.017354764
0.4097732 0.10045373 0.01734864
0.40980375 0.1014587 0.017342515
0.4098343 0.10246366 0.017336391
0.40898713 0.10359894 0.016827373
0.40901774 0.1046055 0.016821239
0.40904832 0.10561205 0.016815105
0.40907893 0.10661862 0.016808972
0.4091095 0.10762518 0.016802838
0.40914011 0.10863173 0.016796704
0.40917069 0.10963829 0.016790571
0.40920129 0.11064485 0.016784437
0.4092319 0.1116514 0.016778303
0.40926248 0.11265796 0.01677217
0.40929309 0.11366452 0.016766036
0.40932366 0.11467107 0.016759902
0.40935427 0.11567762 0.016753769
0.40938488 0.11668419 0.016747635
0.40941545 0.11769076 0.016741501
0.40944606 0.11869731 0.016735367
0.40947664 0.11970387 0.016729234
0.40950724 0.12071042 0.0167231
0.40953785 0.12171698 0.016716966
0.40956843 0.12272353 0.016710833
0.40959904 0.12373009 0.016704699
0.40962961 0.12473664 0.016698565
0.40966022 0.12574321 0.016692432
0.4096908 0.12674977 0.016686298
0.4097214 0.12775633 0.016680164
0.40975201 0.12876289 0.016674031
0.40978259 0.12976943 0.016667897
0.4098132 0.13077599 0.016661763
0.40984377 0.13178255 0.01665563
0.40987438 0.13278912 0.016649496
0.40902874 0.13397376 0.01614017
0.40905938 0.13498192 0.016134027
0.40909001 0.13599007 0.016127884
0.40912065 0.13699821 0.016121741
0.40915132 0.13800636 0.016115597
0.40830594 0.13920057 0.01560622
0.40833664 0.14021032 0.015600067
0.40749136 0.14140931 0.015090628
0.40752211 0.14242065 0.015084464
0.40667704 0.14362441 0.014575029
0.40670782 0.14463733 0.014568856
0.4058629 0.14584588 0.014059391
0.40501806 0.14705761 0.013549906
0.40417325 0.14827253 0.01304037
0.40157747 0.14989141 0.011524198
0.25022006 0.39150071 -0.080327578
0.25025985 0.39280987 -0.080335557
0.25203541 0.39321178 -0.079333805
0.25207508 0.39451778 -0.079341762
0.25298256 0.39536697 -0.078844838
0.25302222 0.39667132 -0.078852788
0.25479728 0.39705572 -0.077850886
0.25483683 0.39835691 -0.077858821
0.25574395 0.3991949 -0.077361822
0.25665098 0.40002975 -0.076864809
0.25755799 0.40086138 -0.076367751
0.25846484 0.40168986 -0.0758707
0.25937158 0.40251511 -0.075373627
0.26027822 0.40333724 -0.074876525
0.26118478 0.40415615 -0.074379414
0.26295853 0.4044975 -0.073377267
0.26473203 0.40483254 -0.072375104
0.26650539 0.40516117 -0.071372874
0.26914564 0.40500435 -0.069865614
0.27178559 0.40483797 -0.068358257
0.27355823 0.40514433 -0.067355923
0.27706465 0.40447652 -0.065343417
0.27970377 0.40428147 -0.063835897
0.28234258 0.40407684 -0.062328313
0.28498104 0.40386271 -0.060820706
0.28675252 0.40412924 -0.059818089
0.28939047 0.40389755 -0.058310375
0.29202819 0.4036563 -0.056802578
0.29379892 0.40390053 -0.055799853
0.2964361 0.40364179 -0.054291949
0.29820645 0.40387166 -0.053289112
0.30084306 0.40359542 -0.051781125
0.30261299 0.40381095 -0.050778199
0.30524904 0.40351716 -0.049270108
0.30701855 0.40371841 -0.048267104
0.30965406 0.4034071 -0.046758894
0.31228936 0.40308622 -0.045250613
0.3140581 0.40326518 -0.044247501
0.31582671 0.4034377 -0.043244313
0.31759509 0.40360391 -0.042241126
0.32022938 0.40324959 -0.040732626
0.32199731 0.40340149 -0.039729349
0.3237651 0.40354696 -0.038726009
0.32553264 0.40368611 -0.037722643
0.32730007 0.40381882 -0.036719225
0.32906723 0.40394524 -0.035715789
0.32996848 0.40458894 -0.035217609
0.33173534 0.40470415 -0.034214079
0.33263633 0.4053399 -0.033715852
0.33353722 0.40597245 -0.033217605
0.33443803 0.40660188 -0.03271934
0.33620426 0.40669638 -0.031715684
0.33623937 0.40785104 -0.031722721
0.33713987 0.40847087 -0.03122439
0.33804026 0.40908751 -0.030726047
0.33894059 0.40970096 -0.030227685
0.33897552 0.41085088 -0.030234693
0.38376728 0.064125389 0.0021952519
0.40228155 0.064796224 0.012761311
0.40319109 0.065744169 0.013258894
0.40322196 0.066760279 0.013252703
0.40413129 0.067703456 0.01375029
0.4050405 0.068643443 0.014247895
0.40507129 0.069656365 0.014241722
0.40510207 0.070669293 0.014235551
0.4060111 0.071602911 0.014733201
0.40604186 0.072614245 0.014727038
0.40607259 0.073625587 0.014720876
0.40698147 0.074552827 0.015218586
0.40789023 0.075476877 0.015716288
0.40792087 0.07648503 0.015710145
0.4079515 0.077493183 0.015704002
0.40798214 0.078501329 0.015697859
0.40801281 0.079509482 0.015691714
0.40892124 0.080423981 0.016189476
0.40895185 0.081430547 0.016183343
0.40898243 0.082437105 0.016177209
0.40901303 0.083443657 0.016171075
0.40904361 0.084450215 0.016164942
0.40907422 0.085456774 0.016158808
0.40910482 0.086463332 0.016152674
0.4091354 0.087469891 0.016146541
0.40916601 0.088476442 0.016140407
0.40919659 0.089483008 0.016134273
0.40922719 0.090489559 0.01612814
0.40925777 0.091496125 0.016122006
0.40928838 0.092502676 0.016115872
0.40931898 0.093509234 0.016109738
0.40934956 0.094515793 0.016103605
0.40938017 0.095522344 0.016097471
0.40941074 0.096528903 0.016091337
0.40944135 0.097535469 0.016085204
0.40947196 0.09854202 0.01607907
0.40950254 0.099548578 0.016072936
0.40953314 0.10055514 0.016066803
0.40956372 0.1015617 0.016060669
0.40959433 0.10256825 0.016054535
0.40962493 0.1035748 0.016048402
0.40965551 0.10458136 0.016042268
0.40968612 0.10558792 0.016036134
0.4097167 0.10659449 0.016030001
0.4097473 0.10760105 0.016023867
0.40977788 0.1086076 0.016017733
0.40980849 0.10961416 0.016011599
0.40983909 0.11062071 0.016005466
0.40986967 0.11162727 0.015999332
0.40990028 0.11263382 0.015993198
0.40905467 0.11378659 0.01548284
0.4090853 0.11479474 0.015476696
0.40911594 0.11580288 0.015470553
0.40914658 0.11681104 0.01546441
0.40917724 0.11781919 0.015458266
0.40920788 0.11882734 0.015452123
0.41011444 0.11967973 0.015950263
0.41014504 0.12068629 0.015944129
0.41017562 0.12169284 0.015937995
0.41020623 0.12269939 0.015931861
0.40936109 0.12386809 0.015421406
0.40939173 0.12487623 0.015415262
0.40942237 0.1258844 0.015409119
0.409453 0.12689255 0.015402975
0.40948367 0.12790069 0.015396832
0.40951431 0.12890884 0.015390689
0.40954494 0.129917 0.015384546
0.40957558 0.13092515 0.015378403
0.40960625 0.13193329 0.015372259
0.40963688 0.13294144 0.015366116
0.40966752 0.13394959 0.015359972
0.40969816 0.13495775 0.015353829
0.4097288 0.1359659 0.015347686
0.40888435 0.13715687 0.014837094
0.40891504 0.13816662 0.01483094
0.40894574 0.13917635 0.014824787
0.40810144 0.14037374 0.014314131
0.40813217 0.14138506 0.014307967
0.40816289 0.14239639 0.014301805
0.40731883 0.14360012 0.01379113
0.40734965 0.14461306 0.013784957
0.4065057 0.14582156 0.013274259
0.40566188 0.14703324 0.012763541
0.40569279 0.14804935 0.012757349
0.40222535 0.14986689 0.010732911
0.39700931 0.15210107 0.0076992586
0.25100979 0.39016017 -0.081332751
0.25191656 0.39101896 -0.08083465
0.2528232 0.39187449 -0.080336533
0.25372976 0.3927269 -0.079838388
0.2537694 0.39403129 -0.079846337
0.25467589 0.39487889 -0.079348147
0.25558221 0.39572328 -0.078849956
0.25648841 0.39656457 -0.078351751
0.25739455 0.39740261 -0.077853523
0.25830063 0.39823747 -0.077355236
0.25834003 0.39953387 -0.077363133
0.2592459 0.40036398 -0.076864861
0.26015168 0.40119091 -0.076366566
0.26019099 0.40248412 -0.076374441
0.26109666 0.40330628 -0.075876124
0.26286852 0.40365249 -0.074871533
0.26377392 0.40446666 -0.074373163
0.2664116 0.40432587 -0.072862305
0.26731676 0.40513048 -0.072363831
0.26995394 0.40497378 -0.070852876
0.27172488 0.40528816 -0.069848098
0.27436152 0.40511394 -0.068337031
0.27699795 0.40493011 -0.066825874
0.28049996 0.40425134 -0.064808376
0.28313577 0.4040468 -0.0632971
0.2849054 0.40432143 -0.062292092
0.28754067 0.4040994 -0.060780711
0.28930989 0.40435964 -0.059775628
0.29194462 0.40412012 -0.05826414
0.294579 0.40387103 -0.056752618
0.29721314 0.40361238 -0.055241
0.29898149 0.40384233 -0.054235708
0.3007496 0.40406597 -0.053230401
0.3025175 0.4042832 -0.052225057
0.30515063 0.4039911 -0.050713237
0.30691808 0.40419403 -0.049707808
0.3095507 0.40388444 -0.048195891
0.31218299 0.40356523 -0.046683904
0.31394979 0.40374583 -0.045678336
0.31571645 0.40392008 -0.044672705
0.31748286 0.40408793 -0.043667059
0.32011414 0.40373531 -0.042154882
0.3218801 0.40388888 -0.041149143
0.32364595 0.40403602 -0.040143337
0.32541153 0.40417683 -0.039137527
0.32717693 0.40431124 -0.03813168
0.32894215 0.4044393 -0.037125759
0.33070716 0.40456098 -0.036119834
0.33160734 0.40520152 -0.035620369
0.333372 0.40531206 -0.034614373
0.33427188 0.40594465 -0.034114894
0.33517167 0.4065741 -0.033615395
0.3360714 0.40720031 -0.033115853
0.33697098 0.40782338 -0.03261631
0.33787048 0.40844324 -0.032116752
0.33876988 0.40905991 -0.031617176
0.33966917 0.40967339 -0.031117581
0.33970413 0.41082332 -0.031124586
0.40380403 0.064703695 0.012478733
0.40558997 0.065580368 0.013482526
0.40562075 0.066593297 0.013476353
0.40565154 0.067606226 0.01347018
0.40568233 0.068619154 0.013464008
0.40659043 0.069555998 0.013962867
0.40662119 0.070567325 0.013956704
0.40665191 0.071578667 0.013950542
0.40668267 0.072590001 0.013944379
0.4075906 0.073518872 0.014443313
0.40762129 0.074528612 0.01443716
0.40852901 0.075452708 0.014936096
0.40855965 0.076460861 0.014929952
0.40859029 0.077469014 0.014923809
0.40862092 0.078477159 0.014917666
0.40865159 0.079485312 0.014911522
0.40868223 0.080493458 0.014905379
0.40871286 0.081501611 0.014899235
0.4087435 0.082509764 0.014893092
0.4096508 0.083419524 0.015392116
0.40968141 0.084426083 0.015385983
0.40971199 0.085432641 0.015379849
0.40974259 0.0864392 0.015373715
0.40977317 0.087445758 0.015367582
0.40892738 0.088558659 0.014856231
0.40895802 0.089566812 0.014850088
0.40898865 0.090574965 0.014843945
0.40901929 0.091583118 0.014837801
0.40904993 0.092591263 0.014831658
0.40908059 0.093599416 0.014825515
0.40911123 0.094607562 0.014819372
0.40914187 0.095615715 0.014813228
0.40917251 0.09662386 0.014807085
0.40920314 0.097632013 0.014800942
0.40923381 0.098640166 0.014794798
0.40926445 0.099648312 0.014788655
0.41017091 0.100531 0.015287844
0.41020152 0.10153756 0.01528171
0.4102321 0.10254411 0.015275576
0.4102627 0.10355067 0.015269442
0.41029328 0.10455723 0.015263309
0.41032389 0.10556379 0.015257175
0.40947893 0.10670537 0.014745651
0.4095096 0.10771351 0.014739507
0.40954024 0.10872167 0.014733364
0.40957087 0.10972981 0.014727221
0.40960151 0.11073796 0.014721077
0.40963215 0.11174612 0.014714934
0.40966281 0.11275426 0.01470879
0.40969345 0.11376242 0.014702647
0.40972409 0.11477057 0.014696504
0.40975472 0.11577871 0.01469036
0.40978539 0.11678687 0.014684217
0.40981603 0.11779502 0.014678073
0.40984666 0.11880317 0.01467193
0.4098773 0.11981132 0.014665786
0.40990794 0.12081946 0.014659643
0.4099386 0.12182762 0.0146535
0.40996924 0.12283576 0.014647356
0.40999988 0.12384392 0.014641213
0.41003051 0.12485206 0.014635069
0.41006115 0.12586023 0.014628926
0.41009182 0.12686838 0.014622783
0.41012245 0.12787652 0.014616639
0.41015309 0.12888467 0.014610496
0.41018373 0.12989283 0.014604352
0.41021436 0.13090098 0.014598209
0.41024503 0.13190912 0.014592066
0.41027567 0.13291727 0.014585922
0.40943208 0.13410345 0.014074126
0.40946278 0.13511318 0.014067974
0.40949345 0.13612293 0.014061821
0.40952414 0.13713266 0.014055667
0.40868074 0.13832681 0.013543797
0.40871149 0.13933815 0.013537634
0.40874222 0.14034948 0.013531471
0.40877298 0.1413608 0.013525308
0.4088037 0.14237215 0.013519146
0.40796065 0.14357585 0.013007242
0.40799144 0.14458877 0.01300107
0.40714854 0.14579724 0.012489138
0.40630573 0.14700888 0.011977187
0.40633661 0.14802501 0.011970995
0.40374678 0.14964207 0.010447412
0.39941025 0.15167251 0.0079121739
0.39332721 0.1541259 0.0043651909
0.38724491 0.15660155 0.0008181046
0.25447696 0.39008686 -0.08083193
0.2545166 0.39139125 -0.08083988
0.25628802 0.39178851 -0.079833142
0.25632757 0.39308971 -0.07984107
0.25723287 0.39393419 -0.07934165
0.25727236 0.39523378 -0.07934957
0.25817755 0.39607349 -0.07885012
0.25908265 0.39690995 -0.078350618
0.25912207 0.39820638 -0.078358524
0.26002699 0.39903811 -0.077859022
0.26093182 0.39986667 -0.077359505
0.26097113 0.40115988 -0.07736738
0.26187581 0.40198365 -0.076867834
0.26278037 0.40280426 -0.076368265
0.26455021 0.40314895 -0.075361207
0.26545453 0.40396157 -0.074861594
0.26722395 0.40429512 -0.073854491
0.26812813 0.40509978 -0.073354796
0.27076226 0.4049432 -0.071840137
0.27253118 0.40525764 -0.070832893
0.27516481 0.40508354 -0.069318131
0.27779818 0.40489984 -0.067803271
0.2804313 0.40470663 -0.066288359
0.28306407 0.40450382 -0.064773425
0.28569657 0.40429151 -0.063258402
0.28832883 0.4040696 -0.061743319
0.29009601 0.4043299 -0.06073577
0.29272771 0.40409049 -0.059220582
0.29535908 0.4038415 -0.057705361
0.29712564 0.4040795 -0.056697648
0.29975653 0.403813 -0.055182297
0.30152261 0.40403673 -0.054174524
0.30328849 0.40425402 -0.05316671
0.3059186 0.40396205 -0.051651202
0.30768403 0.40416506 -0.050643306
0.30944934 0.40436164 -0.049635328
0.31207868 0.40404418 -0.048119664
0.31384349 0.40422645 -0.047111642
0.31647229 0.40389147 -0.045595869
0.31823668 0.40405941 -0.044587757
0.32000089 0.404221 -0.043579608
0.32176492 0.40437621 -0.042571392
0.32439271 0.40400776 -0.041055415
0.32615629 0.40414864 -0.040047139
0.32791963 0.40428314 -0.039038822
0.32968289 0.40441129 -0.038030438
0.33058214 0.40505666 -0.0375298
0.33234501 0.4051736 -0.036521353
0.33324403 0.40581104 -0.03602067
0.33500654 0.40591687 -0.035012178
0.33590531 0.40654635 -0.034511447
0.33680403 0.40717259 -0.034010667
0.33770263 0.4077957 -0.033509899
0.33773771 0.40895036 -0.033516932
0.33863616 0.40956864 -0.033016134
0.33953449 0.41018379 -0.032515313
0.34043273 0.41079572 -0.032014474
0.40444785 0.064679332 0.011692373
0.40623179 0.065556087 0.012698627
0.40626258 0.066569015 0.012692454
0.40629336 0.067581944 0.012686282
0.40720052 0.068520412 0.013186364
0.40723124 0.069531746 0.013180202
0.407262 0.070543081 0.013174039
0.40729272 0.071554415 0.013167876
0.40732348 0.072565749 0.013161713
0.40823039 0.073494665 0.01366188
0.40826109 0.074504405 0.013655727
0.4091678 0.075428538 0.014155897
0.40919843 0.076436691 0.014149753
0.4092291 0.077444844 0.01414361
0.40925974 0.078452989 0.014137467
0.40929037 0.079461142 0.014131323
0.40932101 0.080469288 0.01412518
0.40935165 0.081477441 0.014119036
0.40938231 0.082485594 0.014112893
0.40941295 0.083493747 0.01410675
0.40944359 0.084501892 0.014100607
0.40947422 0.085510045 0.014094464
0.40950486 0.086518191 0.01408832
0.40953553 0.087526344 0.014082177
0.40956616 0.088534489 0.014076033
0.4095968 0.089542642 0.01406989
0.40962744 0.090550795 0.014063747
0.4096581 0.091558948 0.014057603
0.40968874 0.092567094 0.01405146
0.40971938 0.093575247 0.014045316
0.40975001 0.094583392 0.014039173
0.40978065 0.095591545 0.014033029
0.40981132 0.096599691 0.014026886
