# .PCD v0.7 - Point Cloud Data file format
VERSION 0.7
FIELDS x y z
SIZE 4 4 4
TYPE F F F
COUNT 1 1 1
WIDTH 1407
HEIGHT 1
VIEWPOINT 0 0 0 1 0 0 0
POINTS 1407
DATA ascii
0.39593267 0.07351654 0.042869426
0.39596295 0.074511945 0.042863362
0.3959932 0.075507358 0.042857297
0.39602345 0.07650277 0.042851232
0.3960537 0.077498175 0.042845163
0.39699215 0.078401975 0.043306008
0.39793047 0.079302594 0.043766871
0.39886871 0.080200024 0.044227753
0.40071493 0.080997884 0.045155618
0.40165293 0.081887349 0.045616549
0.40259084 0.082773633 0.046077501
0.40352866 0.083656728 0.046538468
0.40537423 0.084433883 0.047466472
0.40631181 0.085309014 0.047927491
0.40815699 0.086075023 0.048855525
0.40909439 0.086942188 0.049316619
0.41003162 0.08780618 0.049777701
0.41187632 0.08855626 0.050705846
0.41281331 0.089412279 0.051166981
0.41465774 0.090151206 0.052095205
0.41559446 0.090999268 0.052556388
0.41653112 0.091844141 0.05301759
0.41746765 0.092685826 0.053478811
0.41840416 0.093524322 0.05394008
0.42024776 0.094237782 0.054868445
0.42118397 0.095068321 0.055329736
0.42212012 0.095895663 0.055791069
0.42305616 0.096719839 0.056252398
0.42399207 0.097540818 0.056713745
0.42492789 0.098358624 0.057175115
0.42677063 0.099041797 0.058103692
0.42770618 0.099851638 0.058565106
0.42864168 0.10065829 0.059026543
0.42957705 0.10146175 0.059487995
0.4305124 0.10226203 0.059949495
0.4314476 0.10305912 0.060410991
0.43238267 0.10385303 0.060872503
0.43331766 0.10464375 0.061334036
0.43425256 0.10543129 0.061795589
0.43518743 0.10621563 0.062257197
0.43612212 0.10699681 0.062718786
0.43705672 0.10777479 0.063180394
0.43708485 0.10870012 0.063174762
0.43801934 0.10947333 0.0636364
0.4389537 0.11024335 0.064098053
0.439888 0.11101017 0.064559758
0.44082218 0.11177383 0.065021463
0.44175625 0.11253428 0.065483183
0.44269025 0.11329157 0.065944918
0.44362417 0.11404565 0.066406697
0.44455796 0.11479656 0.066868477
0.44549164 0.11554428 0.067330271
0.44642523 0.11628882 0.067792088
0.44735873 0.11703017 0.068253919
0.4482922 0.11776832 0.068715803
0.44831973 0.11867455 0.068710282
0.44925299 0.11940794 0.069172166
0.44928047 0.12031257 0.069166653
0.45021358 0.12104118 0.069628559
0.4511466 0.1217666 0.070090495
0.45117399 0.12266805 0.070084997
0.45210692 0.12338868 0.070546992
0.45303968 0.12410615 0.071008973
0.45306697 0.1250044 0.071003497
0.45399961 0.12571709 0.071465507
0.45402685 0.12661375 0.071460038
0.45495933 0.12732166 0.071922079
0.45498654 0.12821673 0.071916625
0.45591888 0.12891985 0.072378688
0.45594603 0.12981334 0.072373241
0.45687827 0.13051167 0.072835371
0.45690539 0.13140357 0.072829939
0.45693249 0.13229544 0.072824501
0.45786449 0.13298744 0.073286638
0.45789155 0.13387772 0.073281214
0.45882341 0.13456494 0.073743373
0.45975515 0.13524894 0.074205555
0.45978212 0.13613605 0.074200153
0.46071371 0.13681529 0.074662365
0.46164528 0.13749133 0.075124629
0.46167216 0.13837525 0.075119242
0.46260351 0.13904653 0.075581498
0.46263033 0.13992886 0.075576119
0.46356156 0.14059536 0.076038413
0.46358833 0.14147609 0.076033048
0.46361509 0.14235684 0.076027676
0.46454611 0.14301696 0.076490007
0.46457285 0.14389612 0.07648465
0.46550378 0.14455144 0.076947041
0.46553046 0.145429 0.076941691
0.46646118 0.14607957 0.077404074
0.4664878 0.14695553 0.07739874
0.4674184 0.14760134 0.077861153
0.46744499 0.14847569 0.077855825
0.46837541 0.14911671 0.078318268
0.46930575 0.14975454 0.07878074
0.46933225 0.15062572 0.078775436
0.4702625 0.15125875 0.079237953
0.47028893 0.15212835 0.079232655
0.471219 0.15275663 0.079695173
0.47124538 0.15362462 0.079689883
0.4721753 0.15424812 0.080152437
0.47220162 0.15511452 0.080147155
0.47222796 0.15598093 0.08014188
0.47315767 0.15659805 0.080604471
0.47318396 0.15746287 0.080599204
0.47321025 0.15832767 0.080593936
0.47413978 0.15893842 0.081056565
0.47416601 0.15980166 0.081051305
0.47509545 0.1604076 0.081513986
0.47512165 0.16126925 0.081508733
0.47605088 0.16187043 0.081971422
0.47698 0.16246846 0.08243414
0.47700611 0.16332689 0.082428902
0.47793508 0.16392013 0.082891643
0.47796112 0.16477698 0.08288642
0.47889003 0.16536543 0.083349213
0.47891602 0.16622068 0.083343998
0.47894204 0.16707593 0.08333879
0.47987068 0.16765802 0.08380159
0.47989663 0.16851169 0.083796389
0.48082513 0.16908899 0.084259227
0.48085102 0.16994107 0.084254034
0.4817794 0.1705136 0.084716901
0.48180524 0.17136407 0.084711716
0.4818311 0.17221455 0.08470653
0.48275927 0.17278071 0.085169435
0.48278508 0.17362961 0.085164264
0.48371315 0.17419097 0.085627221
0.4837389 0.17503825 0.085622057
0.48466676 0.17559485 0.086085021
0.48469248 0.17644057 0.086079866
0.48562023 0.17699239 0.086542852
0.48564586 0.17783649 0.086537711
0.48657346 0.17838356 0.087000728
0.48659906 0.17922606 0.086995594
0.48662469 0.18006857 0.086990461
0.48755214 0.18060923 0.087453544
0.48757771 0.18145016 0.087448418
0.48760325 0.18229108 0.087443292
0.48762882 0.18313199 0.087438166
0.48855597 0.18366472 0.087901279
0.48858148 0.18450405 0.087896161
0.48860699 0.18534337 0.08789105
0.4886325 0.18618271 0.087885931
0.48865801 0.18702205 0.08788082
0.48868352 0.18786137 0.087875701
0.48961034 0.18838292 0.088338874
0.4896358 0.18922067 0.088333771
0.48966125 0.1900584 0.088328667
0.48968673 0.19089614 0.088323563
0.48971218 0.19173387 0.08831846
0.48973766 0.19257161 0.088313356
0.48976311 0.19340934 0.088308245
0.48978859 0.19424708 0.088303141
0.48981404 0.19508483 0.088298038
0.48983949 0.19592255 0.088292934
0.48986498 0.19676028 0.08828783
0.48989043 0.19759803 0.088282727
0.48991591 0.19843577 0.088277616
0.48994136 0.1992735 0.088272512
0.48996681 0.20011123 0.088267408
0.48909169 0.20129064 0.087793872
0.48911721 0.20212996 0.087788753
0.48914272 0.20296928 0.087783642
0.48916823 0.20380861 0.087778524
0.48919377 0.20464794 0.087773412
0.48921928 0.20548727 0.087768294
0.48834449 0.20667781 0.087294683
0.48837006 0.20751873 0.087289564
0.4883956 0.20835964 0.087284438
0.48842117 0.20920056 0.087279312
0.48844674 0.21004148 0.087274186
0.48847228 0.21088241 0.087269068
0.48759779 0.21208411 0.086795367
0.48762342 0.21292663 0.086790234
0.48764902 0.21376914 0.086785093
0.48767462 0.21461166 0.086779959
0.48770022 0.21545418 0.086774826
0.48772585 0.21629667 0.086769693
0.48775145 0.2171392 0.086764559
0.48687741 0.21835363 0.086290807
0.48690307 0.21919772 0.086285666
0.48692873 0.22004183 0.086280525
0.48695439 0.22088595 0.086275376
0.48698002 0.22173005 0.086270235
0.48610628 0.22295402 0.085796423
0.486132 0.22379974 0.085791275
0.48615769 0.22464544 0.085786119
0.4861834 0.22549112 0.085780963
0.48620909 0.22633682 0.085775807
0.48623481 0.22718254 0.085770659
0.4862605 0.22802822 0.085765503
0.48628622 0.22887392 0.085760348
0.48721096 0.22932702 0.086223938
0.48723662 0.23017113 0.086218797
0.48726225 0.23101524 0.086213656
0.48728791 0.23185933 0.086208507
0.48731357 0.23270345 0.086203367
0.48823801 0.23314697 0.086667016
0.48826364 0.23398948 0.086661883
0.48918799 0.2344282 0.087125584
0.25003189 0.39841926 -0.038857669
0.25275999 0.39826068 -0.037457611
0.25548783 0.39809254 -0.036057509
0.25642249 0.39887214 -0.035595909
0.25825343 0.39916834 -0.034665011
0.26008418 0.39945808 -0.033734038
0.39834806 0.072333239 0.043041322
0.39837822 0.073325463 0.043035276
0.39840838 0.074317686 0.04302923
0.39753124 0.075396702 0.042555071
0.39756143 0.07639052 0.042549014
0.39849886 0.077294357 0.043011092
0.39943618 0.078195013 0.043473188
0.4003734 0.07909248 0.043935303
0.40131059 0.079986759 0.044397466
0.40224764 0.080877863 0.044859618
0.40318456 0.081765771 0.045321792
0.40412143 0.082650505 0.045783985
0.40596509 0.083430916 0.046714436
0.40690169 0.084307678 0.047176678
0.4078382 0.085181259 0.047638938
0.40877458 0.08605165 0.04810122
0.40971097 0.086918853 0.048563544
0.41064718 0.08778289 0.049025863
0.41248989 0.088533044 0.049956463
0.41342586 0.089389101 0.050418831
0.41436177 0.090241969 0.050881244
0.41529757 0.091091663 0.05134365
0.41713962 0.091821119 0.052274372
0.41807517 0.092662841 0.05273683
0.41901067 0.093501374 0.053199328
0.41994599 0.094336741 0.053661823
0.42088124 0.095168903 0.054124337
0.42272258 0.095872872 0.055055253
0.4236576 0.096697077 0.055517815
0.42459249 0.097518101 0.055980396
0.4255273 0.098335937 0.056442998
0.42646202 0.099150591 0.056905616
0.42830259 0.09982907 0.057836678
0.42923707 0.10063577 0.058299348
0.43017143 0.10143927 0.058762036
0.43110576 0.10223958 0.059224769
0.43294567 0.10289736 0.060155928
0.4338797 0.10368972 0.060618684
0.43390802 0.10462142 0.060613006
0.4348419 0.10540899 0.061075792
0.43577576 0.10619337 0.061538622
0.43670943 0.10697459 0.062001452
0.43764305 0.10775261 0.062464297
0.43767118 0.10867794 0.062458657
0.43860462 0.10945118 0.062921531
0.43953797 0.11022124 0.063384421
0.44047129 0.1109881 0.063847356
0.44140446 0.11175179 0.06431029
0.44233751 0.11251229 0.064773239
0.4432705 0.11326961 0.065236211
0.44420344 0.11402373 0.065699227
0.44513619 0.11477468 0.066162236
0.44606888 0.11552244 0.066625267
0.44700146 0.11626702 0.067088313
0.44793394 0.11700841 0.067551382
0.4488664 0.1177466 0.068014495
0.44889393 0.11865283 0.068008967
0.44982618 0.11938625 0.068472087
0.45075831 0.12011649 0.068935223
0.45078576 0.12101953 0.068929717
0.45171776 0.12174499 0.069392882
0.45264974 0.12246726 0.069856092
0.45267707 0.12336711 0.069850609
0.45360884 0.12408461 0.070313819
0.45363614 0.12498286 0.070308343
0.45456776 0.1256956 0.070771582
0.454595 0.12659225 0.070766121
0.45552647 0.1273002 0.071229398
0.45555368 0.12819527 0.071223944
0.456485 0.12889844 0.071687244
0.45651215 0.12979192 0.071681798
0.45744339 0.13049029 0.072145157
0.45747051 0.13138218 0.072139718
0.45749763 0.13227406 0.072134286
0.45842859 0.13296609 0.072597653
0.4593595 0.13365491 0.073061034
0.4593865 0.13454363 0.073055625
0.46031725 0.13522768 0.073519036
0.46124789 0.13590854 0.07398247
0.4612748 0.13679406 0.073977076
0.46220535 0.13747014 0.074440569
0.46223223 0.13835406 0.074435182
0.46316257 0.13902538 0.074898675
0.46409285 0.13969351 0.075362191
0.46411961 0.14057425 0.075356819
0.46414638 0.14145498 0.075351454
0.46507645 0.14211674 0.075815007
0.46510318 0.14299589 0.07580965
0.46512988 0.14387503 0.075804293
0.4660598 0.1445304 0.076267913
0.46698958 0.14518261 0.076731525
0.46701622 0.14605857 0.076726183
0.46794584 0.146706 0.077189825
0.46797243 0.14758037 0.077184498
0.4689019 0.14822301 0.077648163
0.46892843 0.14909579 0.077642851
0.46985778 0.14973365 0.078106545
0.46988425 0.15060484 0.078101233
0.47081348 0.15123791 0.078564987
0.47083992 0.15210751 0.078559689
0.47176898 0.15273581 0.079023443
0.47269791 0.15336093 0.079487219
0.47272426 0.15422735 0.079481937
0.4727506 0.15509374 0.079476662
0.47277692 0.15596016 0.07947138
0.47370565 0.15657732 0.079935208
0.47373194 0.15744212 0.079929933
0.47466049 0.15805452 0.080393784
0.47468674 0.15891774 0.080388524
0.47471297 0.15978096 0.080383264
0.4756414 0.16038695 0.080847189
0.47656965 0.16098978 0.081311099
0.47659579 0.16184983 0.081305861
0.47752392 0.16244787 0.081769802
0.47755003 0.16330631 0.081764571
0.47847801 0.16389959 0.082228541
0.47850406 0.16475645 0.082223319
0.47943196 0.16534492 0.082687341
0.47945794 0.16620018 0.082682133
0.48038563 0.16678388 0.083146155
0.48041159 0.16763756 0.083140954
0.48043752 0.16849121 0.083135754
0.48136503 0.16906856 0.083599821
0.48139092 0.16992064 0.083594628
0.48231828 0.1704932 0.084058724
0.48234412 0.17134368 0.084053539
0.48236999 0.17219417 0.084048361
0.48329714 0.17276035 0.084512495
0.48332295 0.17360926 0.084507316
0.48425001 0.17417066 0.084971517
0.48427576 0.17501794 0.084966354
0.48520264 0.17557457 0.08543054
0.48522833 0.17642029 0.085425392
0.48525405 0.17726599 0.085420236
0.48618072 0.17781626 0.085884467
0.48620638 0.17866038 0.085879326
0.48713291 0.17920586 0.086343586
0.48715851 0.18004838 0.086338453
0.48718414 0.18089089 0.086333312
0.48720974 0.1817334 0.086328179
0.48813608 0.18227091 0.086792514
0.48816162 0.18311183 0.086787395
0.48818719 0.18395278 0.086782269
0.48821276 0.1847937 0.086777143
0.48913881 0.18532324 0.087241501
0.48916432 0.18616258 0.08723639
0.48918983 0.18700191 0.087231271
0.48921534 0.18784124 0.08722616
0.48924085 0.18868056 0.087221041
0.48926637 0.1895199 0.08721593
0.48929188 0.19035922 0.087210812
0.48931739 0.19119856 0.087205701
0.49024299 0.19171378 0.08767014
0.49026847 0.19255152 0.087665036
0.49029392 0.19338925 0.087659933
0.48941943 0.19455586 0.087185241
0.48944494 0.19539522 0.087180123
0.48947045 0.19623454 0.087175012
0.48949596 0.19707386 0.087169893
0.48952147 0.19791318 0.087164782
0.48954698 0.19875251 0.087159663
0.4895725 0.19959183 0.087154552
0.48959801 0.20043117 0.087149434
0.48872396 0.20161211 0.08667466
0.48874953 0.20245303 0.086669534
0.48877507 0.20329395 0.086664408
0.48880064 0.20413487 0.086659282
0.48882622 0.2049758 0.086654156
0.48885176 0.20581672 0.086649038
0.48797798 0.20700884 0.08617416
0.48800361 0.20785134 0.086169027
0.48802921 0.20869386 0.086163893
0.48805481 0.20953637 0.08615876
0.48808041 0.21037889 0.086153626
0.487207 0.21158053 0.085678719
0.48723266 0.21242464 0.085673571
0.48725832 0.21326874 0.08566843
0.48728397 0.21411285 0.085663289
0.48730963 0.21495695 0.08565814
0.48733529 0.21580106 0.085653
0.48736092 0.21664517 0.085647851
0.48738658 0.21748929 0.08564271
0.48651361 0.21870527 0.085167713
0.4865393 0.21955095 0.085162565
0.48656502 0.22039665 0.085157409
0.48659071 0.22124237 0.085152254
0.48571798 0.2224663 0.084677212
0.48574373 0.22331358 0.084672049
0.48576948 0.22416089 0.084666885
0.48579523 0.22500819 0.084661722
0.48582098 0.22585545 0.084656559
0.48584673 0.22670275 0.084651396
0.48587251 0.22755006 0.084646232
0.48589826 0.22839734 0.084641069
0.48592401 0.22924463 0.084635906
0.48594975 0.23009194 0.084630743
0.48687348 0.23054506 0.085095569
0.4868992 0.23139074 0.085090414
0.48692489 0.23223643 0.085085258
0.48784843 0.23268321 0.085550122
0.48787409 0.23352732 0.085544981
0.48789972 0.23437142 0.085539833
0.48882306 0.23481178 0.086004734
0.25266477 0.39870581 -0.038905501
0.2544941 0.39901638 -0.037972227
0.25721869 0.39884201 -0.036568373
0.2590476 0.39913827 -0.035635009
0.26087639 0.39942813 -0.034701582
0.40257263 0.070995696 0.044156756
0.40078965 0.072145499 0.043212086
0.39991331 0.073218107 0.042736731
0.39903709 0.074293897 0.042261358
0.39997354 0.075199366 0.042724662
0.39909738 0.076278344 0.042249266
0.40003377 0.077180631 0.042712588
0.40097004 0.07807973 0.043175925
0.40190625 0.07897564 0.04363931
0.40284234 0.079868369 0.044102687
0.40377831 0.080757916 0.044566084
0.4047142 0.081644274 0.045029502
0.40564996 0.082527451 0.04549294
0.40749159 0.083306342 0.046425853
0.40752131 0.084284231 0.046419896
0.4084568 0.085157849 0.046883389
0.40939221 0.086028285 0.047346901
0.41032755 0.086895525 0.047810461
0.41126275 0.087759592 0.048274014
0.41219786 0.088620469 0.048737586
0.41313288 0.089478157 0.049201179
0.41497332 0.090218835 0.050134327
0.4159081 0.091068558 0.050597966
0.41684276 0.091915101 0.051061627
0.41777733 0.092758462 0.051525306
0.41961715 0.093478426 0.052458581
0.42055148 0.09431383 0.052922308
0.42148572 0.09514603 0.053386044
0.42241988 0.095975056 0.053849809
0.42335394 0.096800886 0.05431363
0.42519295 0.097495377 0.055247024
0.42612675 0.098313257 0.055710856
0.42706046 0.099127948 0.05617471
0.42889902 0.099806502 0.057108238
0.42983246 0.10061324 0.057572141
0.43076584 0.10141677 0.058036063
0.4326039 0.10207941 0.058969684
0.43353704 0.10287498 0.059433661
0.43447006 0.10366738 0.05989765
0.43540299 0.10445658 0.060361654
0.43633586 0.1052426 0.060825713
0.43636408 0.10617112 0.060820054
0.43729678 0.10695236 0.061284114
0.43822935 0.10773043 0.061748184
0.43825749 0.10865575 0.061742544
0.43918994 0.10942903 0.062206652
0.44012228 0.11019913 0.062670775
0.44105458 0.11096603 0.063134946
0.44198674 0.11172976 0.06359911
0.44291881 0.1124903 0.064063296
0.4447549 0.11308763 0.064997315
0.44478267 0.11400182 0.064991742
0.44661841 0.1145896 0.065925799
0.44664612 0.1155006 0.065920249
0.44757769 0.11624522 0.066384532
0.44850916 0.11698665 0.066848829
0.4494406 0.11772487 0.067313172
0.44946814 0.1186311 0.067307651
0.45039937 0.11936456 0.067772001
0.45133051 0.12009484 0.068236366
0.45135796 0.12099788 0.068230867
0.45228896 0.12172338 0.068695262
0.45231634 0.12262483 0.068689771
0.45324725 0.12334553 0.069154218
0.45417801 0.12406308 0.069618665
0.4542053 0.12496133 0.069613196
0.45513591 0.1256741 0.070077665
0.45516315 0.12657075 0.070072204
0.45609361 0.12727875 0.07053671
0.45612082 0.12817381 0.070531249
0.45705113 0.12887701 0.070995785
0.45707831 0.1297705 0.070990339
0.45800853 0.1304689 0.071454927
0.45803562 0.1313608 0.071449496
0.45896566 0.13205445 0.071914084
0.45899272 0.13294475 0.07190866
0.45992258 0.13363361 0.072373278
0.46085238 0.13431929 0.072837919
0.46087933 0.13520642 0.07283251
0.46180898 0.13588731 0.07329718
0.46273857 0.13656503 0.073761895
0.46276543 0.13744895 0.073756509
0.46369484 0.1381219 0.074221224
0.46372163 0.13900423 0.074215852
0.4646509 0.1396724 0.074680597
0.46467766 0.14055313 0.074675232
0.46560678 0.14121652 0.075139999
0.46563351 0.14209567 0.075134642
0.46566021 0.14297481 0.075129285
0.46658918 0.14363182 0.075594135
0.467518 0.14428565 0.076058961
0.46754462 0.14516161 0.076053627
0.46757123 0.14603756 0.076048292
0.46849987 0.14668503 0.076513156
0.46942839 0.14732932 0.07697805
0.46945491 0.14820208 0.07697273
0.47038329 0.14884159 0.077437647
0.47040978 0.14971277 0.077432342
0.47133806 0.15034747 0.077897318
0.4713645 0.15121706 0.07789202
0.47229257 0.151847 0.078356996
0.47231898 0.15271501 0.078351706
0.4732469 0.15334016 0.078816719
0.47327325 0.15420657 0.078811437
0.47329956 0.15507297 0.078806154
0.47422731 0.15569177 0.079271205
0.47425359 0.15655658 0.079265937
0.47427988 0.1574214 0.079260662
0.47520745 0.15803382 0.07972575
0.47523367 0.15889704 0.07972049
0.47616115 0.15950467 0.080185629
0.47618735 0.1603663 0.080180384
0.47711462 0.16096917 0.080645524
0.47804177 0.16156885 0.081110686
0.47806787 0.16242729 0.081105456
0.47899488 0.16302219 0.081570648
0.47902092 0.16387905 0.081565432
0.47994787 0.16446915 0.082030676
0.47997385 0.16532442 0.082025468
0.47999984 0.16617967 0.082020253
0.48092654 0.16676342 0.082485512
0.48095247 0.16761708 0.082480311
0.48187903 0.16819607 0.0829456
0.48190492 0.16904813 0.082940407
0.48193082 0.16990021 0.082935221
0.48195672 0.17075229 0.082930028
0.48288301 0.1713233 0.083395362
0.48290887 0.17217377 0.083390184
0.48383501 0.17274 0.083855547
0.48386082 0.1735889 0.083850376
0.48388663 0.17443778 0.083845206
0.48481265 0.17499763 0.084310636
0.4848384 0.17584492 0.084305473
0.48576421 0.17640001 0.08477091
0.4857899 0.17724571 0.084765755
0.48581561 0.17809141 0.084760599
0.48674121 0.17864013 0.085226074
0.48676687 0.17948423 0.085220933
0.48679253 0.18032834 0.085215785
0.48771796 0.18087068 0.085681304
0.48774359 0.18171321 0.085676163
0.48776919 0.18255572 0.08567103
0.48779479 0.18339823 0.085665897
0.48872003 0.18393262 0.086131483
0.4887456 0.18477353 0.086126365
0.48877114 0.18561444 0.086121239
0.48879671 0.18645535 0.086116113
0.48882228 0.18729629 0.086110987
0.48884782 0.1881372 0.086105868
0.48977268 0.18866044 0.086571492
0.48979819 0.18949978 0.086566381
0.4898237 0.1903391 0.086561263
0.48984921 0.19117844 0.086556152
0.48987472 0.19201775 0.086551033
0.48990023 0.19285709 0.086545922
0.48992574 0.19369641 0.086540803
0.48995125 0.19453573 0.086535692
0.48997676 0.19537508 0.086530574
0.49000227 0.19621441 0.086525463
0.49002779 0.19705373 0.086520351
0.48915455 0.19822825 0.086044371
0.48918012 0.1990692 0.086039245
0.48920566 0.19991012 0.086034127
0.48923123 0.20075102 0.086029001
0.48835817 0.20193355 0.085552953
0.4883838 0.20277606 0.085547812
0.4884094 0.20361857 0.085542679
0.488435 0.20446107 0.085537545
0.4884606 0.20530359 0.085532412
0.4875879 0.20649564 0.085056335
0.48761356 0.20733975 0.085051186
0.48763922 0.20818385 0.085046045
0.48766488 0.20902798 0.085040897
0.48769054 0.20987208 0.085035756
0.4868181 0.21107368 0.084559619
0.48684382 0.2119194 0.084554464
0.48686951 0.21276508 0.084549308
0.48689523 0.21361078 0.084544159
0.48692095 0.21445647 0.084539004
0.48694664 0.21530218 0.084533848
0.48697236 0.21614788 0.084528692
0.48699805 0.21699359 0.084523544
0.48612607 0.21820953 0.084047318
0.48615181 0.21905683 0.084042154
0.48617759 0.21990409 0.084036991
0.48620334 0.22075139 0.084031828
0.48622909 0.2215987 0.084026664
0.48535734 0.22282422 0.083550349
0.48538315 0.22367309 0.083545178
0.48540896 0.22452199 0.083540007
0.48543474 0.22537087 0.083534829
0.48546055 0.22621974 0.083529659
0.48548636 0.22706863 0.083524488
0.48551217 0.22791754 0.08351931
0.48553795 0.2287664 0.083514139
0.48556376 0.22961529 0.083508968
0.48648661 0.23007162 0.083975032
0.48651239 0.2309189 0.083969869
0.48653814 0.23176619 0.083964705
0.48746076 0.23221616 0.084430777
0.48748645 0.23306188 0.084425628
0.48751217 0.23390757 0.084420472
0.48843458 0.23435117 0.084886588
0.2507439 0.39883223 -0.041291568
0.25346601 0.3986755 -0.039884131
0.25529334 0.39898613 -0.038948391
0.25712052 0.39929041 -0.038012583
0.25894746 0.39958835 -0.037076771
0.26166856 0.39939815 -0.035669133
0.41833255 0.031238439 0.052096952
0.41836163 0.032195624 0.052091118
0.41839072 0.033152811 0.052085288
0.41841984 0.034109995 0.052079454
0.41844893 0.035067182 0.05207362
0.41847801 0.036024366 0.052067786
0.4185071 0.036981553 0.052061956
0.41853619 0.037938736 0.052056123
0.41765821 0.038925301 0.051580034
0.41768736 0.039884079 0.051574189
0.41771647 0.040842857 0.051568348
0.41774562 0.041801635 0.051562503
0.41777477 0.042760413 0.051556662
0.40769506 0.069592446 0.045752507
0.40500829 0.070811369 0.0443349
0.40322727 0.071957909 0.043387812
0.4014464 0.073110826 0.042440657
0.40057111 0.074184984 0.041964058
0.40060124 0.075175613 0.041958023
0.40153658 0.076077946 0.042422574
0.40156665 0.07706698 0.042416546
0.40250191 0.077964522 0.042881157
0.40343702 0.078858882 0.043345757
0.40437204 0.079750054 0.043810379
0.40530697 0.080638051 0.044275019
0.40624177 0.081522852 0.044739679
0.40717655 0.082404464 0.045204382
0.40811118 0.083282903 0.045669083
0.40904573 0.084158152 0.04613379
0.40907541 0.085134447 0.046127841
0.4100098 0.086004913 0.046592586
0.41094413 0.086872198 0.047057379
0.41187835 0.087736301 0.047522165
0.41281244 0.088597216 0.047986969
0.41374645 0.089454941 0.048451796
0.41468033 0.090309486 0.048916638
0.41561419 0.091160841 0.049381528
0.41745228 0.091892041 0.050317176
0.41838583 0.092735432 0.050782088
0.41931933 0.093575642 0.051247008
0.42025274 0.09441267 0.051711984
0.42118603 0.095246509 0.052176956
0.42302331 0.095952228 0.053112756
0.42395642 0.096778095 0.053577803
0.42488936 0.097600788 0.054042842
0.42672616 0.098290578 0.054978739
0.42765886 0.099105306 0.055443827
0.42949542 0.099783935 0.056379817
0.43042785 0.10059071 0.05684495
0.43136021 0.10139428 0.057310104
0.43319628 0.10205699 0.058246195
0.43412837 0.10285261 0.058711395
0.43506041 0.10364504 0.059176616
0.43599233 0.10443428 0.059641857
0.43692419 0.10522034 0.060107145
0.43785593 0.10600321 0.060572427
0.43878755 0.10678291 0.061037723
0.43881568 0.10770824 0.061032083
0.43974715 0.10848314 0.061497413
0.43977523 0.10940689 0.061491784
0.44070658 0.11017703 0.061957143
0.44254109 0.11078877 0.06289354
0.44256902 0.11170772 0.062887944
0.44440317 0.11230993 0.063824371
0.44533414 0.11306572 0.064289846
0.44626495 0.11381833 0.064755306
0.44719565 0.11456776 0.065220796
0.44722334 0.11547875 0.065215237
0.44815391 0.11622341 0.065680757
0.44908437 0.11696488 0.066146284
0.4500148 0.11770315 0.066611864
0.45004234 0.11860937 0.066606343
0.45097256 0.11934287 0.067071922
0.45190269 0.12007319 0.067537524
0.45193014 0.12097622 0.067532018
0.45286012 0.12170176 0.067997649
0.45288754 0.12260322 0.067992158
0.45381743 0.12332395 0.068457842
0.45474714 0.12404154 0.068923518
0.45477447 0.12493979 0.068918049
0.45570406 0.1256526 0.069383748
0.45663354 0.1263622 0.069849476
0.45666075 0.12725729 0.069844022
0.45668796 0.12815236 0.069838569
0.45761728 0.1288556 0.070304334
0.45764443 0.12974907 0.070298888
0.45857364 0.13044752 0.070764713
0.45860076 0.13133942 0.070759274
0.45952976 0.13203311 0.071225099
0.45955682 0.13292339 0.071219675
0.4604857 0.1336123 0.07168553
0.46141446 0.13429803 0.072151393
0.46144143 0.13518514 0.072145991
0.46237007 0.13586609 0.072611891
0.46329865 0.13654384 0.073077835
0.46422708 0.1372184 0.07354378
0.4642539 0.13810074 0.0735384
0.46518219 0.13877054 0.074004374
0.46520895 0.13965127 0.073999003
0.46613711 0.14031631 0.074464999
0.46616381 0.14119545 0.074459642
0.46619055 0.14207458 0.074454285
0.46711853 0.14273323 0.074920356
0.4680464 0.14338869 0.075386405
0.46807301 0.14426464 0.07538107
0.46809965 0.14514062 0.075375728
0.46902731 0.1457897 0.075841829
0.46995488 0.1464356 0.076307945
0.4699814 0.14730839 0.076302625
0.47090882 0.14794952 0.076768771
0.47093529 0.1488207 0.076763459
0.47186261 0.14945704 0.077229656
0.47188905 0.15032662 0.077224359
0.47281617 0.1509582 0.077690557
0.47284257 0.1518262 0.077685267
0.47376955 0.15245299 0.078151502
0.47379589 0.15331939 0.078146219
0.47382221 0.1541858 0.078140937
0.474749 0.15480623 0.078607209
0.47477528 0.15567105 0.078601941
0.47480157 0.15653585 0.078596674
0.47572815 0.1571499 0.079062983
0.47575441 0.15801312 0.079057723
0.47578064 0.15887634 0.079052463
0.4767071 0.15948401 0.079518832
0.47763339 0.16008851 0.079985201
0.47765955 0.16094854 0.079979964
0.47858569 0.16154827 0.080446355
0.4786118 0.16240671 0.080441125
0.47953781 0.16300166 0.080907546
0.47956386 0.1638585 0.080902323
0.48048976 0.16444865 0.081368811
0.48051578 0.16530392 0.081363596
0.48054177 0.16615917 0.081358388
0.48146743 0.16674295 0.081824876
0.48149338 0.16759662 0.081819676
0.48241892 0.16817564 0.082286201
0.48244482 0.16902772 0.082281008
0.48247072 0.16987978 0.082275815
0.48249662 0.17073186 0.082270622
0.48342189 0.1713029 0.082737193
0.48344776 0.17215338 0.082732014
0.4834736 0.17300384 0.082726829
0.48439869 0.17356855 0.083193436
0.4844245 0.17441742 0.083188258
0.48445031 0.1752663 0.083183087
0.48537526 0.1758246 0.083649762
0.485401 0.17667191 0.083644599
0.48542675 0.17751919 0.083639435
0.48635146 0.17807113 0.084106125
0.48637718 0.17891684 0.084100969
0.48640287 0.17976253 0.084095821
0.4873274 0.1803081 0.084562548
0.48735306 0.18115221 0.084557399
0.48737869 0.18199632 0.084552258
0.48740435 0.18284042 0.084547117
0.48832864 0.18337803 0.085013889
0.48835424 0.18422055 0.085008755
0.48837984 0.18506306 0.085003622
0.48840547 0.18590556 0.084998488
0.48932955 0.18643519 0.085465342
0.48935509 0.18727612 0.085460216
0.48938066 0.18811704 0.08545509
0.48940623 0.18895796 0.085449964
0.48943177 0.18979889 0.085444838
0.48945734 0.19063981 0.085439719
0.48948291 0.19148074 0.085434593
0.48950845 0.19232166 0.085429467
0.48953402 0.19316258 0.085424341
0.48955956 0.19400349 0.085419223
0.48958513 0.19484441 0.085414097
0.4896107 0.19568534 0.085408971
0.48963624 0.19652626 0.085403845
0.48966181 0.19736718 0.085398719
0.48878959 0.19854328 0.084921479
0.48881519 0.19938581 0.084916346
0.48884079 0.20022832 0.084911212
0.48886642 0.20107083 0.084906071
0.48799446 0.20225488 0.08442881
0.48802012 0.20309898 0.084423661
0.48804578 0.20394309 0.08441852
0.48807144 0.20478719 0.084413379
0.4880971 0.20563132 0.084408231
0.48722544 0.20682491 0.08393091
0.48725116 0.20767061 0.083925754
0.48727685 0.2085163 0.083920598
0.48730257 0.20936202 0.08391545
0.48732826 0.21020772 0.083910294
0.4864569 0.21141087 0.083432913
0.48648265 0.21225818 0.08342775
0.48650843 0.21310547 0.083422586
0.48653418 0.21395275 0.083417423
0.48655993 0.21480003 0.08341226
0.48658568 0.21564734 0.083407097
0.48661143 0.21649462 0.083401933
0.48663718 0.21734191 0.08339677
0.4857662 0.21855944 0.08291927
0.48579201 0.21940832 0.082914099
0.48581782 0.22025721 0.082908928
0.4858436 0.22110608 0.08290375
0.48497292 0.22233155 0.082426243
0.48589522 0.22280386 0.082893409
0.48592103 0.22365275 0.082888238
0.48505047 0.22488299 0.082410693
0.48507634 0.22573346 0.082405508
0.48510218 0.22658393 0.082400329
0.48512805 0.22743441 0.082395144
0.48605004 0.22789718 0.08286237
0.48517972 0.22913536 0.08238478
0.48610163 0.22959493 0.082852028
0.48612744 0.23044384 0.08284685
0.48704925 0.23089859 0.083314158
0.487075 0.23174588 0.083308995
0.48710075 0.23259316 0.083303832
0.4880223 0.2330416 0.083771154
0.25065467 0.39927551 -0.042746834
0.25248027 0.39959583 -0.041808683
0.25609258 0.39895588 -0.039924566
0.25791776 0.39926025 -0.038986288
0.25974268 0.39955828 -0.038048003
0.26246074 0.39936817 -0.036636662
0.4192355 0.011131447 0.051949874
0.41926453 0.012087039 0.051944051
0.41943881 0.017820595 0.051909111
0.41946787 0.018776186 0.051903289
0.41949689 0.019731781 0.051897466
0.41952595 0.020687371 0.051891644
0.41955498 0.021642964 0.051885821
0.41958404 0.022598557 0.051879995
0.41961309 0.023554152 0.051874172
0.41964212 0.024509743 0.051868349
0.41967118 0.025465336 0.051862527
0.41970024 0.026420929 0.051856704
0.41972926 0.027376521 0.051850881
0.41975832 0.028332112 0.051845059
0.41978735 0.029287705 0.051839232
0.4198164 0.030243298 0.05183341
0.41984546 0.031198891 0.051827587
0.41987449 0.032154486 0.051821765
0.41899723 0.033129863 0.051344536
0.41993257 0.034065668 0.051810119
0.41996163 0.03502126 0.051804297
0.41999069 0.035976853 0.051798474
0.42001972 0.036932446 0.051792648
0.42004877 0.037888039 0.051786825
0.41917178 0.038872972 0.051309541
0.41920087 0.039830159 0.051303707
0.41832399 0.040819872 0.050826363
0.41925907 0.04174453 0.051292039
0.41838229 0.042737428 0.050814681
0.4184114 0.043696206 0.050808836
0.41844055 0.044654984 0.050802995
0.41190332 0.068282627 0.04688872
0.40831468 0.069568999 0.044995725
0.40563092 0.07078781 0.043574415
0.40385193 0.071934275 0.042624861
0.40297753 0.07300362 0.04214707
0.40210313 0.074076153 0.041669223
0.4021332 0.075065188 0.041663196
0.40216327 0.07605423 0.041657168
0.40309757 0.076953404 0.042123001
0.40312758 0.077940844 0.042116985
0.4040617 0.078835241 0.04258281
0.40499571 0.079726458 0.043048661
0.40592963 0.080614492 0.043514535
0.40686342 0.081499331 0.043980427
0.40779719 0.08238098 0.044446368
0.4087308 0.083259456 0.044912301
0.40966433 0.084134743 0.045378238
0.40969402 0.085111037 0.045372289
0.41062739 0.085981548 0.04583827
0.41156074 0.086848862 0.046304297
0.41249391 0.087713011 0.046770316
0.413427 0.088573962 0.047236353
0.41435999 0.089431725 0.047702413
0.41529289 0.090286307 0.048168488
0.41622576 0.0911377 0.0486346
0.41715845 0.091985911 0.049100716
0.41899437 0.09271241 0.050038859
0.41992682 0.093552656 0.050505023
0.42085925 0.094389722 0.050971236
0.42179149 0.095223598 0.051437438
0.42272368 0.096054293 0.05190365
0.42455888 0.096755296 0.052841976
0.4254908 0.097578026 0.053308245
0.42642263 0.098397575 0.053774536
0.42825729 0.099082664 0.054712925
0.43009183 0.099761367 0.055651382
0.43102327 0.10056818 0.056117751
0.43285745 0.10123573 0.057056278
0.43378866 0.10203458 0.057522688
0.43471974 0.10283023 0.057989128
0.43565077 0.1036227 0.058455575
0.43658167 0.10441198 0.058922052
0.43751252 0.10519808 0.059388574
0.43844324 0.10598098 0.059855089
0.43937388 0.10676072 0.060321614
0.43940198 0.10768606 0.060315978
0.44033247 0.108461 0.060782537
0.44126284 0.10923277 0.061249122
0.44219318 0.11000135 0.061715748
0.44312337 0.11076673 0.062182363
0.44405344 0.11152895 0.062649004
0.44498345 0.11228797 0.063115656
0.44591337 0.1130438 0.063582361
0.44684318 0.11379645 0.064049065
0.44777289 0.11454592 0.064515777
0.44870248 0.1152922 0.064982511
0.44873014 0.11620161 0.064976968
0.44965959 0.11694311 0.065443739
0.450589 0.11768142 0.065910548
0.45061654 0.11858764 0.065905027
0.45154577 0.11932118 0.066371836
0.45247489 0.12005154 0.066838667
0.45250234 0.12095457 0.066833168
0.45343131 0.12168015 0.067300029
0.45436022 0.12240254 0.067766942
0.45438758 0.12330239 0.067761458
0.45531631 0.12402001 0.068228364
0.45534363 0.12491826 0.068222888
0.45627221 0.12563111 0.068689831
0.45720071 0.12634075 0.069156788
0.45722789 0.12723581 0.069151334
0.4572551 0.1281309 0.069145881
0.45818341 0.12883417 0.069612876
0.45821056 0.12972766 0.069607429
0.45913875 0.13042614 0.070074484
0.45916587 0.13131803 0.070069052
0.46009389 0.13201176 0.070536107
0.46012095 0.13290206 0.070530683
0.46104881 0.133591 0.070997767
0.46197656 0.13427676 0.071464874
0.46290421 0.13495934 0.071931995
0.46383184 0.13563871 0.072399169
0.46385872 0.13652264 0.072393782
0.46478614 0.13719726 0.072860949
0.46571347 0.13786869 0.073328145
0.46574023 0.13874942 0.073322773
0.46576703 0.13963015 0.073317409
0.46669415 0.14029522 0.073784634
0.46672088 0.14117436 0.073779278
0.46764791 0.14183463 0.074246563
0.46857479 0.14249173 0.074713849
0.46860144 0.14336769 0.074708506
0.46862805 0.14424364 0.074703172
0.46955475 0.14489436 0.075170487
0.46958134 0.14576873 0.07516516
0.47050789 0.14641468 0.075632505
0.47143432 0.14705744 0.076099873
0.47146082 0.14792863 0.076094568
0.47238719 0.1485666 0.076561987
0.47241363 0.14943619 0.07655669
0.47333977 0.15006939 0.077024117
0.47336617 0.15093738 0.077018827
0.47429219 0.15156582 0.077486277
0.47431853 0.15243222 0.077480994
0.47434485 0.15329862 0.077475719
0.47527069 0.15392068 0.077943213
0.47529697 0.1547855 0.077937938
0.47532326 0.1556503 0.077932671
0.47534955 0.15651511 0.077927403
0.47627512 0.15712921 0.078394942
0.47630137 0.15799242 0.078389682
0.4763276 0.15885565 0.078384422
0.47725305 0.15946336 0.078852028
0.47817835 0.16006789 0.079319626
0.47820449 0.16092792 0.079314388
0.47912964 0.16152768 0.079782017
0.47915572 0.16238613 0.079776786
0.48008072 0.16298111 0.080244437
0.48010677 0.16383797 0.080239221
0.48103169 0.16442814 0.080706932
0.48105767 0.1652834 0.080701724
0.48108369 0.16613866 0.080696508
0.48200834 0.16672249 0.081164233
0.4820343 0.16757615 0.081159033
0.48295882 0.16815521 0.081626788
0.48298472 0.16900729 0.081621595
0.48301062 0.16985935 0.081616402
0.48303652 0.17071143 0.081611209
0.48396078 0.17128251 0.082079016
0.48398665 0.17213298 0.08207383
0.48401248 0.17298345 0.082068652
0.48403832 0.17383395 0.082063466
0.48496237 0.17439707 0.082531318
0.48498818 0.17524596 0.082526147
0.48501396 0.17609483 0.082520977
0.48593786 0.1766516 0.082988895
0.48596361 0.17749888 0.082983732
0.48598939 0.17834616 0.082978569
0.48691303 0.17889656 0.083446488
0.48693874 0.17974226 0.083441339
0.48696443 0.18058796 0.083436184
0.48699015 0.18143365 0.083431028
0.48701584 0.18227936 0.083425879
0.48793921 0.18282019 0.083893865
0.48796487 0.18366429 0.083888724
0.48799053 0.18450841 0.083883576
0.48801619 0.18535252 0.083878435
0.48893929 0.18588537 0.084346473
0.48896492 0.18672788 0.08434134
0.48899052 0.18757041 0.084336206
0.48901612 0.1884129 0.084331073
0.48904172 0.18925543 0.084325939
0.48906735 0.19009796 0.084320806
0.48909295 0.19094047 0.084315673
0.48911855 0.19178298 0.084310532
0.48914415 0.19262549 0.084305398
0.48916978 0.193468 0.084300265
0.48919538 0.19431052 0.084295131
0.48922098 0.19515303 0.084289998
0.48924661 0.19599555 0.084284864
0.48927221 0.19683807 0.084279731
0.48929781 0.19768058 0.084274597
0.48842669 0.1988582 0.083796136
0.48845235 0.19970232 0.083790995
0.488478 0.20054643 0.083785847
0.48850366 0.20139052 0.083780706
0.48763278 0.20257616 0.083302192
0.48765847 0.20342183 0.083297044
0.48768419 0.20426753 0.083291888
0.48770988 0.20511323 0.083286732
0.48683926 0.20630682 0.082808182
0.48686501 0.2071541 0.082803018
0.48689076 0.20800139 0.082797855
0.48691651 0.20884867 0.082792692
0.48694226 0.20969598 0.082787529
0.48607185 0.21089911 0.082308888
0.48609766 0.211748 0.08230371
0.48612347 0.21259691 0.08229854
0.48614928 0.21344577 0.082293369
0.48617506 0.21429466 0.082288191
0.48620087 0.21514353 0.08228302
0.48622668 0.21599244 0.082277849
0.48535672 0.2172083 0.081799157
0.48538256 0.21805876 0.081793971
0.48540843 0.21890925 0.081788786
0.48543426 0.21975973 0.081783608
0.4854601 0.2206102 0.081778422
0.48548597 0.22146067 0.081773244
0.48551181 0.22231117 0.081768058
0.48553768 0.22316162 0.08176288
0.48556352 0.22401211 0.081757694
0.48558939 0.22486261 0.081752509
0.48561522 0.22571307 0.081747331
0.48564106 0.22656354 0.081742145
0.48566693 0.22741401 0.081736967
0.48569277 0.22826451 0.081731781
0.48571861 0.22911496 0.081726596
0.48574448 0.22996545 0.081721418
0.48577031 0.23081595 0.081716232
0.48669112 0.23127235 0.082184739
0.48671693 0.23212124 0.082179561
0.25056744 0.39971873 -0.04420457
0.25328356 0.39956543 -0.042789791
0.25599942 0.39940253 -0.041374918
0.25871497 0.39923009 -0.039959997
0.26053789 0.39952818 -0.039019246
0.26236063 0.39981985 -0.038078424
0.26689771 0.3998993 -0.035722468
0.4187018 0.0034341698 0.050784592
0.41873091 0.0043913554 0.050778758
0.41876 0.005348539 0.050772928
0.41878909 0.0063057267 0.050767094
0.41881818 0.0072629126 0.05076126
0.41884729 0.0082200961 0.05075543
0.41887638 0.0091772815 0.050749596
0.41981193 0.010152943 0.051216163
0.41984099 0.011108536 0.05121034
0.41987005 0.012064128 0.051204517
0.41989908 0.013019722 0.051198695
0.41992813 0.013975314 0.051192869
0.41995716 0.014930906 0.051187046
0.41998622 0.015886497 0.051181223
0.42092139 0.016849419 0.051647875
0.42095038 0.017803418 0.05164206
0.42097938 0.018757418 0.051636249
0.42010239 0.01970887 0.051157933
0.42103738 0.020665418 0.051624622
0.42106637 0.021619419 0.051618807
0.42109537 0.022573419 0.051612996
0.42112437 0.023527419 0.05160718
0.42115337 0.024481419 0.051601369
0.42118236 0.02543542 0.051595554
0.42121136 0.026389418 0.051589742
0.42124036 0.027343418 0.051583927
0.42036381 0.028309202 0.051105522
0.42039284 0.029264795 0.051099699
0.4204219 0.030220388 0.051093876
0.42045096 0.03117598 0.051088054
0.42047998 0.032131571 0.051082231
0.42050904 0.033087164 0.051076408
0.42053807 0.034042757 0.051070586
0.42056713 0.03499835 0.051064763
0.42059618 0.035953943 0.051058937
0.42062521 0.036909536 0.051053114
0.42065427 0.037865128 0.051047292
0.42068332 0.038820721 0.051041469
0.42071235 0.039776314 0.051035646
0.41983649 0.040764395 0.05055711
0.41986558 0.041721579 0.05055128
0.41989467 0.042678766 0.050545447
0.41992375 0.043635949 0.050539613
0.41995284 0.044593137 0.050533783
0.41998196 0.04555032 0.050527949
0.42059293 0.065651208 0.050405458
0.4161039 0.066985846 0.04803472
0.41161534 0.068336412 0.045663882
0.4089343 0.069545552 0.044238944
0.40625358 0.070764251 0.042813934
0.40447658 0.071910642 0.041861922
0.4036032 0.072979942 0.041382886
0.40272984 0.074052438 0.040903807
0.40275988 0.07504148 0.040897779
0.40369323 0.075942285 0.041364837
0.40372324 0.076929726 0.041358817
0.40465638 0.077825755 0.041825879
0.40468636 0.078811608 0.04181987
0.40561935 0.079702862 0.042286959
0.40655226 0.080590926 0.042754054
0.40748507 0.081475809 0.043221179
0.40841782 0.082357496 0.043688349
0.40844759 0.083336979 0.043682382
0.40938017 0.084213898 0.044149559
0.41031262 0.085087635 0.044616751
0.41034231 0.086063929 0.044610802
0.41217732 0.086825535 0.045551214
0.41220689 0.087798648 0.045545284
0.41313902 0.088661231 0.046012547
0.41497356 0.089408509 0.046953019
0.41590545 0.090263136 0.047420327
0.41683728 0.091114558 0.047887683
0.41776899 0.091962807 0.048355035
0.41870058 0.092807874 0.048822403
0.41963208 0.093649752 0.049289782
0.42146575 0.094366767 0.050230473
0.42239699 0.095200688 0.050697904
0.42332816 0.09603142 0.051165361
0.42516133 0.096732497 0.052106146
0.42609227 0.097555272 0.052573651
0.42702308 0.098374851 0.053041171
0.42975768 0.098928772 0.05445537
0.43068823 0.099738799 0.054922953
0.43252048 0.10041124 0.055863887
0.43435261 0.10107727 0.056804884
0.43528274 0.10187456 0.057272539
0.43621278 0.10266867 0.057740219
0.43714273 0.10345957 0.058207914
0.43807265 0.1042473 0.058675658
0.43900239 0.10503184 0.059143394
0.43993205 0.1058132 0.059611145
0.43996018 0.10673854 0.059605509
0.44088969 0.10751512 0.060073294
0.44091776 0.10843885 0.060067665
0.44184715 0.10921066 0.060535476
0.44277647 0.10997927 0.061003335
0.44370565 0.1107447 0.061471183
0.44463474 0.11150695 0.061939057
0.4455637 0.11226601 0.062406946
0.44649264 0.11302188 0.062874883
0.44742143 0.11377457 0.063342817
0.44835013 0.11452407 0.063810758
0.44927871 0.11527039 0.064278729
0.4502072 0.11601353 0.064746715
0.4502348 0.11692135 0.064741187
0.4511632 0.1176597 0.065209232
0.45119074 0.11856592 0.065203711
0.45211896 0.11929949 0.065671757
0.45304707 0.12002989 0.066139817
0.45307451 0.12093292 0.066134319
0.45400247 0.12165854 0.066602409
0.45493039 0.12238096 0.067070551
0.45495775 0.12328081 0.067065068
0.45588547 0.12399847 0.06753321
0.4568131 0.12471293 0.068001367
0.45684037 0.12560961 0.067995906
0.45776784 0.12631929 0.0684641
0.45779505 0.12721436 0.068458647
0.45782226 0.12810943 0.068453193
0.45874953 0.12881275 0.068921417
0.45967677 0.12951288 0.069389693
0.45970389 0.13040476 0.069384262
0.46063092 0.13110012 0.069852546
0.46065798 0.13199042 0.069847114
0.4615849 0.132681 0.070315421
0.46251169 0.13336839 0.070783749
0.46253866 0.13425548 0.070778348
0.46346533 0.13493812 0.071246698
0.46439195 0.13561752 0.071715102
0.46531841 0.13629378 0.072183497
0.4653452 0.1371761 0.072178118
0.46627152 0.13784757 0.072646543
0.46629831 0.13872831 0.072641179
0.46722448 0.139395 0.073109627
0.46725121 0.14027415 0.07310427
0.46817729 0.14093603 0.073572785
0.46820396 0.14181361 0.073567435
0.46912983 0.14247072 0.07403595
0.46915647 0.14334668 0.074030615
0.47008219 0.14399904 0.074499153
0.47010878 0.14487341 0.074493818
0.47103438 0.14552099 0.074962392
0.47195986 0.14616537 0.075430982
0.47198635 0.14703657 0.07542567
0.47291175 0.14767615 0.075894319
0.47293818 0.14854576 0.075889021
0.47386339 0.14918058 0.07635767
0.47388977 0.15004858 0.07635238
0.47481483 0.15067863 0.076821052
0.47484118 0.15154505 0.076815777
0.47486749 0.15241145 0.076810494
0.47489384 0.15327784 0.076805212
0.47581863 0.15389995 0.077273943
0.47584495 0.15476476 0.077268675
0.47587124 0.15562958 0.0772634
0.47589752 0.15649438 0.077258132
0.47682208 0.15710852 0.077726901
0.47684833 0.15797172 0.07772164
0.4777728 0.15858106 0.078190476
0.477799 0.15944271 0.078185223
0.47872329 0.16004726 0.078654051
0.47874942 0.1609073 0.078648813
0.47967356 0.1615071 0.079117678
0.47969964 0.16236556 0.07911244
0.48062366 0.16296057 0.079581328
0.48064971 0.16381742 0.079576112
0.48157361 0.16440764 0.080045059
0.4815996 0.16526289 0.080039844
0.48162559 0.16611816 0.080034636
0.48254925 0.16670202 0.080503598
0.48257518 0.16755569 0.08049839
0.48260114 0.16840935 0.080493189
0.48352459 0.16898686 0.080962181
0.48355049 0.16983892 0.080956995
0.48357642 0.170691 0.080951802
0.48449966 0.17126212 0.081420839
0.48452553 0.1721126 0.081415653
0.48455137 0.17296307 0.081410475
0.48457721 0.17381355 0.081405289
0.48460308 0.17466404 0.081400111
0.48552606 0.1752256 0.0818692
0.48555186 0.17607448 0.081864029
0.48557764 0.17692338 0.081858851
0.48560345 0.17777227 0.08185368
0.48652625 0.17832585 0.082322851
0.486552 0.17917316 0.082317688
0.48657775 0.18002044 0.082312524
0.4866035 0.18086773 0.082307361
0.487526 0.18141338 0.082776546
0.48755172 0.18225908 0.082771398
0.48757741 0.18310478 0.082766242
0.48760313 0.18395047 0.082761087
0.48762882 0.18479618 0.082755938
0.48855102 0.18533227 0.083225191
0.48857668 0.18617637 0.083220042
0.48860234 0.18702048 0.083214901
0.488628 0.1878646 0.083209753
0.48865366 0.18870871 0.083204612
0.48867932 0.1895528 0.083199471
0.48960119 0.19007777 0.083668783
0.4896268 0.19092026 0.08366365
0.4896524 0.19176278 0.083658516
0.489678 0.19260529 0.083653383
0.48880759 0.19377334 0.083173752
0.48883325 0.19461745 0.083168603
0.48885891 0.19546156 0.083163463
0.48888457 0.19630568 0.083158322
0.48891023 0.19714977 0.083153173
0.48893589 0.19799386 0.083148032
0.48896155 0.19883797 0.083142884
0.48809153 0.20001878 0.082663171
0.48811722 0.20086446 0.082658023
0.48814294 0.20171016 0.082652867
0.4872731 0.20289734 0.082173117
0.48729885 0.20374461 0.082167953
0.48732463 0.2045919 0.08216279
0.48735037 0.2054392 0.082157627
0.48648074 0.20663434 0.081677802
0.48650652 0.20748323 0.081672631
0.48653233 0.20833212 0.081667453
0.48655814 0.20918098 0.081662282
0.48568881 0.21038409 0.081182443
0.48571464 0.21123457 0.081177257
0.48574048 0.21208502 0.081172071
0.48576635 0.21293552 0.081166893
0.48579219 0.21378601 0.081161708
0.48581806 0.21463646 0.081156529
0.48494905 0.2158507 0.080676608
0.48586974 0.21633743 0.081146158
0.48500085 0.21755485 0.080666222
0.48502675 0.2184069 0.080661029
0.48505265 0.21925899 0.080655843
0.48507854 0.22011104 0.08065065
0.48510444 0.22096312 0.080645457
0.48513034 0.2218152 0.080640264
0.48515624 0.22266726 0.080635071
0.48518214 0.22351934 0.080629878
0.48520803 0.2243714 0.080624685
0.48523393 0.22522348 0.080619492
0.48525983 0.22607554 0.080614299
0.48528573 0.22692762 0.080609113
0.48531163 0.22777967 0.08060392
0.48533753 0.22863176 0.080598727
0.48536342 0.22948383 0.080593534
0.48538932 0.23033589 0.080588341
0.4863092 0.23079555 0.081058055
0.25590825 0.39984909 -0.042827751
0.25951222 0.39919993 -0.040933706
0.26133308 0.39949808 -0.039990485
0.26315382 0.39978984 -0.039047211
0.26768586 0.3998695 -0.036685091
0.42018506 0.0024852939 0.050523233
0.42021412 0.0034408858 0.050517406
0.42024314 0.0043964777 0.050511584
0.4202722 0.0053520682 0.050505761
0.42030123 0.0063076639 0.050499938
0.42033029 0.0072632558 0.050494116
0.42035934 0.0082188481 0.050488293
0.42038837 0.0091744401 0.050482471
0.42041743 0.010130034 0.050476648
0.42044649 0.011085626 0.050470822
0.42047551 0.012041218 0.050464999
0.42050457 0.012996811 0.050459176
0.42143887 0.013964547 0.050927024
0.42146787 0.014918547 0.050921213
0.42149687 0.015872546 0.050915398
0.42152587 0.016826548 0.050909586
0.42155486 0.017780546 0.050903771
0.42158386 0.018734546 0.05089796
0.42161286 0.019688547 0.050892144
0.42164186 0.020642547 0.050886333
0.42167085 0.021596547 0.050880518
0.42169985 0.022550546 0.050874706
0.42172885 0.023504546 0.050868891
0.42175785 0.024458546 0.05086308
0.42088217 0.025419515 0.050383475
0.42091119 0.026375107 0.050377652
0.42184484 0.027320547 0.050845638
0.42096928 0.028286291 0.050366007
0.42190284 0.029228546 0.050834011
0.42102739 0.030197477 0.050354362
0.42196083 0.031136546 0.050822385
0.42198983 0.032090545 0.050816569
0.42201883 0.033044547 0.050810758
0.42204782 0.033998545 0.050804943
0.42117262 0.034975439 0.050325245
0.42120165 0.035931032 0.050319422
0.4212307 0.036886625 0.050313599
0.42125976 0.037842218 0.050307777
0.42128879 0.038797811 0.050301954
0.42131785 0.039753404 0.050296128
0.42134687 0.040708996 0.050290305
0.42137593 0.041664589 0.050284483
0.42050117 0.042655818 0.049804695
0.42143402 0.043575775 0.050272837
0.42055935 0.044570189 0.049793031
0.42058843 0.045527373 0.049787197
0.42061752 0.04648456 0.049781363
0.42064664 0.047441743 0.049775533
0.41939405 0.065775983 0.048716284
0.41491017 0.067113616 0.046339363
0.4113293 0.068390131 0.044436563
0.40865141 0.069600746 0.04300794
0.40510127 0.071887001 0.041098986
0.40422887 0.072956271 0.040618718
0.40335652 0.074028723 0.040138405
0.40338656 0.075017765 0.040132377
0.40341663 0.076006807 0.04012635
0.40434891 0.076906055 0.040594649
0.40437892 0.077893496 0.040588632
0.40531102 0.078787975 0.041056931
0.406243 0.079679266 0.041525252
0.40627292 0.080663525 0.041519254
0.40720478 0.081550039 0.041987594
0.40813652 0.082433365 0.042455964
0.40906823 0.083313495 0.042924378
0.409098 0.084292978 0.04291841
0.4100295 0.085168347 0.043386828
0.41096091 0.086040527 0.043855254
0.41189221 0.08690951 0.044323709
0.4128235 0.08777532 0.044792213
0.41285306 0.088748433 0.044786282
