# .PCD v0.7 - Point Cloud Data file format
VERSION 0.7
FIELDS x y z
SIZE 4 4 4
TYPE F F F
COUNT 1 1 1
WIDTH 1352
HEIGHT 1
VIEWPOINT 0 0 0 1 0 0 0
POINTS 1352
DATA ascii
0.4122079 0.046951246 0.030076737
0.41223791 0.04793869 0.030070718
0.41226792 0.048926137 0.030064702
0.41229793 0.049913581 0.030058684
0.41232795 0.050901029 0.030052667
0.41284072 -0.040654156 0.031322978
0.41376334 -0.039572775 0.031808626
0.41290045 -0.038688827 0.031311002
0.41382298 -0.037610624 0.031796671
0.41385281 -0.03662955 0.031790692
0.41388261 -0.035648473 0.031784713
0.41391245 -0.034667399 0.031778734
0.41394225 -0.033686321 0.031772755
0.41397208 -0.032705247 0.031766776
0.41400191 -0.03172417 0.031760801
0.41403171 -0.030743096 0.031754822
0.41406155 -0.02976202 0.031748842
0.41409135 -0.028780952 0.031742863
0.41412118 -0.027799869 0.031736884
0.41415101 -0.026818793 0.031730909
0.41418082 -0.025837721 0.03172493
0.41331863 -0.024931476 0.031227168
0.4133485 -0.023948805 0.031221181
0.41337836 -0.022966141 0.031215193
0.41340822 -0.021983474 0.031209204
0.41343808 -0.021000806 0.031203216
0.41346797 -0.020018136 0.031197228
0.41349784 -0.019035466 0.031191239
0.4135277 -0.018052801 0.031185251
0.41355756 -0.017070131 0.031179264
0.41358745 -0.016087467 0.031173276
0.41361731 -0.015104797 0.031167287
0.41364717 -0.014122131 0.031161299
0.41367704 -0.013139466 0.031155311
0.41281551 -0.012210917 0.030657414
0.41284543 -0.011226658 0.030651417
0.41287535 -0.010242398 0.030645419
0.41290528 -0.0092581389 0.030639421
0.4129352 -0.00827388 0.030633423
0.41296512 -0.0072896169 0.030627426
0.41299501 -0.0063053574 0.030621428
0.41302493 -0.005321098 0.03061543
0.41305485 -0.0043368354 0.030609433
0.41308478 -0.0033525762 0.030603435
0.4131147 -0.002368313 0.030597437
0.41314462 -0.0013840538 0.030591439
0.41317454 -0.00039979463 0.030585442
0.41320443 0.00058446458 0.030579444
0.41323435 0.0015687275 0.030573444
0.41326427 0.0025529868 0.030567447
0.4132942 0.003537246 0.030561449
0.41332412 0.0045215054 0.030555451
0.41335404 0.0055057681 0.030549454
0.41338393 0.0064900294 0.030543456
0.41341385 0.0074742883 0.030537458
0.41344377 0.0084585482 0.03053146
0.41258338 0.0094237234 0.030033341
0.41261333 0.010409576 0.030027334
0.41264331 0.011395429 0.030021327
0.41267326 0.012381284 0.030015318
0.41270322 0.013367135 0.030009311
0.4127332 0.014352988 0.030003304
0.41276315 0.015338841 0.029997297
0.41279313 0.016324695 0.029991288
0.41371304 0.017316895 0.030477481
0.41374296 0.018301154 0.030471483
0.41377285 0.019285414 0.030465486
0.41380277 0.020269673 0.030459488
0.41383269 0.021253934 0.030453488
0.41386262 0.022238195 0.030447491
0.41389254 0.023222456 0.030441493
0.41303286 0.024211518 0.029943228
0.41306281 0.025197372 0.029937221
0.41309279 0.026183225 0.029931214
0.41312274 0.027169077 0.029925207
0.41315272 0.02815493 0.029919198
0.41318268 0.029140783 0.029913191
0.41321263 0.030126637 0.029907184
0.41324261 0.03111249 0.029901175
0.41327256 0.032098342 0.029895168
0.41330254 0.033084195 0.029889161
0.41333249 0.034070048 0.029883154
0.41336247 0.035055902 0.029877145
0.41339242 0.036041755 0.029871138
0.41342241 0.037027609 0.029865131
0.41345236 0.038013462 0.029859124
0.41348234 0.038999312 0.029853115
0.41351229 0.039985165 0.029847108
0.41265348 0.041002896 0.029348662
0.41268349 0.041990343 0.029342646
0.41271353 0.042977788 0.029336628
0.41274354 0.043965235 0.029330611
0.41277355 0.044952679 0.029324593
0.41280356 0.045940123 0.029318577
0.41283357 0.046927571 0.029312558
0.41286358 0.047915015 0.029306542
0.41289359 0.048902463 0.029300524
0.4129236 0.049889907 0.029294508
0.41295362 0.050877355 0.029288489
0.41349325 -0.039695047 0.030556519
0.41352311 -0.038712386 0.03055053
0.41355297 -0.037729718 0.030544542
0.41358283 -0.036747046 0.030538553
0.41361269 -0.035764378 0.030532567
0.41364259 -0.034781709 0.030526578
0.41367245 -0.033799041 0.03052059
0.41370231 -0.032816377 0.030514602
0.41373217 -0.031833708 0.030508613
0.41376206 -0.03085104 0.030502625
0.41379192 -0.029868377 0.030496638
0.41382179 -0.028885707 0.03049065
0.41385165 -0.027903039 0.030484661
0.41388151 -0.026920369 0.030478673
0.4139114 -0.025937701 0.030472685
0.41394126 -0.024955034 0.030466696
0.41397113 -0.023972366 0.03046071
0.41400099 -0.0229897 0.030454721
0.41314 -0.022077121 0.029955689
0.41316992 -0.021092862 0.029949691
0.41319984 -0.020108599 0.029943693
0.41322976 -0.019124337 0.029937694
0.41325966 -0.018140078 0.029931696
0.41328958 -0.017155819 0.029925698
0.4133195 -0.016171558 0.029919701
0.41334942 -0.0151873 0.029913703
0.41337934 -0.01420304 0.029907705
0.41340926 -0.013218781 0.029901708
0.41343918 -0.012234515 0.02989571
0.41346908 -0.011250255 0.029889712
0.413499 -0.010265996 0.029883714
0.41352892 -0.0092817368 0.029877717
0.41355884 -0.0082974769 0.029871719
0.41358876 -0.0073132142 0.029865721
0.41361868 -0.0063289553 0.029859724
0.41364858 -0.0053446959 0.029853726
0.4136785 -0.0043604327 0.029847728
0.41370842 -0.0033761738 0.02984173
0.41373834 -0.0023919109 0.029835733
0.41376826 -0.0014076516 0.029829735
0.41379818 -0.00042339231 0.029823735
0.4138281 0.0005608669 0.029817738
0.41296831 0.0015132644 0.029318463
0.41299826 0.0024991173 0.029312456
0.41302824 0.0034849702 0.029306449
0.41305819 0.0044708191 0.02930044
0.41308817 0.0054566758 0.029294433
0.41311812 0.0064425287 0.029288426
0.41314811 0.0074283797 0.029282419
0.41317806 0.0084142331 0.02927641
0.41320804 0.0094000874 0.029270403
0.41323799 0.010385941 0.029264396
0.41326797 0.011371793 0.029258387
0.41329792 0.012357648 0.02925238
0.4133279 0.013343499 0.029246373
0.41335785 0.014329351 0.029240366
0.41338784 0.015315205 0.029234357
0.41341779 0.01630106 0.02922835
0.41344774 0.017286912 0.029222343
0.41347772 0.018272763 0.029216336
0.41350767 0.019258618 0.029210327
0.41353765 0.02024447 0.02920432
0.4135676 0.021230323 0.029198313
0.41359758 0.022216177 0.029192306
0.41362754 0.02320203 0.029186297
0.41365752 0.024187881 0.02918029
0.41368747 0.025173735 0.029174283
0.41371745 0.026159588 0.029168276
0.4137474 0.027145442 0.029162267
0.41377738 0.028131295 0.02915626
0.41380733 0.029117147 0.029150253
0.412949 0.03011732 0.028650686
0.41297901 0.031104766 0.02864467
0.41300902 0.032092214 0.028638652
0.41303903 0.033079658 0.028632635
0.41306907 0.034067102 0.028626617
0.41309908 0.03505455 0.028620601
0.41312909 0.036041994 0.028614582
0.4131591 0.037029441 0.028608566
0.41318911 0.038016886 0.028602548
0.41321912 0.039004333 0.028596532
0.41324914 0.039991777 0.028590513
0.41327915 0.040979221 0.028584497
0.41330916 0.041966669 0.028578479
0.41333917 0.042954113 0.028572462
0.41248152 0.043978181 0.028072719
0.41251159 0.044967219 0.028066691
0.41254166 0.045956254 0.028060665
0.4125717 0.046945296 0.028054638
0.41260177 0.047934331 0.02804861
0.41263184 0.048923373 0.028042585
0.41354927 0.049866233 0.028530343
0.41269195 0.050901446 0.02803053
0.41411588 -0.039718609 0.029796042
0.41414574 -0.038735945 0.029790053
0.41328499 -0.037848886 0.029289942
0.41331491 -0.036864623 0.029283945
0.41423535 -0.035787936 0.02977209
0.41337472 -0.034896106 0.029271949
0.41340464 -0.033911843 0.029265951
0.41343457 -0.032927588 0.029259954
0.41346449 -0.031943321 0.029253956
0.41349441 -0.03095906 0.029247958
0.41352433 -0.029974805 0.02924196
0.41355425 -0.028990541 0.029235963
0.41358414 -0.028006278 0.029229965
0.41361406 -0.027022015 0.029223967
0.41364399 -0.02603776 0.02921797
0.41367391 -0.025053501 0.029211972
0.41370383 -0.024069238 0.029205972
0.41373375 -0.02308498 0.029199975
0.41376364 -0.022100719 0.029193977
0.41379356 -0.02111646 0.029187979
0.41382349 -0.020132197 0.029181981
0.41385341 -0.019147934 0.029175984
0.41388333 -0.018163675 0.029169986
0.41391325 -0.017179416 0.029163988
0.4130536 -0.016255727 0.028663654
0.41308355 -0.015269875 0.028657647
0.41311353 -0.014284022 0.02865164
0.41314349 -0.013298173 0.028645633
0.41317347 -0.012312313 0.028639624
0.41320342 -0.011326463 0.028633617
0.4132334 -0.010340611 0.02862761
0.41326335 -0.0093547571 0.028621603
0.4132933 -0.0083689047 0.028615594
0.41332328 -0.0073830513 0.028609587
0.41335323 -0.0063971984 0.02860358
0.41338322 -0.0054113455 0.028597573
0.41341317 -0.0044254889 0.028591564
0.41344315 -0.0034396362 0.028585557
0.4134731 -0.0024537833 0.02857955
0.41350308 -0.0014679341 0.028573543
0.41353303 -0.0004820812 0.028567534
0.41356301 0.00050377171 0.028561527
0.41359296 0.0014896283 0.02855552
0.41362295 0.0024754812 0.028549511
0.4136529 0.0034613342 0.028543504
0.41368288 0.0044471831 0.028537497
0.41282433 0.0054075052 0.028036939
0.41285434 0.0063949516 0.028030923
0.41288435 0.0073823966 0.028024904
0.41291437 0.0083698407 0.028018888
0.41294438 0.0093572875 0.028012872
0.41297439 0.010344734 0.028006854
0.41300443 0.011332178 0.028000837
0.41303444 0.012319625 0.027994819
0.41306445 0.01330707 0.027988803
0.41309446 0.014294516 0.027982784
0.41312447 0.015281961 0.027976768
0.41315448 0.016269408 0.02797075
0.41318449 0.017256852 0.027964734
0.4132145 0.0182443 0.027958715
0.41324452 0.019231746 0.027952699
0.41327453 0.02021919 0.027946681
0.41330454 0.021206636 0.027940664
0.41333458 0.02219408 0.027934646
0.41336459 0.023181528 0.02792863
0.4133946 0.024168974 0.027922612
0.41342461 0.025156418 0.027916595
0.41345462 0.026143864 0.027910579
0.41348463 0.02713131 0.027904561
0.41351464 0.028118756 0.027898544
0.41354465 0.0291062 0.027892526
0.41357467 0.030093646 0.02788651
0.41360468 0.031081092 0.027880492
0.41363472 0.032068539 0.027874475
0.41366473 0.033055983 0.027868457
0.41369474 0.034043428 0.027862441
0.41283765 0.035053123 0.027361551
0.4128677 0.036042161 0.027355524
0.41289777 0.0370312 0.027349496
0.41292784 0.038020238 0.027343469
0.41295791 0.039009277 0.027337443
0.41298795 0.039998312 0.027331416
0.41301802 0.04098735 0.027325388
0.41304809 0.041976389 0.027319362
0.41307813 0.042965427 0.027313335
0.4131082 0.043954466 0.027307307
0.41313827 0.044943504 0.027301282
0.41316834 0.045932543 0.027295254
0.41319838 0.046921581 0.027289227
0.41322845 0.04791062 0.027283201
0.41325852 0.048899658 0.027277173
0.41328856 0.049888697 0.027271146
0.41331863 0.050877735 0.02726512
0.41387871 -0.038856745 0.028534235
0.41390863 -0.037872482 0.028528238
0.41393855 -0.036888219 0.02852224
0.41396847 -0.035903957 0.028516242
0.4139984 -0.034919702 0.028510245
0.41402832 -0.033935439 0.028504247
0.41405821 -0.032951184 0.028498249
0.41408813 -0.031966921 0.028492251
0.41411805 -0.030982658 0.028486254
0.41414797 -0.029998401 0.028480256
0.41328871 -0.029095458 0.027978815
0.41331866 -0.028109595 0.027972806
0.41334864 -0.027123746 0.027966799
0.4133786 -0.026137892 0.027960792
0.41340858 -0.025152039 0.027954785
0.41343853 -0.024166187 0.027948776
0.41346851 -0.023180338 0.027942769
0.41349846 -0.022194484 0.027936762
0.41352841 -0.021208631 0.027930755
0.41355839 -0.020222776 0.027924746
0.41358835 -0.019236922 0.027918739
0.41361833 -0.018251069 0.027912732
0.41364828 -0.017265216 0.027906723
0.41367826 -0.016279364 0.027900716
0.41370821 -0.015293511 0.027894709
0.41373819 -0.014307657 0.027888702
0.41376814 -0.013321809 0.027882693
0.41379812 -0.012335948 0.027876686
0.41382807 -0.011350099 0.027870679
0.41385806 -0.010364246 0.027864672
0.41388801 -0.0093783932 0.027858663
0.41391799 -0.0083925398 0.027852656
0.41394794 -0.0074066874 0.027846649
0.41397792 -0.0064208345 0.027840642
0.41400787 -0.0054349815 0.027834633
0.41403782 -0.0044491249 0.027828626
0.4140678 -0.003463272 0.027822619
0.41409776 -0.0024774191 0.027816612
0.41412774 -0.00149157 0.027810603
0.41415769 -0.00050571706 0.027804596
0.41329992 0.0004466002 0.027302854
0.41332996 0.0014340505 0.027296837
0.41335997 0.0024214934 0.027290819
0.41338998 0.0034089398 0.027284803
0.41341999 0.0043963827 0.027278787
0.41345 0.005383831 0.027272768
0.41348001 0.0063712779 0.027266752
0.41351002 0.0073587224 0.027260734
0.41354004 0.0083461674 0.027254717
0.41357005 0.0093336133 0.027248699
0.41360006 0.01032106 0.027242683
0.41363007 0.011308505 0.027236665
0.41366011 0.012295951 0.027230648
0.41369012 0.013283396 0.02722463
0.41372013 0.014270843 0.027218614
0.41375014 0.015258287 0.027212596
0.41378015 0.016245734 0.027206579
0.41381016 0.017233178 0.027200561
0.41384017 0.018220626 0.027194545
0.41387019 0.019208072 0.027188526
0.4139002 0.020195516 0.02718251
0.41304344 0.021182872 0.026680529
0.41307351 0.022171909 0.026674502
0.41310358 0.023160949 0.026668474
0.41313362 0.024149986 0.026662448
0.41316369 0.025139026 0.026656421
0.41319376 0.026128065 0.026650393
0.41322383 0.027117103 0.026644368
0.41325387 0.02810614 0.02663834
0.41328394 0.029095178 0.026632313
0.41331401 0.030084217 0.026626287
0.41334409 0.031073255 0.02662026
0.41337413 0.032062296 0.026614232
0.4134042 0.033051334 0.026608204
0.41343427 0.034040369 0.026602179
0.41346431 0.035029408 0.026596151
0.41349438 0.036018446 0.026590124
0.41352445 0.037007485 0.026584098
0.41355452 0.037996523 0.026578071
0.41358456 0.038985562 0.026572043
0.41361463 0.0399746 0.026566017
0.4136447 0.040963639 0.02655999
0.41367474 0.041952677 0.026553962
0.41370481 0.042941716 0.026547937
0.41373488 0.043930754 0.026541909
0.41287938 0.044957928 0.02603971
0.41379499 0.045908831 0.026529856
0.41382506 0.04689787 0.026523829
0.41385514 0.047886908 0.026517801
0.41388518 0.048875947 0.026511775
0.41391525 0.049864985 0.026505748
0.41394532 0.050854024 0.02649972
0.41361371 -0.038977623 0.027275946
0.41364369 -0.037991766 0.027269939
0.41367364 -0.037005916 0.02726393
0.41370362 -0.036020059 0.027257923
0.41462204 -0.034943301 0.027748534
0.41376355 -0.034048356 0.027245909
0.4137935 -0.033062499 0.0272399
0.41382349 -0.032076649 0.027233893
0.41385344 -0.031090792 0.027227886
0.41388339 -0.030104944 0.027221879
0.41391337 -0.029119095 0.02721587
0.41394332 -0.02813323 0.027209863
0.4139733 -0.027147381 0.027203856
0.41400325 -0.026161529 0.027197847
0.41403323 -0.025175676 0.02719184
0.41406319 -0.024189822 0.027185833
0.41320527 -0.023275768 0.02668309
0.41323528 -0.022288322 0.026677074
0.41326529 -0.02130088 0.026671056
0.41329533 -0.020313429 0.026665039
0.41332534 -0.019325983 0.026659021
0.41335535 -0.018338541 0.026653005
0.41338536 -0.017351093 0.026646987
0.41341537 -0.016363647 0.02664097
0.41344538 -0.015376204 0.026634952
0.41347539 -0.014388758 0.026628936
0.41350541 -0.013401315 0.026622919
0.41353542 -0.012413864 0.026616901
0.41356543 -0.011426418 0.026610885
0.41359547 -0.010438971 0.026604867
0.41362548 -0.0094515281 0.02659885
0.41365549 -0.0084640821 0.026592832
0.4136855 -0.007476639 0.026586816
0.41371551 -0.0064891926 0.026580798
0.41374552 -0.0055017457 0.026574781
0.41377553 -0.0045142993 0.026568763
0.41380554 -0.0035268529 0.026562747
0.41383556 -0.0025394063 0.026556728
0.41386557 -0.0015519634 0.026550712
0.41389558 -0.00056451687 0.026544694
0.41392562 0.00042292595 0.026538678
0.41395563 0.0014103762 0.026532659
0.41398564 0.002397819 0.026526643
0.413129 0.0033564668 0.026023602
0.41315907 0.0043455069 0.026017576
0.41318914 0.0053345454 0.026011549
0.41321921 0.0063235839 0.026005521
0.41324925 0.0073126219 0.025999496
0.41327932 0.0083016586 0.025993468
0.4133094 0.0092906989 0.025987441
0.41333944 0.010279737 0.025981415
0.41336951 0.011268776 0.025975388
0.41339958 0.012257815 0.02596936
0.41342965 0.013246852 0.025963334
0.41345969 0.01423589 0.025957307
0.41348976 0.015224929 0.025951279
0.41351983 0.016213968 0.025945252
0.41354987 0.017203005 0.025939226
0.41357994 0.018192044 0.025933199
0.41361001 0.019181082 0.025927171
0.41364008 0.020170121 0.025921145
0.41367012 0.021159159 0.025915118
0.41370019 0.022148198 0.02590909
0.41373026 0.023137236 0.025903065
0.41376033 0.024126275 0.025897037
0.41379037 0.025115313 0.02589101
0.41382045 0.026104352 0.025884984
0.41385052 0.02709339 0.025878957
0.41299519 0.028093448 0.02537569
0.41302532 0.029084079 0.025369653
0.41305542 0.03007471 0.025363617
0.41308552 0.031065341 0.02535758
0.41311565 0.032055974 0.025351543
0.41314575 0.033046603 0.025345506
0.41317585 0.034037236 0.025339471
0.41320598 0.035027865 0.025333434
0.41323608 0.036018498 0.025327398
0.41326618 0.037009127 0.025321361
0.41329631 0.03799976 0.025315324
0.41332641 0.03899039 0.025309287
0.41335654 0.039981022 0.02530325
0.41338664 0.040971652 0.025297213
0.41341674 0.041962281 0.025291177
0.41344687 0.042952914 0.025285142
0.41347697 0.043943547 0.025279105
0.41350707 0.044934176 0.025273068
0.4135372 0.045924805 0.025267031
0.4135673 0.046915438 0.025260994
0.41448182 0.047863197 0.025752392
0.41451186 0.048852235 0.025746364
0.41365764 0.049887329 0.025242884
0.41423836 -0.03900126 0.026513008
0.41426834 -0.038015403 0.026507
0.4142983 -0.037029553 0.026500992
0.41432828 -0.036043696 0.026494985
0.41435823 -0.035057839 0.026488978
0.41438821 -0.034071989 0.02648297
0.4135308 -0.033173896 0.025979092
0.41444814 -0.032100286 0.026470955
0.41359085 -0.031199005 0.025967058
0.41362086 -0.030211562 0.02596104
0.41365087 -0.029224118 0.025955023
0.41368088 -0.028236669 0.025949005
0.41371089 -0.027249226 0.025942989
0.4137409 -0.026261779 0.02593697
0.41377091 -0.025274333 0.025930954
0.41380093 -0.024286887 0.025924936
0.41383094 -0.023299443 0.02591892
0.41386095 -0.022311997 0.025912901
0.41389096 -0.021324554 0.025906885
0.413921 -0.020337103 0.025900867
0.41395101 -0.019349657 0.02589485
0.41398102 -0.018362215 0.025888834
0.41401103 -0.017374767 0.025882816
0.41404104 -0.016387321 0.0258768
0.41407105 -0.015399878 0.025870781
0.41410106 -0.014412431 0.025864765
0.41413108 -0.013424989 0.025858747
0.41416109 -0.012437538 0.02585273
0.4141911 -0.011450092 0.025846712
0.41422114 -0.010462645 0.025840696
0.41425115 -0.0094752023 0.025834678
0.41428116 -0.0084877564 0.025828661
0.41431117 -0.0075003132 0.025822643
0.41345507 -0.006557629 0.025318468
0.41348514 -0.0055685923 0.02531244
0.41351521 -0.0045795487 0.025306413
0.41354525 -0.0035905121 0.025300387
0.41357532 -0.0026014717 0.02529436
0.41360539 -0.0016124353 0.025288332
0.41363543 -0.00062339887 0.025282307
0.4136655 0.00036564138 0.025276279
0.41369557 0.0013546816 0.025270252
0.41372564 0.002343718 0.025264224
0.41375569 0.0033327546 0.025258198
0.41378576 0.004321795 0.025252171
0.41293034 0.0052851858 0.024747901
0.41296044 0.0062758159 0.024741864
0.41299057 0.007266446 0.024735827
0.41302067 0.0082570761 0.02472979
0.41305077 0.00924771 0.024723753
0.4130809 0.01023834 0.024717717
0.413111 0.01122897 0.024711682
0.4131411 0.012219602 0.024705645
0.41317123 0.013210234 0.024699608
0.41320133 0.014200864 0.024693571
0.41323146 0.015191494 0.024687534
0.41326156 0.016182126 0.024681497
0.41329166 0.017172758 0.024675461
0.41332179 0.018163389 0.024669424
0.41335189 0.01915402 0.024663387
0.41338199 0.020144649 0.02465735
0.41341212 0.021135282 0.024651315
0.41344222 0.022125913 0.024645278
0.41347232 0.023116544 0.024639241
0.41350245 0.024107175 0.024633205
0.41353256 0.025097806 0.024627168
0.41356266 0.026088437 0.024621131
0.41359279 0.027079066 0.024615094
0.41362289 0.028069697 0.024609057
0.41365299 0.029060328 0.02460302
0.41368312 0.030050961 0.024596985
0.41371322 0.03104159 0.024590949
0.41374332 0.032032222 0.024584912
0.41377345 0.033022854 0.024578875
0.41380355 0.034013484 0.024572838
0.41383365 0.035004117 0.024566801
0.41297981 0.036018468 0.024062214
0.41300997 0.037010692 0.024056168
0.41304013 0.038002916 0.024050122
0.41395411 0.038966641 0.024542656
0.41398421 0.03995727 0.024536619
0.41401431 0.040947903 0.024530582
0.41404444 0.041938532 0.024524545
0.41407454 0.042929165 0.024518508
0.41410464 0.043919794 0.024512472
0.41413477 0.044910427 0.024506435
0.41416487 0.045901056 0.024500398
0.414195 0.046891689 0.024494361
0.4142251 0.047882318 0.024488324
0.4142552 0.048872951 0.024482289
0.41428533 0.049863581 0.024476252
0.41486305 -0.039024897 0.025750063
0.414893 -0.03803904 0.025744056
0.41492298 -0.03705319 0.025738049
0.41495293 -0.036067333 0.02573204
0.41498289 -0.035081476 0.025726033
0.41501287 -0.034095626 0.025720026
0.41415647 -0.033197571 0.025214914
0.41418651 -0.03221013 0.025208898
0.41421652 -0.031222679 0.02520288
0.41424653 -0.030235237 0.025196863
0.41427654 -0.029247792 0.025190845
0.41342038 -0.028340181 0.024685649
0.41345045 -0.027351145 0.024679622
0.41348052 -0.026362108 0.024673596
0.41351056 -0.025373068 0.024667569
0.41354063 -0.024384031 0.024661541
0.4135707 -0.023394994 0.024655515
0.41360077 -0.022405954 0.024649488
0.41363081 -0.021416919 0.02464346
0.41366088 -0.020427875 0.024637435
0.41369095 -0.019438839 0.024631407
0.413721 -0.018449802 0.02462538
0.41375107 -0.017460762 0.024619354
0.41378114 -0.016471725 0.024613326
0.41381121 -0.015482685 0.024607299
0.41384125 -0.014493648 0.024601273
0.41387132 -0.013504611 0.024595246
0.41390139 -0.012515568 0.024589218
0.41393143 -0.011526532 0.024583191
0.4139615 -0.010537491 0.024577165
0.41399157 -0.0095484545 0.024571138
0.41402164 -0.0085594179 0.02456511
0.41405168 -0.007570378 0.024559084
0.41408175 -0.0065813414 0.024553057
0.41411182 -0.0055923047 0.024547029
0.41414189 -0.0046032611 0.024541004
0.41417193 -0.0036142245 0.024534976
0.414202 -0.0026251844 0.024528949
0.41423208 -0.0016361478 0.024522923
0.41337737 -0.0006823513 0.024017477
0.41340747 0.00030827886 0.024011441
0.4134376 0.001298909 0.024005404
0.41346771 0.0022895429 0.023999367
0.41349781 0.0032801731 0.02399333
0.41352794 0.0042708032 0.023987293
0.41355804 0.0052614352 0.023981256
0.41358814 0.0062520653 0.02397522
0.41361827 0.0072426954 0.023969183
0.41276404 0.0082124174 0.023463635
0.4127942 0.0092046428 0.023457589
0.41282436 0.010196866 0.023451542
0.41285452 0.011189088 0.023445496
0.41288468 0.012181315 0.02343945
0.41291484 0.013173538 0.023433404
0.412945 0.01416576 0.023427356
0.41297516 0.015157984 0.02342131
0.41300532 0.01615021 0.023415264
0.41303548 0.017142432 0.023409218
0.41306564 0.018134655 0.023403171
0.4130958 0.019126879 0.023397125
0.41312596 0.020119103 0.023391079
0.41315612 0.021111326 0.023385033
0.41318628 0.02210355 0.023378987
0.41321644 0.023095774 0.023372941
0.4132466 0.024087997 0.023366893
0.41327676 0.025080221 0.023360847
0.41330692 0.026072444 0.0233548
0.41333708 0.027064668 0.023348754
0.41336724 0.028056892 0.023342708
0.4133974 0.029049115 0.023336662
0.41342756 0.030041339 0.023330616
0.41345772 0.031033562 0.02332457
0.41348788 0.032025788 0.023318524
0.41351801 0.033018012 0.023312476
0.41354817 0.034010235 0.023306429
0.41357833 0.035002459 0.023300383
0.41360849 0.035994682 0.023294337
0.41363865 0.036986906 0.023288291
0.41366881 0.03797913 0.023282245
0.41369897 0.038971353 0.023276199
0.41372913 0.039963577 0.023270153
0.41375929 0.040955801 0.023264106
0.41378945 0.041948024 0.02325806
0.41381961 0.042940248 0.023252012
0.41384977 0.043932471 0.023245966
0.41476247 0.044886675 0.023739791
0.41479257 0.045877304 0.023733756
0.41482267 0.046867937 0.023727719
0.4148528 0.047858566 0.023721682
0.4148829 0.048849199 0.023715645
0.41463208 -0.038158476 0.024480835
0.41466209 -0.037171032 0.024474818
0.4146921 -0.036183581 0.0244688
0.41383663 -0.035287164 0.023962438
0.4138667 -0.034298126 0.023956412
0.41389674 -0.033309091 0.023950385
0.41304153 -0.032406293 0.02344401
0.41307163 -0.031415664 0.023437975
0.41398695 -0.030341974 0.023932304
0.41401699 -0.029352937 0.023926277
0.41404706 -0.028363893 0.023920251
0.41407713 -0.027374856 0.023914224
0.41410717 -0.02638582 0.023908196
0.41413724 -0.025396781 0.02390217
0.41328239 -0.024481248 0.023395717
0.41331252 -0.023490617 0.02338968
0.41334262 -0.022499988 0.023383645
0.41337273 -0.021509357 0.023377609
0.41340286 -0.02051872 0.023371572
0.41343296 -0.019528089 0.023365535
0.41346306 -0.01853746 0.023359498
0.41349319 -0.017546829 0.023353461
0.41352329 -0.0165562 0.023347424
0.41355342 -0.015565569 0.023341388
0.41358352 -0.014574938 0.023335351
0.41361362 -0.013584308 0.023329314
0.41364375 -0.012593671 0.023323279
0.41367385 -0.011603041 0.023317242
0.41370395 -0.01061241 0.023311205
0.41373408 -0.0096217804 0.023305168
0.41376418 -0.0086311502 0.023299132
0.41379428 -0.0076405201 0.023293095
0.41382441 -0.00664989 0.023287058
0.41385451 -0.0056592599 0.023281021
0.41388461 -0.004668626 0.023274984
0.41391474 -0.0036779959 0.023268949
0.41394484 -0.002687362 0.023262912
0.41397494 -0.0016967319 0.023256876
0.41400507 -0.00070610183 0.023250839
0.41403517 0.00028452833 0.023244802
0.41318163 0.0012430639 0.022738094
0.41321179 0.0022352878 0.022732047
0.41324195 0.0032275114 0.022726001
0.41327211 0.0042197355 0.022719955
0.41330227 0.0052119591 0.022713909
0.41333243 0.0062041827 0.022707863
0.41336259 0.0071964068 0.022701815
0.41339275 0.0081886286 0.022695769
0.41342291 0.0091808541 0.022689722
0.41345307 0.010173078 0.022683676
0.41348323 0.0111653 0.02267763
0.41351339 0.012157526 0.022671584
0.41354355 0.013149749 0.022665538
0.41357371 0.014141971 0.022659492
0.41360387 0.015134195 0.022653446
0.41275111 0.016118215 0.022146581
0.4127813 0.01711203 0.022140525
0.41281152 0.018105846 0.02213447
0.41284171 0.019099664 0.022128413
0.41287193 0.020093478 0.022122357
0.41290212 0.021087296 0.022116302
0.41293234 0.022081112 0.022110246
0.41296256 0.023074929 0.022104189
0.41299275 0.024068745 0.022098133
0.41302297 0.025062561 0.022092078
0.41305315 0.026056377 0.022086021
0.41308337 0.027050193 0.022079965
0.41311359 0.02804401 0.02207391
0.41314378 0.029037826 0.022067852
0.413174 0.030031642 0.022061797
0.41320419 0.031025458 0.022055741
0.41323441 0.032019272 0.022049684
0.41326463 0.03301309 0.022043629
0.41329482 0.034006909 0.022037573
0.41332504 0.035000723 0.022031516
0.41335523 0.035994541 0.02202546
0.41338545 0.036988355 0.022019405
0.41341567 0.037982173 0.022013349
0.41344586 0.038975988 0.022007292
0.41347608 0.039969806 0.022001237
0.414388 0.040932011 0.02249624
0.41441816 0.041924234 0.022490194
0.41444832 0.042916458 0.022484148
0.41447848 0.043908682 0.022478102
0.41450864 0.044900905 0.022472056
0.4145388 0.045893129 0.022466008
0.41528776 -0.037194706 0.02371064
0.41177982 -0.036577873 0.021698441
0.41181001 -0.035584055 0.021692386
0.41184023 -0.034590244 0.021686329
0.4109861 -0.033684306 0.021178707
0.41101635 -0.032688893 0.021172643
0.41104662 -0.031693485 0.021166576
0.41196105 -0.030614983 0.021662105
0.41199127 -0.029621165 0.021656049
0.41290557 -0.028547432 0.022151612
0.41293573 -0.027555207 0.022145566
0.41384986 -0.026486263 0.022641152
0.41387999 -0.025495628 0.022635117
0.41391009 -0.024504999 0.02262908
0.41394019 -0.023514368 0.022623044
0.41397032 -0.022523738 0.022617007
0.41400042 -0.021533107 0.02261097
0.41403055 -0.020542471 0.022604933
0.41406065 -0.01955184 0.022598896
0.41409075 -0.01856121 0.022592859
0.41412088 -0.017570579 0.022586823
0.41415098 -0.01657995 0.022580788
0.41418108 -0.015589319 0.022574751
0.41421121 -0.014598689 0.022568714
0.41424131 -0.013608059 0.022562677
0.41427141 -0.012617421 0.02255664
0.41430154 -0.011626791 0.022550603
0.41344842 -0.010687407 0.022042779
0.41347858 -0.0096951826 0.022036731
0.41350874 -0.0087029627 0.022030685
0.4135389 -0.007710739 0.022024639
0.41356906 -0.0067185154 0.022018593
0.41359922 -0.0057262913 0.022012547
0.41362938 -0.004734064 0.022006501
0.41365954 -0.0037418401 0.022000454
0.4136897 -0.0027496163 0.021994408
0.41371986 -0.0017573963 0.021988362
0.41375002 -0.00076517242 0.021982316
0.41378018 0.00022705138 0.021976268
0.41381034 0.0012192752 0.021970222
0.4138405 0.002211499 0.021964176
0.4129881 0.0031747734 0.021456199
0.41301832 0.004168591 0.021450143
0.41304854 0.0051624081 0.021444088
0.41307873 0.0061562238 0.021438032
0.41310894 0.0071500395 0.021431975
0.41313913 0.0081438553 0.02142592
0.41228712 0.0091182813 0.020917881
0.41231737 0.010113689 0.020911815
0.41234761 0.011109098 0.02090575
0.41237786 0.012104509 0.020899683
0.41240811 0.013099917 0.020893618
0.41243839 0.014095324 0.020887552
0.41246864 0.015090734 0.020881487
0.41249889 0.016086144 0.02087542
0.41252914 0.017081551 0.020869356
0.41255942 0.018076962 0.020863289
0.41258967 0.019072371 0.020857224
0.41261992 0.020067777 0.020851158
0.41265017 0.021063188 0.020845093
0.41268042 0.022058597 0.020839026
0.4127107 0.023054006 0.02083296
0.41274095 0.024049414 0.020826895
0.4127712 0.025044825 0.020820828
0.41280144 0.026040232 0.020814763
0.41283169 0.027035641 0.020808697
0.41286197 0.028031049 0.020802632
0.41289222 0.029026458 0.020796565
0.41292247 0.030021867 0.020790501
0.41295272 0.031017276 0.020784434
0.412983 0.032012686 0.020778369
0.41301325 0.033008095 0.020772303
0.4130435 0.034003504 0.020766238
0.41307375 0.034998912 0.020760171
0.413104 0.035994321 0.020754106
0.41313428 0.03698973 0.02074804
0.41316453 0.037985139 0.020741975
0.41319478 0.038980547 0.020735908
0.41322502 0.039975956 0.020729844
0.41325527 0.040971365 0.020723777
0.41416621 0.041933611 0.021220013
0.4141964 0.042927425 0.021213958
0.41510716 0.043884892 0.02171023
0.41152605 -0.036694389 0.020426568
0.4115563 -0.035698984 0.020420501
0.41070315 -0.03479309 0.019911615
0.40985012 -0.033884 0.019402741
0.41076374 -0.032799087 0.019899465
0.41079405 -0.031802084 0.019893389
0.41170758 -0.030721944 0.020390173
0.41085467 -0.02980808 0.019881237
0.41176811 -0.028731123 0.020378042
0.4126814 -0.027657358 0.020874832
0.41359457 -0.026586773 0.021371642
0.41362473 -0.025594553 0.021365596
0.41365489 -0.024602329 0.02135955
0.41368505 -0.023610106 0.021353504
0.41371521 -0.022617882 0.021347458
0.41374537 -0.021625657 0.021341411
0.41377553 -0.020633429 0.021335365
0.41380569 -0.019641209 0.021329319
0.41383585 -0.018648986 0.021323273
0.41386601 -0.017656762 0.021317225
0.41389617 -0.016664539 0.021311179
0.41392633 -0.015672315 0.021305133
0.41395649 -0.014680095 0.021299087
0.41398665 -0.01368787 0.02129304
0.41401681 -0.012695643 0.021286994
0.41404697 -0.011703419 0.021280948
0.41407713 -0.010711196 0.021274902
0.41322511 -0.009768662 0.020765824
0.41325533 -0.0087748477 0.020759767
0.41328552 -0.0077810306 0.020753711
0.41331574 -0.0067872168 0.020747656
0.41334596 -0.0057933996 0.020741599
0.41337615 -0.0047995821 0.020735543
0.41340637 -0.0038057645 0.020729488
0.41343656 -0.0028119471 0.02072343
0.41346678 -0.0018181334 0.020717375
0.413497 -0.00082431594 0.02071132
0.41352719 0.00016949783 0.020705264
0.41267577 0.0011311442 0.020196069
0.41270602 0.0021265517 0.020190002
0.4127363 0.0031219628 0.020183938
0.41276655 0.0041173701 0.020177871
0.4127968 0.0051127812 0.020171806
0.41282704 0.0061081885 0.02016574
0.41285732 0.0071035959 0.020159675
0.41288757 0.0080990056 0.020153608
0.41291782 0.0090944162 0.020147543
0.41294807 0.010089824 0.020141477
0.41297832 0.011085233 0.020135412
0.4130086 0.012080644 0.020129345
0.41303885 0.013076052 0.020123281
0.41218805 0.014059993 0.019613918
0.41221836 0.015056993 0.019607842
0.41224867 0.016053995 0.019601768
0.41227895 0.017050996 0.019595692
0.41230926 0.018047998 0.019589616
0.41233957 0.019045001 0.01958354
0.41236988 0.020042002 0.019577466
0.41240019 0.021039004 0.01957139
0.4124305 0.022036005 0.019565314
0.41246077 0.023033008 0.019559238
0.41249108 0.024030007 0.019553164
0.41252139 0.025027011 0.019547088
0.4125517 0.026024012 0.019541012
0.41258201 0.027021013 0.019534936
0.41261232 0.028018015 0.019528862
0.4126426 0.029015016 0.019522786
0.41267291 0.030012019 0.01951671
0.41270322 0.03100902 0.019510634
0.41273353 0.032006022 0.01950456
0.41276383 0.033003025 0.019498484
0.41279414 0.034000024 0.019492408
0.41282445 0.034997027 0.019486334
0.41285473 0.035994027 0.019480258
0.41288504 0.03699103 0.019474182
0.41291535 0.037988033 0.019468106
0.41382548 0.038956683 0.01996557
0.41385576 0.039952092 0.019959506
0.41388601 0.040947501 0.019953439
0.41391626 0.041942909 0.019947372
0.40695354 -0.034259755 0.016613789
0.4105739 -0.030912161 0.018611692
0.40972215 -0.029995149 0.018101538
0.41063461 -0.028914971 0.018599523
0.41154701 -0.027837982 0.019097522
0.41334131 -0.026687367 0.020099677
0.4133715 -0.025693549 0.020093622
0.41340172 -0.024699736 0.020087566
0.41343191 -0.023705918 0.020081509
0.41346213 -0.022712104 0.020075453
0.41349235 -0.021718288 0.020069398
0.41352254 -0.020724466 0.020063341
0.41355276 -0.019730652 0.020057285
0.41358295 -0.018736834 0.02005123
0.41361317 -0.017743021 0.020045172
0.41364336 -0.016749203 0.020039117
0.41367358 -0.015755389 0.020033062
0.4137038 -0.014761572 0.020027004
0.41373399 -0.013767758 0.020020949
0.41376421 -0.012773938 0.020014893
0.4137944 -0.01178012 0.020008836
0.41294342 -0.010837629 0.019498525
0.41297367 -0.0098422207 0.01949246
0.41300392 -0.0088468092 0.019486394
0.41303417 -0.0078514023 0.019480329
0.41306445 -0.0068559949 0.019474262
0.4130947 -0.0058605834 0.019468198
0.41312495 -0.0048651723 0.019462131
0.4131552 -0.0038697652 0.019456066
0.41318548 -0.0028743576 0.01945
0.41321573 -0.0018789466 0.019443935
0.41324598 -0.00088353921 0.019437868
0.41327623 0.0001118682 0.019431803
0.41330647 0.0011072793 0.019425737
0.41333675 0.0021026868 0.01941967
0.413367 0.0030980979 0.019413605
0.41251674 0.004066071 0.018903106
0.41254702 0.0050630737 0.018897032
0.41257733 0.006060075 0.018890956
0.41260764 0.0070570759 0.01888488
0.41263795 0.0080540767 0.018878805
0.41266826 0.0090510817 0.01887273
0.41269857 0.010048083 0.018866654
0.41272885 0.011045084 0.018860579
0.41275916 0.012042087 0.018854503
0.41278946 0.013039088 0.018848429
0.41281977 0.014036089 0.018842353
0.41285008 0.01503309 0.018836277
0.41288039 0.016030094 0.018830201
0.41291067 0.017027093 0.018824127
0.41294098 0.018024094 0.018818051
0.41297129 0.019021098 0.018811975
0.4130016 0.020018099 0.018805901
0.41303191 0.0210151 0.018799825
0.41306221 0.022012101 0.018793749
0.41309252 0.023009105 0.018787673
0.4131228 0.024006106 0.018781599
0.41315311 0.025003107 0.018775523
0.41318342 0.026000109 0.018769447
0.41233435 0.027006309 0.018258754
0.41236472 0.028004903 0.018252669
0.41239506 0.029003497 0.018246584
0.41242543 0.030002091 0.018240498
0.41245577 0.031000687 0.018234413
0.41248614 0.031999283 0.018228328
0.41251647 0.032997876 0.018222243
0.41254684 0.03399647 0.018216157
0.41257718 0.034995064 0.018210072
0.41260752 0.035993658 0.018203987
0.41263789 0.036992252 0.018197902
0.41266823 0.037990846 0.018191816
0.4126986 0.03898944 0.018185731
0.41360769 0.039958131 0.018684391
0.413638 0.040955134 0.018678315
0.38196823 -0.038937896 0.0011960339
0.39172661 -0.035867691 0.0067411857
0.3952831 -0.034488462 0.0087560127
0.40862411 -0.029178998 0.016310751
0.41129771 -0.027940314 0.017820632
0.41309005 -0.026788037 0.01882524
0.4131203 -0.025792627 0.018819174
0.41315055 -0.02479722 0.018813109
0.41406164 -0.023729745 0.019312404
0.41321108 -0.0228064 0.018800978
0.41324133 -0.021810994 0.018794911
0.41327158 -0.020815579 0.018788844
0.41330183 -0.01982017 0.01878278
0.4133321 -0.018824764 0.018776713
0.41336235 -0.017829357 0.018770648
0.4133926 -0.016833948 0.018764582
0.41342285 -0.015838537 0.018758517
0.4134531 -0.01484313 0.01875245
0.41348338 -0.013847723 0.018746385
0.41351363 -0.012852308 0.018740319
0.41354388 -0.011856901 0.018734254
0.41357413 -0.010861493 0.018728187
0.41360438 -0.0098660858 0.018722123
0.41363466 -0.0088706743 0.018716056
0.41278481 -0.0079218522 0.018204441
0.41281512 -0.0069248513 0.018198365
0.4128454 -0.0059278505 0.018192289
0.41287571 -0.0049308455 0.018186215
0.41290602 -0.0039338446 0.018180139
0.41293633 -0.0029368435 0.018174063
0.41296664 -0.0019398425 0.018167989
0.41299695 -0.00094284141 0.018161913
0.41302723 5.415962e-05 0.018155837
0.41305754 0.0010511643 0.018149761
0.41308784 0.0020481655 0.018143687
0.41311815 0.0030451666 0.018137611
0.41314846 0.0040421677 0.018131536
0.41317877 0.0050391704 0.01812546
0.41320908 0.0060361717 0.018119385
0.41323936 0.0070331725 0.01811331
0.41326967 0.0080301734 0.018107234
0.41242075 0.0090076709 0.017595481
0.41245112 0.010006266 0.017589396
0.41248146 0.011004859 0.017583311
0.4125118 0.012003455 0.017577225
0.41254216 0.013002048 0.017571142
0.4125725 0.014000643 0.017565057
0.41260287 0.014999236 0.017558971
0.41263321 0.015997833 0.017552886
0.41266358 0.016996425 0.017546801
0.41269392 0.01799502 0.017540716
0.41272429 0.018993614 0.01753463
0.41275463 0.019992208 0.017528545
0.41278499 0.020990802 0.01752246
0.41281533 0.021989396 0.017516375
0.4128457 0.02298799 0.017510289
0.41287604 0.023986584 0.017504204
0.41290638 0.024985179 0.017498119
0.41293675 0.025983773 0.017492034
0.41296709 0.026982367 0.017485948
0.41299745 0.027980961 0.017479863
0.41302779 0.028979557 0.017473778
0.41305816 0.029978151 0.017467692
0.4130885 0.030976744 0.017461609
0.41311887 0.03197534 0.017455524
0.41227114 0.03299265 0.016943522
0.41230154 0.033992838 0.016937427
0.41233197 0.034993023 0.016931333
0.41236237 0.035993211 0.016925238
0.41239277 0.036993399 0.016919143
0.41242316 0.037993584 0.016913049
0.41069797 0.039050318 0.015894979
0.41072845 0.040053688 0.015888866
0.38533911 -0.036596704 0.0018892752
0.38889191 -0.035204586 0.0039089196
0.39332461 -0.033740357 0.0064352239
0.39863697 -0.032208815 0.0094681149
0.41105044 -0.028042732 0.016541278
0.41284075 -0.026888784 0.01754831
0.41287106 -0.025891783 0.017542234
0.41290137 -0.024894781 0.017536158
0.41381153 -0.023825677 0.01803671
0.41384178 -0.022830265 0.018030645
0.41387203 -0.021834858 0.018024579
0.41390228 -0.020839443 0.018018514
0.41393256 -0.019844037 0.018012447
0.41396281 -0.018848628 0.018006383
0.41399306 -0.017853221 0.018000316
0.41314378 -0.016918769 0.017487554
0.41317409 -0.015921768 0.01748148
0.4132044 -0.014924766 0.017475404
0.41323471 -0.013927766 0.017469328
0.41326502 -0.012930761 0.017463254
0.4132953 -0.01193376 0.017457178
0.41332561 -0.010936758 0.017451102
0.41335592 -0.0099397581 0.017445026
0.41338623 -0.0089427568 0.017438952
0.41341653 -0.0079457555 0.017432876
0.41344684 -0.0069487547 0.0174268
0.41259819 -0.005995187 0.01691396
0.41262856 -0.0049965889 0.016907874
0.4126589 -0.0039979941 0.016901789
0.41268924 -0.002999403 0.016895704
0.41271961 -0.0020008083 0.016889621
0.41274995 -0.0010022137 0.016883535
0.41278031 -3.6189253e-06 0.01687745
0.41281065 0.0009949758 0.016871365
0.41284102 0.0019935705 0.01686528
0.41287136 0.0029921615 0.016859194
0.41290173 0.0039907563 0.016853109
0.41293207 0.004989353 0.016847024
0.41296244 0.0059879455 0.016840938
0.41299278 0.0069865403 0.016834853
0.41302314 0.0079851327 0.016828768
0.41305348 0.0089837294 0.016822683
0.41308385 0.0099823242 0.016816597
0.41311419 0.010980917 0.016810512
0.41314453 0.011979514 0.016804427
0.4131749 0.012978107 0.016798342
0.41232729 0.013965119 0.016285293
0.41235769 0.014965305 0.016279198
0.41238809 0.015965493 0.016273104
0.41241848 0.01696568 0.016267009
0.41244888 0.017965866 0.016260913
0.41247928 0.018966055 0.016254818
0.41250968 0.019966239 0.016248723
0.41254008 0.020966427 0.016242629
0.41257048 0.021966614 0.016236534
0.41260087 0.022966802 0.01623044
0.41263127 0.023966989 0.016224343
0.4126617 0.024967175 0.016218249
0.4126921 0.025967361 0.016212154
0.4127225 0.026967548 0.01620606
0.4127529 0.027967736 0.016199965
0.41278329 0.028967923 0.01619387
0.41281369 0.029968109 0.016187776
0.41284409 0.030968295 0.016181679
0.41287449 0.031968482 0.016175585
0.41290489 0.03296867 0.01616949
0.41293529 0.033968858 0.016163396
0.41208875 0.034990907 0.015650138
0.41211918 0.035992686 0.015644034
0.41214964 0.036994468 0.015637929
0.41130322 0.038022891 0.015124596
0.40870345 0.039110962 0.013596866
0.4069806 0.040178768 0.012576263
0.39931589 -0.031210847 0.0086705917
0.40374225 -0.029787838 0.011203277
0.40904713 -0.028302243 0.014243849
0.41259351 -0.026989607 0.016268944
0.41262388 -0.025991011 0.016262859
0.41353309 -0.024918685 0.016764587
0.4135634 -0.023921683 0.016758511
0.41359371 -0.022924682 0.016752437
0.41362399 -0.021927681 0.016746361
0.4136543 -0.020930676 0.016740285
0.41368461 -0.019933676 0.016734209
0.41371492 -0.018936675 0.016728135
0.41374522 -0.017939674 0.016722059
0.41377553 -0.016942672 0.016715983
0.41380581 -0.015945671 0.016709909
0.41383612 -0.01494867 0.016703833
0.41386643 -0.013951669 0.016697757
0.41389674 -0.012954664 0.016691681
0.4130488 -0.01201069 0.016177667
0.41307917 -0.011012099 0.016171582
0.41310951 -0.010013504 0.016165497
0.41313988 -0.0090149092 0.016159412
0.41317022 -0.0080163144 0.016153326
0.41320059 -0.0070177233 0.016147241
0.41323093 -0.006019129 0.016141156
0.41326129 -0.0050205304 0.01613507
0.41329163 -0.0040219356 0.016128985
0.413322 -0.0030233446 0.0161229
0.41335234 -0.00202475 0.016116815
0.41338271 -0.0010261552 0.016110729
0.41341305 -2.7560474e-05 0.016104644
0.41344339 0.00097103423 0.016098559
0.41347376 0.001969629 0.016092474
0.41350409 0.00296822 0.016086388
0.41353446 0.0039668148 0.016080305
0.4135648 0.004965411 0.01607422
0.41271782 0.0059396429 0.015560014
0.41274822 0.0069398293 0.015553919
0.41277862 0.0079400158 0.015547824
0.41280901 0.008940204 0.01554173
0.41283941 0.0099403905 0.015535634
0.41286981 0.010940578 0.015529539
0.41290021 0.011940766 0.015523445
0.41293061 0.012940953 0.015517349
0.41296104 0.013941139 0.015511255
0.41299143 0.014941325 0.01550516
0.41302183 0.015941514 0.015499066
0.41305223 0.0169417 0.01549297
0.41308263 0.017941887 0.015486876
0.41311303 0.018942075 0.015480781
0.41314343 0.019942259 0.015474685
0.41317382 0.020942448 0.015468591
0.41320422 0.021942634 0.015462496
0.41323462 0.022942822 0.015456401
0.41326502 0.023943009 0.015450306
0.41329545 0.024943195 0.015444212
0.41332585 0.025943382 0.015438116
0.41247991 0.026952654 0.014923704
0.41251034 0.027954433 0.014917599
0.41254079 0.028956212 0.014911494
0.41257125 0.029957991 0.01490539
0.41260171 0.030959772 0.014899286
0.41263214 0.031961553 0.014893181
0.4126626 0.032963332 0.014887076
0.41181698 0.033985343 0.014372554
0.4118475 0.034988716 0.01436644
0.41187799 0.03599209 0.014360325
0.41190848 0.036995459 0.014354211
0.41018739 0.038052041 0.013331241
0.40759066 0.039143186 0.011799761
0.37882501 -0.035318412 -0.0043239235
0.40175092 -0.030052589 0.0088910954
0.41147038 -0.027167458 0.014478085
0.41325662 -0.026014954 0.01549006
0.41328695 -0.025016358 0.015483974
0.41331732 -0.024017768 0.01547789
0.41422543 -0.022948585 0.015980871
0.41337803 -0.022020578 0.01546572
0.41340837 -0.021021979 0.015459634
0.41343874 -0.020023385 0.015453549
0.41346908 -0.019024793 0.015447464
0.41349944 -0.018026199 0.015441379
0.41352978 -0.017027605 0.015435293
0.41356015 -0.01602901 0.015429208
0.41359049 -0.015030419 0.015423124
0.41362083 -0.014031824 0.015417038
0.4136512 -0.013033226 0.015410953
0.41368154 -0.012034631 0.015404868
0.41371191 -0.01103604 0.015398783
0.41374224 -0.010037445 0.015392697
0.41377261 -0.0090388507 0.015386612
0.41292593 -0.0080869533 0.014871316
0.41295633 -0.0070867687 0.014865221
0.41298676 -0.00608658 0.014859126
0.41301715 -0.005086388 0.014853031
0.41304755 -0.0040862034 0.014846936
0.41307795 -0.0030860188 0.014840841
0.41310835 -0.0020858303 0.014834747
0.41313875 -0.0010856458 0.014828651
0.41316915 -8.5457366e-05 0.014822557
0.41319954 0.000914731 0.014816462
0.41322994 0.0019149156 0.014810367
0.41326034 0.0029151039 0.014804272
0.41329074 0.0039152885 0.014798177
0.41332114 0.0049154791 0.014792082
0.41335157 0.0059156637 0.014785987
0.41338196 0.0069158501 0.014779893
0.41341236 0.007916037 0.014773798
0.41344276 0.0089162253 0.014767703
0.41347316 0.0099164117 0.014761608
0.41350356 0.010916598 0.014755514
0.41353396 0.011916786 0.014749418
0.41268837 0.012903722 0.014233902
0.4127188 0.013905502 0.014227797
0.41274926 0.01490728 0.014221693
0.41277972 0.015909063 0.014215589
0.41281015 0.01691084 0.014209484
0.4128406 0.017912619 0.014203379
0.41287106 0.0189144 0.014197275
0.41290152 0.019916179 0.01419117
0.41293195 0.020917958 0.014185065
0.41296241 0.021919739 0.014178962
0.41299286 0.022921517 0.014172857
0.41302329 0.023923296 0.014166752
0.41305375 0.024925077 0.014160647
0.41308421 0.025926856 0.014154543
0.41311467 0.026928635 0.014148438
0.4131451 0.027930414 0.014142334
0.41230026 0.028944427 0.013626627
0.41233078 0.029947799 0.013620513
0.41236126 0.03095117 0.013614397
0.41239175 0.031954542 0.013608283
0.41242227 0.032957915 0.013602169
0.41245276 0.033961289 0.013596055
0.41160831 0.034986448 0.013080312
0.41251376 0.035968032 0.013583827
0.4116694 0.036996376 0.013068064
0.40907559 0.038081039 0.01153296
0.40560722 0.039203413 0.0094880983
0.41035122 -0.027345467 0.012682261
0.41301247 -0.026114298 0.014206985
0.41304287 -0.02511411 0.01420089
0.41395006 -0.024041709 0.014705085
0.41398039 -0.023043115 0.014699
0.41401076 -0.022044519 0.014692915
0.4140411 -0.021045921 0.014686829
0.41407147 -0.020047326 0.014680744
0.41410181 -0.019048735 0.01467466
0.41413218 -0.018050142 0.014668575
0.41416252 -0.017051546 0.014662489
0.41331649 -0.016112428 0.014146036
0.41334689 -0.015112241 0.014139942
0.41337729 -0.014112055 0.014133847
0.41340768 -0.013111863 0.014127752
0.41343808 -0.012111679 0.014121657
0.41346848 -0.01111149 0.014115563
0.41349888 -0.010111306 0.014109467
0.41352928 -0.0091111213 0.014103373
0.41355968 -0.008110933 0.014097278
0.41359007 -0.0071107484 0.014091183
0.4136205 -0.0061105597 0.014085088
0.4136509 -0.0051103677 0.014078993
0.4136813 -0.0041101831 0.014072898
0.4137117 -0.0031099985 0.014066803
0.41286638 -0.0021469875 0.013550205
0.41289681 -0.0011452092 0.0135441
0.41292727 -0.00014343087 0.013537996
0.41295773 0.00085835118 0.013531892
0.41298816 0.0018601295 0.013525787
0.41301861 0.0028619077 0.013519683
0.41304907 0.003863686 0.013513578
0.41307953 0.004865468 0.013507473
0.41310996 0.0058672465 0.013501368
0.41314042 0.0068690265 0.013495265
0.41317087 0.0078708045 0.01348916
0.4132013 0.0088725872 0.013483055
0.41323176 0.0098743653 0.01347695
0.41326222 0.010876143 0.013470846
0.41329268 0.011877925 0.013464741
0.4133231 0.012879704 0.013458637
0.41335356 0.013881484 0.013452532
0.41338402 0.014883262 0.013446428
0.41341445 0.015885044 0.013440323
0.41344491 0.016886823 0.013434218
0.41260055 0.017883277 0.012917385
0.41263106 0.018886648 0.01291127
0.41266155 0.01989002 0.012905156
0.41269204 0.020893393 0.012899042
0.41272256 0.021896765 0.012892928
0.41275305 0.022900138 0.012886813
0.41278353 0.02390351 0.012880699
0.41281405 0.024906883 0.012874585
0.41284454 0.025910253 0.012868471
0.41287503 0.026913626 0.012862356
0.41290554 0.027916998 0.012856242
0.41293603 0.028920371 0.012850127
0.41296652 0.029923743 0.012844013
0.41299704 0.030927116 0.012837899
0.41215345 0.03194746 0.012320946
0.412184 0.032952424 0.012314822
0.41221455 0.033957388 0.012308698
0.41224509 0.034962352 0.012302574
0.41227564 0.035967316 0.01229645
0.41055852 0.037022151 0.011268563
0.40796775 0.038109884 0.0097297132
0.40362981 0.039263412 0.0071689975
0.38537726 0.04301694 -0.0035793828
0.41011208 -0.027446596 0.011393035
0.41277033 -0.026213715 0.012921444
0.41280079 -0.025211936 0.012915339
0.41370702 -0.024137905 0.013420758
0.41373742 -0.023137717 0.013414662
0.41376781 -0.022137532 0.013408568
0.41379821 -0.02113734 0.013402473
0.41382861 -0.020137155 0.013396379
0.41385901 -0.019136965 0.013390283
0.41388944 -0.018136781 0.013384189
0.41391984 -0.017136592 0.013378094
0.41395023 -0.016136408 0.013371998
0.41398063 -0.01513622 0.013365904
0.41401103 -0.014136036 0.013359809
0.41404143 -0.013135843 0.013353714
0.41407183 -0.012135658 0.013347619
0.41410223 -0.01113547 0.013341525
0.41325754 -0.010185243 0.012823771
0.413288 -0.0091834646 0.012817666
0.41331843 -0.0081816865 0.012811561
0.41334888 -0.007179908 0.012805457
0.41337934 -0.0061781262 0.012799352
0.41340977 -0.005176344 0.012793248
0.41344023 -0.0041745659 0.012787144
0.41347069 -0.0031727874 0.012781039
0.41350114 -0.0021710054 0.012774934
0.41353157 -0.0011692272 0.012768829
