# .PCD v0.7 - Point Cloud Data file format
VERSION 0.7
FIELDS x y z
SIZE 4 4 4
TYPE F F F
COUNT 1 1 1
WIDTH 1377
HEIGHT 1
VIEWPOINT 0 0 0 1 0 0 0
POINTS 1377
DATA ascii
0.52596146 0.11635967 0.016504336
0.52679533 0.11704578 0.017086117
0.52682155 0.1179074 0.017080866
0.52765518 0.11858875 0.017662644
0.52768135 0.11944878 0.017657403
0.52851486 0.12012535 0.018239211
0.52854097 0.12098379 0.018233979
0.52937436 0.12165559 0.018815814
0.52940041 0.12251244 0.018810593
0.53023368 0.12317945 0.019392492
0.53025967 0.1240347 0.019387281
0.53109276 0.12469694 0.019969175
0.53111869 0.1255506 0.019963972
0.53114468 0.12640427 0.019958772
0.53197753 0.12706013 0.020540701
0.53200346 0.12791221 0.02053551
0.53202933 0.12876427 0.020530317
0.53205526 0.12961634 0.020525124
0.53208113 0.13046841 0.020519933
0.53210706 0.13132048 0.02051474
0.53213298 0.13217255 0.020509548
0.53215885 0.13302462 0.020504355
0.53137821 0.13408723 0.019911952
0.53140414 0.13494089 0.019906752
0.53062361 0.13600828 0.019314317
0.5306496 0.13686353 0.019309105
0.5298692 0.1379357 0.018716607
0.52989525 0.13879256 0.018711384
0.52911502 0.1398695 0.018118896
0.52833486 0.14094962 0.017526383
0.52836102 0.14180964 0.017521143
0.52838713 0.14266969 0.017515901
0.5276072 0.14375618 0.016923351
0.52843946 0.14438975 0.01750542
0.52846557 0.14524978 0.017500179
0.50003284 0.073410958 -0.0021043378
0.50086969 0.074230909 -0.0015221707
0.50170648 0.075047672 -0.00093998713
0.50254315 0.075861245 -0.00035778127
0.50257075 0.076769061 -0.00036331324
0.50340736 0.077577852 0.00021895381
0.50424379 0.078383468 0.00080120534
0.5050801 0.079185896 0.0013834791
0.50510758 0.080088928 0.0013779763
0.50594378 0.080886588 0.0019602764
0.50677991 0.081681043 0.0025426336
0.50680727 0.082580894 0.0025371502
0.50764322 0.083370581 0.0031194987
0.50767052 0.084268838 0.0031140251
0.50850636 0.085053742 0.0036964028
0.50934207 0.085835472 0.0042788028
0.50936925 0.086730547 0.0042733485
0.50939643 0.087625615 0.0042678942
0.51023197 0.088400967 0.0048503298
0.51025915 0.089294448 0.0048448853
0.51109457 0.090065017 0.0054273852
0.51112169 0.090956904 0.0054219505
0.51114875 0.091848791 0.0054165153
0.51198393 0.092612997 0.0059990222
0.51201099 0.093503289 0.0059935972
0.51284605 0.094262719 0.0065761302
0.51287305 0.095151424 0.0065707145
0.51370794 0.095906071 0.0071532796
0.51373494 0.096793175 0.0071478738
0.51456964 0.097543046 0.0077304649
0.51540434 0.098289728 0.0083131101
0.51543123 0.09917365 0.0083077243
0.51626575 0.099915557 0.0088903662
0.51710016 0.10065429 0.0094730258
0.51712692 0.10153502 0.0094676586
0.51796114 0.10226896 0.01005035
0.51798791 0.10314811 0.010044993
0.51882207 0.10387728 0.010627745
0.51884872 0.10475483 0.010622397
0.51968271 0.10547922 0.011205144
0.51970935 0.10635518 0.011199806
0.52054316 0.10707478 0.011782585
0.52056974 0.10794915 0.011777257
0.52140337 0.10866398 0.012360061
0.522237 0.10937563 0.012942888
0.52226347 0.11024681 0.012937579
0.52309692 0.11095368 0.013520467
0.52393031 0.11165736 0.01410334
0.52395666 0.11252536 0.014098051
0.52478987 0.11322426 0.014680956
0.52481622 0.11409067 0.014675676
0.52564925 0.1147848 0.015258607
0.52567554 0.11564961 0.015253337
0.52650845 0.11633897 0.015836297
0.52653468 0.11720218 0.015831036
0.52736747 0.11788674 0.016414063
0.5273937 0.11874837 0.016408812
0.52822632 0.11942817 0.016991831
0.52825242 0.12028819 0.01698659
0.52908492 0.12096322 0.017569641
0.52911097 0.12182166 0.01756441
0.52994335 0.1224919 0.018147485
0.52996933 0.12334874 0.018142264
0.53080159 0.12401419 0.018725405
0.53082758 0.12486945 0.018720193
0.53085357 0.1257247 0.018714981
0.53087956 0.12657997 0.018709769
0.53171152 0.12723745 0.019292926
0.53173745 0.12809113 0.019287726
0.53176343 0.12894478 0.019282524
0.53178936 0.12979844 0.019277321
0.53181529 0.13065211 0.019272119
0.53184128 0.13150577 0.019266916
0.53186721 0.13235945 0.019261716
0.53189313 0.1332131 0.019256514
0.53191906 0.13406676 0.019251311
0.53113955 0.13513252 0.018657653
0.53116554 0.13598777 0.018652441
0.53038609 0.13705832 0.018058723
0.53041214 0.13791516 0.0180535
0.52963287 0.13899048 0.017459787
0.52965891 0.13984892 0.017454557
0.52968502 0.14070736 0.017449325
0.52890599 0.14178903 0.01685557
0.52893209 0.14264907 0.01685033
0.52895826 0.1435091 0.016845088
0.52898437 0.14436913 0.016839847
0.52901053 0.14522918 0.016834607
0.52903664 0.1460892 0.016829366
0.52906281 0.14694923 0.016824126
0.52908897 0.14780927 0.016818885
0.50147462 0.075120069 -0.0022327348
0.50231034 0.075935274 -0.0016493081
0.50314599 0.076747298 -0.0010658621
0.50398153 0.077556126 -0.00048235885
0.50400907 0.078462347 -0.0004878811
0.50484449 0.079266407 9.5613461e-05
0.50567979 0.080067277 0.00067912741
0.5057072 0.080970317 0.00067362457
0.50654233 0.081766419 0.0012571675
0.50656974 0.082667857 0.0012516745
0.5074048 0.083459169 0.0018352816
0.50743216 0.084359013 0.0018297981
0.50826699 0.085145563 0.0024133995
0.50910175 0.085928909 0.0029970203
0.50912899 0.086825572 0.0029915562
0.50996357 0.087604158 0.003575206
0.50999081 0.088499226 0.0035697515
0.51001799 0.089394301 0.0035642972
0.5108524 0.090166509 0.0041479887
0.5116868 0.090935521 0.004731732
0.51171392 0.091827407 0.0047262968
0.51174098 0.092719294 0.004720862
0.51257515 0.093481943 0.005304609
0.51260221 0.094372243 0.0052991835
0.51262927 0.095262535 0.0052937586
0.5134632 0.096018814 0.0058775442
0.51429701 0.096771911 0.0064613493
0.51432395 0.097659022 0.0064559435
0.51515764 0.098407336 0.0070397775
0.51599133 0.099152461 0.0076236664
0.51601815 0.10003638 0.0076182797
0.5168516 0.10077674 0.0082021626
0.51768494 0.10151391 0.0087860646
0.51771176 0.10239464 0.0087806974
0.51854491 0.10312703 0.009364632
0.51857167 0.10400619 0.009359275
0.51940477 0.10473379 0.0099432701
0.51943141 0.10561134 0.0099379225
0.52026433 0.10633417 0.010521912
0.52029097 0.10721013 0.010516574
0.52112377 0.10792819 0.011100593
0.52115029 0.10880256 0.011095265
0.52198297 0.10951583 0.011679312
0.52281547 0.11022593 0.012263379
0.52364796 0.11093283 0.012847501
0.52367437 0.11180241 0.012842202
0.52450663 0.11250455 0.013426318
0.52453303 0.11337254 0.013421028
0.52536517 0.1140699 0.014005176
0.52539152 0.1149363 0.013999896
0.52622348 0.11562888 0.01458407
0.52624977 0.11649369 0.014578801
0.52708161 0.11718149 0.015163003
0.52710789 0.11804471 0.015157743
0.52793962 0.11872771 0.01574201
0.52796584 0.11958934 0.015736759
0.52879739 0.12026758 0.01632102
0.52882349 0.12112761 0.016315781
0.52965492 0.12180107 0.01690007
0.52968103 0.12265952 0.01689484
0.53051227 0.1233282 0.017479159
0.53053832 0.12418505 0.017473938
0.53056437 0.1250419 0.017468715
0.53139549 0.1257042 0.018053109
0.53142148 0.12655945 0.018047897
0.53144747 0.1274147 0.018042685
0.53147346 0.12826997 0.018037474
0.53149951 0.12912522 0.018032262
0.53233027 0.12977798 0.018616682
0.5323562 0.13063164 0.01861148
0.53238213 0.1314853 0.018606277
0.53240812 0.13233897 0.018601077
0.53243405 0.13319263 0.018595874
0.53245997 0.1340463 0.018590672
0.53168142 0.13511202 0.01799578
0.53170747 0.13596727 0.017990569
0.53092897 0.13703778 0.017395616
0.53095502 0.13789462 0.017390395
0.53017676 0.1389699 0.016795449
0.53020287 0.13982834 0.016790217
0.53022897 0.14068677 0.016784986
0.53025508 0.14154521 0.016779754
0.52947706 0.14262845 0.01618476
0.52950317 0.14348848 0.016179519
0.52952933 0.14434852 0.016174279
0.52955544 0.14520855 0.016169038
0.52958161 0.14606857 0.016163796
0.52960771 0.14692861 0.016158557
0.52963388 0.14778864 0.016153315
0.52966005 0.14864868 0.016148074
0.50374877 0.077633344 -0.0017739399
0.5045833 0.078440621 -0.0011891966
0.50461084 0.079346843 -0.0011947189
0.50544518 0.080149345 -0.0006099813
0.50547266 0.081053972 -0.00061549386
0.50630683 0.081851698 -3.0727198e-05
0.50714093 0.082646243 0.00055405888
0.50716829 0.083547689 0.00054856576
0.50800228 0.084337443 0.0011334158
0.50802964 0.085237294 0.0011279325
0.50886345 0.08602228 0.0017127739
0.50969714 0.086804077 0.0022976375
0.50972438 0.087700747 0.0022921737
0.51055795 0.088477768 0.0028770664
0.51058513 0.089372836 0.0028716121
0.51061237 0.090267912 0.0028661578
0.5114457 0.091038562 0.0034510894
0.51147288 0.091932043 0.0034456449
0.51230615 0.092697911 0.0040306407
0.51233321 0.093589798 0.0040252055
0.51316631 0.094350897 0.0046101953
0.51319337 0.095241189 0.0046047703
0.51322043 0.096131481 0.0045993449
0.51405329 0.09688621 0.0051843738
0.51488608 0.09763775 0.005769419
0.51491302 0.098524861 0.0057640132
0.51574564 0.099271618 0.0063490905
0.51657826 0.10001519 0.0069342223
0.51660514 0.10089912 0.0069288355
0.51743752 0.10163791 0.0075139613
0.51826978 0.10237353 0.0080991071
0.51829654 0.10325427 0.0080937399
0.51912868 0.10398511 0.008678914
0.51915544 0.10486425 0.0086735571
0.51998746 0.1055903 0.0092587946
0.52001417 0.10646785 0.0092534479
0.52084601 0.10718913 0.009838677
0.52087265 0.10806508 0.0098333396
0.52170432 0.10878159 0.010418601
0.52253598 0.10949491 0.011003882
0.5225625 0.11036768 0.010998564
0.52339393 0.11107623 0.011583874
0.52422535 0.11178157 0.012169238
0.52425182 0.11265116 0.012163939
0.52508301 0.11335173 0.012749297
0.52510941 0.11421973 0.012744007
0.52594048 0.11491553 0.013329395
0.52596682 0.11578193 0.013324115
0.52679777 0.11647296 0.013909532
0.52682406 0.11733776 0.013904262
0.52765483 0.11802401 0.014489707
0.52768105 0.11888722 0.014484446
0.52851176 0.11956868 0.015069957
0.52853793 0.12043031 0.015064706
0.52936846 0.121107 0.015650211
0.52939457 0.12196703 0.015644969
0.53022492 0.12263894 0.016230501
0.53025103 0.12349737 0.016225271
0.53027713 0.12435582 0.016220039
0.53110731 0.12502135 0.016805612
0.53113335 0.1258782 0.016800391
0.5311594 0.12673505 0.01679517
0.5319894 0.1273942 0.017380815
0.53201538 0.12824947 0.017375603
0.53204137 0.12910472 0.017370392
0.53206736 0.12995997 0.01736518
0.53209341 0.13081524 0.017359968
0.53211939 0.13167048 0.017354757
0.53214538 0.13252574 0.017349545
0.53217137 0.13338099 0.017344333
0.53219736 0.13423625 0.017339122
0.53222334 0.13509151 0.01733391
0.53224933 0.13594677 0.017328698
0.53147191 0.13701724 0.016732512
0.53149796 0.13787407 0.016727291
0.531524 0.13873093 0.01672207
0.53074682 0.13980775 0.01612588
0.53077286 0.14066619 0.016120648
0.53079897 0.14152463 0.016115418
0.53082508 0.14238307 0.016110186
0.53085119 0.14324152 0.016104955
0.53087723 0.14409995 0.016099725
0.53090334 0.14495839 0.016094493
0.53012651 0.14604795 0.015498227
0.53015268 0.146908 0.015492986
0.52937603 0.14800234 0.01489669
0.52779663 0.14933579 0.013709275
0.50518507 0.079325117 -0.0018960316
0.5052126 0.080231331 -0.0019015537
0.50604588 0.081032284 -0.0013155761
0.50607336 0.081936918 -0.0013210886
0.50690645 0.082733087 -0.00073507894
0.50693393 0.08363612 -0.00074058177
0.5077669 0.084427513 -0.00015454295
0.50859982 0.085215718 0.00043154729
0.50862718 0.086115569 0.00042606387
0.50945991 0.086898997 0.0010121497
0.50948721 0.087797262 0.001006676
0.51031983 0.088575915 0.0015927925
0.51034707 0.089472577 0.0015873285
0.51117951 0.090246454 0.0021734727
0.51120669 0.091141522 0.0021680184
0.51203901 0.091910623 0.0027541914
0.51206619 0.092804104 0.0027487469
0.51289839 0.093568414 0.0033349842
0.51292545 0.094460301 0.0033295492
0.51375747 0.095219843 0.0039157807
0.51378453 0.096110135 0.0039103557
0.51461643 0.096864901 0.0044966163
0.51464343 0.097753599 0.0044912007
0.51547515 0.09850359 0.0050774901
0.5155021 0.099390693 0.0050720847
0.51633364 0.1001359 0.0056584049
0.51716518 0.10087793 0.0062447782
0.51719207 0.10176185 0.0062393914
0.51802337 0.10249909 0.0068257591
0.51885462 0.10323315 0.0074121458
0.51888138 0.10411389 0.0074067786
0.51971245 0.10484317 0.0079931943
0.51973921 0.10572232 0.0079878373
0.52057016 0.10644681 0.0085743191
0.52059686 0.10732436 0.0085689714
0.52142763 0.10804408 0.0091554448
0.52145427 0.10892005 0.0091501074
0.52228492 0.10963499 0.0097366106
0.52311552 0.11034676 0.010323133
0.52314204 0.11121954 0.010317815
0.52397245 0.11192652 0.010904366
0.5248028 0.11263032 0.011490973
0.52482921 0.1134999 0.011485673
0.52565938 0.11419892 0.012072275
0.52568579 0.11506692 0.012066985
0.52651578 0.11576116 0.012653615
0.52654213 0.11662757 0.012648336
0.527372 0.11731703 0.013234994
0.52739829 0.11818185 0.013229724
0.52822804 0.11886653 0.013816412
0.52825427 0.11972975 0.013811151
0.52908391 0.12040965 0.014397903
0.52911007 0.12127127 0.014392653
0.52993953 0.1219464 0.014979399
0.5299657 0.12280644 0.014974158
0.52999181 0.12366648 0.014968917
0.53082108 0.12433524 0.015555702
0.53084713 0.12519369 0.015550471
0.53167623 0.12585765 0.016137285
0.53170228 0.12671451 0.016132064
0.53172833 0.12757136 0.016126843
0.53175437 0.12842821 0.016121622
0.5325833 0.12908421 0.016708519
0.53260928 0.12993947 0.016703308
0.53263527 0.13079472 0.016698096
0.53266126 0.13164997 0.016692884
0.53268731 0.13250524 0.016687673
0.53271329 0.13336049 0.016682461
0.53273928 0.13421574 0.016677249
0.53276527 0.13507101 0.016672038
0.53279126 0.13592626 0.016666826
0.53201485 0.13699669 0.016069409
0.53204089 0.13785353 0.016064186
0.53206694 0.13871038 0.016058965
0.53209299 0.13956723 0.016053744
0.53211904 0.14042407 0.016048523
0.53134292 0.14150405 0.01545108
0.53136903 0.14236249 0.015445849
0.53219712 0.14299463 0.016032858
0.53142118 0.14407937 0.015435386
0.53144729 0.14493781 0.015430155
0.53067148 0.14602734 0.014832656
0.52989578 0.14712006 0.014235137
0.52831829 0.14845024 0.013045277
0.52674109 0.14978679 0.011855412
0.50664657 0.08191523 -0.0020211709
0.50667405 0.082819849 -0.0020266834
0.50750613 0.083614469 -0.0014394321
0.50753355 0.084517509 -0.001444935
0.50836545 0.085307345 -0.00085765601
0.50919735 0.086093992 -0.00027032127
0.50922471 0.086993843 -0.00027580472
0.51005638 0.087775722 0.0003115242
0.51008368 0.088673979 0.00030605044
0.51091522 0.089451075 0.00089340709
0.51094246 0.090347745 0.00088794302
0.51177382 0.091120064 0.0014753302
0.51180106 0.092015132 0.0014698759
0.51263231 0.092782676 0.002057292
0.51265943 0.093676157 0.0020518475
0.51349062 0.094438918 0.0026393263
0.51351768 0.095330805 0.0026338915
0.51434863 0.096088789 0.0032213659
0.51437569 0.096979082 0.0032159407
0.51520652 0.097732291 0.0038034443
0.51523352 0.098620996 0.0037980289
0.51606417 0.099369422 0.0043855603
0.51689476 0.10011467 0.0049731121
0.51692164 0.1010002 0.0049677161
0.51775211 0.10174066 0.0055553322
0.51858246 0.10247794 0.0061429315
0.51860929 0.10336027 0.006137555
0.51943946 0.10409278 0.0067251846
0.51946622 0.1049735 0.0067198179
0.52029628 0.10570124 0.007307475
0.52032298 0.10658038 0.007302118
0.52115291 0.10730332 0.0078898408
0.52117956 0.10818087 0.0078844931
0.52200931 0.10889905 0.0084722107
0.52203596 0.10977501 0.0084668724
0.52286553 0.1104884 0.009054617
0.52369505 0.11119861 0.0096423831
0.52372158 0.11207138 0.0096370643
0.52455091 0.11277682 0.010224858
0.52538019 0.11347905 0.010812707
0.52540666 0.11434864 0.010807408
0.52623576 0.11504611 0.011395251
0.52626216 0.11591411 0.011389961
0.52709109 0.11660679 0.011977833
0.52711743 0.11747319 0.011972553
0.52794623 0.11816111 0.012560455
0.52797252 0.11902592 0.012555185
0.5288012 0.11970905 0.013143114
0.52882749 0.12057227 0.013137854
0.52885371 0.12143549 0.013132594
0.52968222 0.12211224 0.013720598
0.5305106 0.12278582 0.014308587
0.53053677 0.12364586 0.014303346
0.53056288 0.12450588 0.014298106
0.53139108 0.12517309 0.014886132
0.53141719 0.12603153 0.0148809
0.5314433 0.12688997 0.014875669
0.53227127 0.12755081 0.015463736
0.53229731 0.12840766 0.015458514
0.53232336 0.12926452 0.015453293
0.53234941 0.13012135 0.015448072
0.5331772 0.13077421 0.016036222
0.53320318 0.13162947 0.01603101
0.53322917 0.13248473 0.016025798
0.53325516 0.13333999 0.016020587
0.53328121 0.13419524 0.016015375
0.53330719 0.13505051 0.016010163
0.53333318 0.13590574 0.016004952
0.53335917 0.13676101 0.01599974
0.53258377 0.13783298 0.015401079
0.53260982 0.13868983 0.015395857
0.53263587 0.13954668 0.015390636
0.53266191 0.14040354 0.015385414
0.53268796 0.14126039 0.015380193
0.53271401 0.14211723 0.015374972
0.53274006 0.14297408 0.015369751
0.53196514 0.14405879 0.014771047
0.53199124 0.14491723 0.014765816
0.53121644 0.14600672 0.014167085
0.52964085 0.14733206 0.012974788
0.5280655 0.14866374 0.011782487
0.52568954 0.15023763 0.0099965818
0.50810575 0.084495857 -0.002143784
0.50896406 0.086187176 -0.0015607647
0.50899148 0.087088615 -0.0015662579
0.50982219 0.087872118 -0.00097767182
0.50984955 0.088771969 -0.00098315533
0.51068014 0.089550696 -0.00039457509
0.51151061 0.090326242 0.00019402453
0.51153785 0.091222905 0.0001885605
0.5123682 0.091993675 0.00077718921
0.51239538 0.09288875 0.00077173492
0.51322556 0.093654737 0.0013603928
0.51325274 0.094548218 0.0013549482
0.51408285 0.095309421 0.0019436715
0.51410991 0.096201308 0.0019382365
0.51493984 0.096957736 0.0025269527
0.51496691 0.097848035 0.0025215275
0.51579666 0.098599687 0.0031102726
0.5166263 0.099348158 0.0036990372
0.51665324 0.10023526 0.0036936314
0.51748276 0.10097896 0.0042824252
0.51831222 0.10171946 0.0048712729
0.5183391 0.10260338 0.0048658866
0.51916832 0.10333911 0.0054547288
0.51919514 0.10422145 0.0054493523
0.5200243 0.10495239 0.0060382239
0.52005106 0.10583314 0.0060328566
0.52088004 0.1065593 0.0066217571
0.52090675 0.10743845 0.0066164001
0.52173561 0.10815983 0.0072053662
0.52176231 0.10903738 0.0072000185
0.52259099 0.109754 0.0077889771
0.52261758 0.11062996 0.0077836392
0.52344614 0.1113418 0.0083726272
0.52427459 0.11205045 0.0089616347
0.52430111 0.11292323 0.0089563159
0.52512938 0.11362711 0.0095453523
0.52595764 0.1143278 0.010134443
0.52598405 0.11519738 0.010129143
0.52681214 0.1158933 0.010718228
0.52683848 0.1167613 0.010712939
0.52766639 0.11745242 0.011302053
0.52769274 0.11831883 0.011296773
0.52852052 0.11900519 0.011885917
0.52854681 0.11987 0.011880646
0.5285731 0.1207348 0.011875377
0.52940065 0.1214148 0.012464559
0.52942687 0.12227801 0.012459299
0.53025436 0.12295321 0.013048545
0.53028053 0.12381484 0.013043294
0.53110784 0.12448527 0.013632534
0.53113395 0.1253453 0.013627294
0.53116012 0.12620533 0.013622053
0.53198719 0.1268694 0.014211331
0.5320133 0.12772784 0.0142061
0.5320394 0.12858628 0.014200869
0.53206545 0.12944472 0.014195639
0.53289235 0.13010082 0.014784966
0.53291839 0.13095766 0.014779745
0.53294438 0.13181451 0.014774523
0.53297043 0.13267136 0.014769302
0.53379709 0.13331948 0.015358714
0.53382307 0.13417473 0.015353503
0.53384912 0.13503 0.015348291
0.53387511 0.13588524 0.015343079
0.5339011 0.13674051 0.015337868
0.53392708 0.13759576 0.015332656
0.53395307 0.13845101 0.015327444
0.53317881 0.13952614 0.01472753
0.53320485 0.14038299 0.014722309
0.5332309 0.14123984 0.014717088
0.53325695 0.14209668 0.014711866
0.533283 0.14295354 0.014706645
0.53330904 0.14381039 0.014701423
0.53253514 0.14489666 0.014101478
0.53176135 0.1459861 0.013501514
0.52938795 0.14754397 0.011712009
0.52781469 0.14887716 0.010517234
0.52464211 0.15068834 0.0081328601
0.51041973 0.0887504 -0.0016795376
0.51044708 0.089650244 -0.001685021
0.5112766 0.090427421 -0.0010951993
0.512106 0.09120141 -0.00050535798
0.51213324 0.092098072 -0.00051082205
0.51296252 0.092867292 7.90497e-05
0.51298976 0.093762361 7.3595387e-05
0.51381886 0.094526798 0.00066349481
0.51464796 0.095288038 0.0012534501
0.51467508 0.096179925 0.0012480151
0.51470214 0.097071812 0.0012425802
0.515531 0.097826689 0.0018325393
0.51555806 0.098716989 0.001827114
0.51638675 0.099467084 0.0024171008
0.51721537 0.100214 0.0030071086
0.51724231 0.10110112 0.0030017027
0.51807076 0.10184325 0.0035917379
0.51889914 0.10258219 0.0041818293
0.51892602 0.10346612 0.0041764425
0.51975423 0.10420029 0.0047665266
0.52058232 0.10493127 0.0053566312
0.52060908 0.10581201 0.005351264
0.5206359 0.10669275 0.0053458973
0.52146381 0.10741737 0.0059360391
0.52149051 0.10829651 0.0059306822
0.5223183 0.10901634 0.0065208897
0.52314597 0.109733 0.0071110814
0.52317262 0.11060897 0.0071057435
0.52400017 0.11132085 0.0076959636
0.52402675 0.11219521 0.007690635
0.52485412 0.11290231 0.0082808854
0.52488065 0.11377507 0.0082755666
0.5257079 0.1144774 0.0088658454
0.52573436 0.11534858 0.0088605359
0.5265615 0.11604612 0.0094508799
0.5265879 0.11691572 0.0094455807
0.52741486 0.11760848 0.010035917
0.52824175 0.11829806 0.010626274
0.52826804 0.11916446 0.010620994
0.52829438 0.12003087 0.010615715
0.52912104 0.12071407 0.011206109
0.52914733 0.12157889 0.011200839
0.52997386 0.12225731 0.011791264
0.53000009 0.12312054 0.011786004
0.53002632 0.12398376 0.011780743
0.53085268 0.12465581 0.012371242
0.5308789 0.12551743 0.012365991
0.53170508 0.12618472 0.012956483
0.53173119 0.12704475 0.012951243
0.53175735 0.12790479 0.012946001
0.5325833 0.1285657 0.013536531
0.5326094 0.12942414 0.0135313
0.53263551 0.13028258 0.01352607
0.53346127 0.13093711 0.01411664
0.53348732 0.13179396 0.014111418
0.53351337 0.13265082 0.014106197
0.53353941 0.13350765 0.014100976
0.53356546 0.13436452 0.014095754
0.53359151 0.13522136 0.014090533
0.53441697 0.13586473 0.014681206
0.53444302 0.13672 0.014675994
0.53446901 0.13757525 0.014670783
0.534495 0.13843051 0.014665571
0.53452098 0.13928576 0.014660359
0.53454697 0.14014103 0.014655148
0.53457296 0.14099626 0.014649936
0.53459895 0.14185153 0.014644724
0.53382593 0.142933 0.014043541
0.53385192 0.14378984 0.014038319
0.53307909 0.14487608 0.013437141
0.53150743 0.14619645 0.01223998
0.52993596 0.14752322 0.011042741
0.5275659 0.14909051 0.0092495158
0.52439737 0.15090312 0.0068602022
0.51406831 0.15576124 -0.00089876796
0.51187307 0.091304146 -0.0017958233
0.51270139 0.092076577 -0.0012047405
0.51272869 0.09297324 -0.0012102046
0.5135569 0.093740903 -0.00061909127
0.51358408 0.094635971 -0.00062454556
0.51441216 0.095398851 -3.3403128e-05
0.51524019 0.096158542 0.00055779511
0.51526731 0.097050428 0.0005523602
0.5160951 0.097805344 0.0011435512
0.51612216 0.098695643 0.0011381259
0.51694983 0.099445775 0.0017293446
0.51697689 0.10033447 0.0017239291
0.51780438 0.10107984 0.0023151783
0.51783139 0.10196695 0.0023097724
0.51865876 0.10270753 0.0029010507
0.51948607 0.10344492 0.0034923849
0.51951295 0.10432885 0.0034869984
0.52034009 0.10506146 0.0040783253
0.52116716 0.1057909 0.00466967
0.52119392 0.10667164 0.0046643033
0.52202082 0.1073963 0.0052556787
0.52204758 0.10827544 0.0052503212
0.52207428 0.10915458 0.0052449638
0.52290106 0.10987286 0.0058364146
0.52372766 0.11058796 0.0064278482
0.5237543 0.11146392 0.0064225104
0.52458078 0.11217425 0.0070139728
0.5246073 0.11304861 0.0070086448
0.52543366 0.11375415 0.0076001352
0.52546018 0.11462694 0.0075948169
0.52628636 0.1153277 0.0081863375
0.52631283 0.11619888 0.008181029
0.52713895 0.11689486 0.0087726153
0.52716535 0.11776445 0.0087673161
0.52799124 0.11845567 0.0093588959
0.52801764 0.11932366 0.009353606
0.52884334 0.1200101 0.0099452147
0.52886969 0.1208765 0.0099399351
0.52969533 0.12155815 0.010531571
0.52972162 0.12242296 0.010526301
0.5297479 0.12328777 0.010521031
0.53057331 0.12396307 0.011112708
0.53059953 0.12482627 0.011107448
0.53142482 0.12549677 0.011699189
0.53145105 0.1263584 0.011693939
0.53147721 0.12722002 0.011688688
0.53230226 0.12788416 0.012280432
0.53232843 0.1287442 0.012275191
0.53235453 0.12960424 0.01226995
0.5331794 0.13026199 0.012861733
0.53320551 0.13112044 0.012856502
0.53323162 0.13197887 0.012851271
0.53405631 0.13263027 0.013443092
0.53408235 0.13348712 0.01343787
0.5341084 0.13434397 0.013432649
0.53413445 0.13520083 0.013427427
0.5349589 0.13584423 0.014019334
0.53498489 0.1366995 0.014014122
0.53501087 0.13755475 0.01400891
0.53503692 0.13841 0.014003699
0.53506291 0.13926525 0.013998487
0.5350889 0.14012051 0.013993275
0.53511488 0.14097576 0.013988064
0.53514087 0.14183103 0.013982852
0.53516686 0.14268628 0.01397764
0.53439486 0.14376929 0.013375213
0.53362298 0.14485548 0.012772804
0.53205335 0.1461758 0.011573177
0.52968609 0.14773501 0.0097762663
0.52731907 0.14930379 0.0079792971
0.52415472 0.15111783 0.0055850791
0.5185976 0.15365654 0.001398999
0.51463646 0.15573975 -0.0015926865
0.51329684 0.092951745 -0.0019041245
0.51332408 0.093848407 -0.0019095886
0.51415122 0.094614513 -0.0013172323
0.51497829 0.09537743 -0.00072485791
0.51500547 0.096270919 -0.00073030253
0.51583242 0.097029045 -0.00013786269
0.51585954 0.097920932 -0.00014329763
0.51668626 0.098674297 0.00044913491
0.51671332 0.099564582 0.00044370975
0.51753998 0.10031316 0.0010361728
0.51756698 0.10120188 0.0010307573
0.51839346 0.10194568 0.0016232481
0.51921982 0.1026863 0.0022157584
0.51924676 0.10357182 0.0022103621
0.52007306 0.10430766 0.0028029378
0.52009994 0.10519157 0.0027975515
0.520926 0.10592264 0.0033901213
0.521752 0.10665052 0.0039827093
0.52177876 0.10753126 0.003977342
0.52260458 0.10825436 0.0045699594
0.52263135 0.1091335 0.0045646019
0.52265805 0.11001265 0.0045592445
0.52348375 0.11072937 0.0051519368
0.52430934 0.11144292 0.0057446132
0.52433592 0.11231888 0.0057392754
0.52516133 0.11302765 0.0063319798
0.52518791 0.11390201 0.0063266517
0.5260132 0.11460601 0.0069193849
0.52603972 0.11547878 0.0069140666
0.52686483 0.116178 0.0075068306
0.52689135 0.11704918 0.0075015221
0.52771634 0.1177436 0.008094348
0.5277428 0.1186132 0.0080890497
0.52856761 0.11930285 0.0086818719
0.52859402 0.12017085 0.008676582
0.52941871 0.12085573 0.0092694322
0.52944499 0.12172213 0.0092641525
0.53026956 0.12240222 0.0098570334
0.53029585 0.12326704 0.009851763
0.53032213 0.12413186 0.0098464927
0.53114647 0.12480558 0.010439411
0.53117269 0.12566881 0.010434151
0.53119898 0.12653202 0.010428891
0.53202313 0.12719937 0.011021883
0.53204936 0.128061 0.011016633
0.53287333 0.12872358 0.011609619
0.5328995 0.12958361 0.011604378
0.53292567 0.13044365 0.011599137
0.53374946 0.13109985 0.012192162
0.53377557 0.13195829 0.012186931
0.53380162 0.13281675 0.012181699
0.53462523 0.13346657 0.012774765
0.53465128 0.13432343 0.012769543
0.53467733 0.13518028 0.012764322
0.53470337 0.13603713 0.0127591
0.53552681 0.13667899 0.013352249
0.5355528 0.13753425 0.013347037
0.53557879 0.1383895 0.013341825
0.53560483 0.13924475 0.013336614
0.53563082 0.1401 0.013331401
0.53565681 0.14095525 0.01332619
0.5356828 0.14181052 0.013320978
0.53570879 0.14266577 0.013315766
0.5349378 0.14374876 0.012712107
0.53416693 0.14483491 0.012108464
0.53180242 0.14638604 0.010307905
0.52943826 0.14794673 0.0085073235
0.5262776 0.14975107 0.0061081974
0.5231173 0.15156816 0.0037089936
0.51916069 0.15363525 0.00071124273
0.51471835 0.094593056 -0.0020099189
0.51474559 0.095488124 -0.0020153732
0.51557159 0.096249491 -0.0014217559
0.51639754 0.097007662 -0.00082808413
0.51642466 0.097899549 -0.00083351909
0.51645178 0.098791435 -0.00083895394
0.51727748 0.099543244 -0.00024527838
0.51730454 0.10043354 -0.00025070363
0.51813006 0.10118057 0.00034300104
0.51895553 0.10192441 0.00093672518
0.51898253 0.10281152 0.00093131937
0.51980782 0.10355059 0.0015250726
0.51983476 0.10443611 0.0015196764
0.52065998 0.10517038 0.0021134939
0.52068686 0.10605431 0.0021081073
0.52151191 0.10678381 0.0027019188
0.52233684 0.10751014 0.0032957497
0.5223636 0.10839088 0.0032903827
0.52318835 0.10911243 0.0038842412
0.52321512 0.10999157 0.003878884
0.52324182 0.11087072 0.0038735266
0.52406645 0.11158589 0.0044674617
0.52489096 0.11229789 0.0050613787
0.5249176 0.11317384 0.0050560408
0.52574193 0.11388105 0.0056499881
0.52576852 0.11475542 0.00564466
0.5257951 0.11562978 0.0056393319
0.52661926 0.11633063 0.0062333178
0.52744335 0.11702829 0.0068273232
0.52746981 0.11789947 0.0068220147
0.52749628 0.11877066 0.0068167057
0.52832019 0.11946193 0.0074107852
0.52834666 0.12033153 0.0074054864
0.52917039 0.12101803 0.0079995599
0.52919674 0.12188603 0.00799427
0.53002036 0.12256776 0.0085883727
0.53004664 0.12343416 0.0085830931
0.53087008 0.12411112 0.0091772247
0.53089637 0.12497593 0.0091719553
0.53092265 0.12584074 0.0091666849
0.53174591 0.12651132 0.0097608557
0.53177214 0.12737454 0.0097555956
0.53179836 0.12823777 0.0097503355
0.5326215 0.12890196 0.01034458
0.53264767 0.12976359 0.010339329
0.53347057 0.13042302 0.010933568
0.53349674 0.13128306 0.010928326
0.53431946 0.13193771 0.011522593
0.53434557 0.13279615 0.011517362
0.53437167 0.13365459 0.01151213
0.53519422 0.13430288 0.012106437
0.53522027 0.13515973 0.012101215
0.53524631 0.13601658 0.012095994
0.53527236 0.13687344 0.012090772
0.53609473 0.13751374 0.012685164
0.53612071 0.13836899 0.012679952
0.5361467 0.13922425 0.012674741
0.53617269 0.1400795 0.012669529
0.53619874 0.14093475 0.012664317
0.53622472 0.14179002 0.012659105
0.53545469 0.14287136 0.012054223
0.53548074 0.14372821 0.012049002
0.53471088 0.14481433 0.011444126
0.53234941 0.14636536 0.0096398704
0.52919245 0.14815839 0.0072359168
0.52603585 0.14996415 0.0048318505
0.52208394 0.15201831 0.0018280153
0.51892817 0.15385117 -0.00057621603
0.51698977 0.097878166 -0.0015237391
0.51701689 0.098770052 -0.0015291739
0.51784158 0.099521898 -0.00093426654
0.51786864 0.10041219 -0.00093969173
0.5178957 0.10130249 -0.00094511698
0.51872021 0.10204796 -0.00035017068
0.5195446 0.10279025 0.000244795
0.5195716 0.10367736 0.00023938919
0.52039582 0.10441487 0.0008343854
0.52042276 0.10530038 0.00082898937
0.52124691 0.10603312 0.0014240496
0.52127379 0.10691703 0.0014186633
0.52209777 0.107645 0.0020137161
0.52292162 0.10836977 0.0026087887
0.52294844 0.10925051 0.0026034217
0.52377218 0.1099705 0.0031985233
0.52379888 0.11084964 0.0031931659
0.52382559 0.11172879 0.0031878087
0.5246492 0.1124424 0.0037829855
0.52547264 0.11315284 0.0043781451
0.52549922 0.1140288 0.0043728072
0.52552587 0.11490475 0.0043674693
0.52634913 0.11560882 0.0049626697
0.52637571 0.1164832 0.0049573416
0.52719879 0.11718249 0.0055525689
0.52722532 0.11805525 0.0055472506
0.52804828 0.11874977 0.0061425073
0.5280748 0.11962095 0.0061371988
0.52889764 0.12031067 0.0067325211
0.52892405 0.12118026 0.0067272219
0.52974671 0.12186522 0.0073225372
0.52977312 0.12273321 0.0073172478
0.53059566 0.12341339 0.007912593
0.53062195 0.1242798 0.0079073133
0.53144437 0.12495519 0.0085026873
0.53147066 0.12582001 0.008497417
0.53149694 0.12668481 0.0084921475
0.53231913 0.12735385 0.0090875598
0.53234535 0.12821707 0.0090822987
0.53237158 0.12908028 0.0090770386
0.53319365 0.12974294 0.0096725263
0.53321981 0.13060455 0.0096672755
0.53404164 0.13126244 0.010262756
0.53406781 0.13212247 0.010257515
0.53409392 0.13298251 0.010252275
0.53491557 0.13363402 0.010847795
0.53494167 0.13449246 0.010842564
0.53496778 0.1353509 0.010837332
0.53578925 0.13599604 0.01143289
0.5358153 0.13685289 0.011427669
0.53584135 0.13770972 0.011422447
0.53586739 0.13856658 0.011417226
0.53668863 0.13920374 0.012012868
0.53671461 0.14005899 0.012007657
0.5367406 0.14091425 0.012002445
0.53676659 0.14176951 0.011997233
0.53599757 0.14285083 0.011391119
0.53522873 0.14393529 0.010785021
0.53445989 0.14502297 0.010178903
0.53210151 0.14657548 0.0083709387
0.52894861 0.14836995 0.00596201
0.52500135 0.15041117 0.0029520888
0.52184927 0.15223274 0.00054299651
0.51869762 0.15406701 -0.0018661385
0.51843274 0.10039084 -0.0016286799
0.5184598 0.10128114 -0.0016341051
0.51848686 0.10217144 -0.0016395303
0.5193103 0.10291535 -0.001043341
0.52013367 0.10365609 -0.00044713376
0.52016062 0.1045432 -0.00045253953
0.52098382 0.10527916 0.00014369829
0.52101076 0.10616468 0.00013830214
0.5218339 0.10689584 0.00073460408
0.52186072 0.10777977 0.00072921766
0.52268368 0.10850617 0.0013255137
0.52350646 0.10922939 0.0019218291
0.52353323 0.11011012 0.0019164622
0.52435595 0.11082856 0.0025128054
0.52438265 0.11170771 0.002507448
0.52440935 0.11258686 0.0025020908
0.5252319 0.11329892 0.0030985104
0.52605426 0.11400779 0.003694912
0.52608091 0.11488376 0.0036895741
0.52610755 0.11575972 0.0036842362
0.52692974 0.11646223 0.0042806775
0.52695632 0.1173366 0.0042753494
0.52777833 0.11803433 0.0048718206
0.52780485 0.11890711 0.0048665018
0.5286268 0.11960006 0.0054630018
0.52865326 0.12047125 0.0054576928
0.52947503 0.12115941 0.006054257
0.5295015 0.12202901 0.0060489578
0.5295279 0.12289859 0.0060436591
0.53034949 0.1235804 0.0066402266
0.53117096 0.12425902 0.0072368123
0.53119731 0.12512542 0.0072315326
0.5312236 0.12599184 0.0072262529
0.53204489 0.12666409 0.0078228796
0.53207117 0.12752891 0.0078176092
0.53209746 0.12839371 0.0078123393
0.53291851 0.12905958 0.0084090037
0.5329448 0.12992281 0.0084037436
0.53376573 0.1305839 0.0090004727
0.53379196 0.13144553 0.0089952219
0.53461272 0.13210185 0.0095919454
0.53463888 0.13296188 0.0095867049
0.53466505 0.13382192 0.0095814634
0.53548563 0.13447188 0.010178226
0.53551173 0.13533032 0.010172995
0.53553778 0.13618876 0.010167764
0.53635818 0.13683234 0.010764563
0.53638422 0.13768919 0.010759342
0.53641027 0.13854603 0.01075412
0.53643632 0.13940288 0.010748899
0.53646237 0.14025973 0.010743677
0.53648841 0.14111657 0.010738456
0.53651446 0.14197344 0.010733235
0.53654051 0.14283028 0.010728013
0.53577262 0.14391471 0.010120683
0.53500485 0.14500235 0.0095133334
0.53185564 0.14678553 0.0070995418
0.52870685 0.14858145 0.0046856748
0.52555841 0.1503901 0.0022717281
0.52241039 0.1522115 -0.00014229458
0.51990044 0.10378275 -0.0017365143
0.52072275 0.10452193 -0.001139064
0.52074969 0.10540904 -0.0011444697
0.52077669 0.10629615 -0.0011498756
0.52159876 0.10702895 -0.00055238639
0.52242082 0.10775858 4.5158438e-05
0.52244771 0.1086425 3.9772105e-05
0.52326953 0.10936735 0.00063730968
0.5240913 0.110089 0.0012348668
0.52411807 0.11096974 0.0012294998
0.52493972 0.11168663 0.0018270859
0.52496642 0.11256578 0.0018217287
0.52499312 0.11344492 0.0018163713
0.52581459 0.11415543 0.0024140328
0.5258413 0.11503298 0.0024086852
0.52666259 0.11573871 0.0030063393
0.52668917 0.11661468 0.0030010014
0.52751034 0.11731564 0.0035986861
0.52753693 0.11819 0.003593358
0.52756345 0.11906438 0.0035880296
0.52838439 0.11975896 0.0041857515
0.52841097 0.12063173 0.0041804332
0.52923173 0.12132154 0.0047781845
0.52925819 0.12219272 0.0047728755
0.53007889 0.12287774 0.0053706923
0.53010535 0.12374733 0.0053653931
0.53092587 0.12442759 0.0059632026
0.53095222 0.12529558 0.0059579131
0.53177261 0.12597106 0.0065557519
0.53179896 0.12683746 0.0065504722
0.53261912 0.12750816 0.0071483399
0.5326454 0.12837297 0.00714307
0.53267169 0.12923779 0.0071378001
0.53349173 0.12990211 0.0077357064
0.53351796 0.13076533 0.0077304463
0.53433788 0.13142487 0.0083284182
0.5343641 0.13228649 0.0083231675
0.53439027 0.13314812 0.0083179167
0.53520995 0.1338013 0.0089158909
0.53523612 0.13466133 0.0089106504
0.53605562 0.13530974 0.0095086554
0.53608173 0.13616818 0.0095034242
0.53610784 0.13702662 0.0094981929
0.53692716 0.13766864 0.010096235
0.53695321 0.1385255 0.010091014
0.53697926 0.13938233 0.010085793
0.53700531 0.14023919 0.010080571
0.53703135 0.14109604 0.01007535
0.5370574 0.14195289 0.010070128
0.53708345 0.14280973 0.010064907
0.53552365 0.14412169 0.0088530015
0.53475696 0.14521088 0.0082444102
0.5316118 0.1469955 0.0058256797
0.52846706 0.14879285 0.0034068725
0.52532274 0.15060295 0.00098798587
0.52217877 0.1524258 -0.0014309769
0.52133876 0.10627488 -0.0018363985
0.5213657 0.10716198 -0.0018418042
0.52218676 0.10789325 -0.0012430736
0.52300775 0.1086213 -0.00064428564
0.52303463 0.10950523 -0.00064967206
0.52385545 0.11022852 -5.0892842e-05
0.52467614 0.11094863 0.0005479072
0.52470291 0.11182937 0.00054254022
0.52552348 0.1125447 0.0011413679
0.52555019 0.11342385 0.0011360106
0.52557689 0.11430299 0.0011306534
0.52639735 0.11501194 0.0017295578
0.52642399 0.11588949 0.0017242102
0.52724421 0.11659367 0.0023231059
0.52727085 0.11746964 0.0023177681
0.52809089 0.11816903 0.0029166942
0.52811748 0.11904341 0.0029113661
0.52814406 0.11991777 0.002906038
0.52896398 0.12061081 0.0035050029
0.52899051 0.12148357 0.0034996846
0.52981025 0.12217183 0.0040986771
0.52983671 0.12304302 0.0040933685
0.53065634 0.12372648 0.0046924283
0.5306828 0.12459607 0.0046871291
0.53150225 0.12527478 0.0052861799
0.53152859 0.12614277 0.0052808905
0.53234792 0.12681669 0.0058799721
0.53237426 0.12768309 0.0058746925
0.53319341 0.12835224 0.0064738016
0.5332197 0.12921704 0.0064685317
0.53324598 0.13008186 0.0064632618
0.53406495 0.13074464 0.0070624114
0.53409117 0.13160786 0.0070571513
0.53491002 0.13226584 0.0076563647
0.53493625 0.13312747 0.0076511139
0.53496242 0.13398908 0.0076458636
0.53578103 0.13464071 0.0082450807
0.53580719 0.13550074 0.0082398402
0.53662568 0.13614759 0.0088390866
0.53665173 0.13700603 0.0088338554
0.53667784 0.13786447 0.0088286242
0.53670394 0.13872291 0.0088233929
0.53673005 0.13958135 0.0088181626
0.53754824 0.14021865 0.0094174659
0.53757429 0.14107549 0.009412244
0.53760028 0.14193234 0.009407023
0.53683442 0.14301513 0.0087972376
0.53606862 0.14410108 0.0081874318
0.53451097 0.14541936 0.0069729877
0.53136998 0.1472054 0.0045493543
0.52822936 0.14900419 0.002125605
0.52588081 0.15058184 0.00030639331
0.52359468 0.10948404 -0.0013337312
0.52362156 0.11036795 -0.0013391176
0.5244413 0.1110897 -0.00073909544
0.52526098 0.11180826 -0.00013905379
0.52528775 0.11268899 -0.00014442076
0.52610725 0.11340277 0.00045564998
0.52613395 0.11428191 0.00045029272
0.52616066 0.11516106 0.00044493543
0.52698004 0.11586845 0.0010450814
0.52700669 0.116746 0.0010397339
0.52782589 0.11744864 0.0016398724
0.52785248 0.11832459 0.0016345347
0.52787912 0.11920056 0.0016291968
0.52869809 0.11989681 0.0022293744
0.52872467 0.12077118 0.002224046
0.52954352 0.12146265 0.0028242527
0.52957004 0.12233543 0.0028189344
0.53038871 0.12302212 0.0034191716
0.53041518 0.12389331 0.0034138628
0.53123379 0.12457523 0.0040141623
0.53126019 0.12544481 0.0040088636
0.53207856 0.12612197 0.0046091573
0.53210497 0.12698996 0.0046038684
0.53292322 0.12766232 0.0052041914
0.53294957 0.12852871 0.0051989118
0.53376764 0.12919632 0.0057992651
0.53379393 0.13006113 0.0057939952
0.53382021 0.13092594 0.0057887253
0.53463811 0.13158716 0.0063891164
0.53466439 0.13245037 0.0063838563
0.53469062 0.1333136 0.0063785957
0.53550833 0.13396843 0.0069790608
0.53553456 0.13483006 0.00697381
0.5363521 0.13548014 0.0075742705
0.53637826 0.13634016 0.0075690299
0.53640443 0.13720019 0.0075637889
0.53722179 0.13784389 0.0081642866
0.5372479 0.13870233 0.0081590554
0.53727394 0.13956077 0.0081538241
0.53730005 0.14041921 0.0081485938
0.53732616 0.14127766 0.0081433626
0.53735226 0.1421361 0.0081381314
0.53737831 0.14299454 0.0081329001
0.53582263 0.14430794 0.0069160545
0.53426707 0.14562774 0.0056991368
0.53113014 0.14741522 0.0032705266
0.52878439 0.1489832 0.0014477095
0.52564818 0.15079457 -0.000981046
0.52502722 0.11195088 -0.0014272995
0.52584577 0.11266787 -0.00082601479
0.52587259 0.11354861 -0.00083138177
0.52669102 0.11426083 -0.0002300694
0.52671772 0.11513998 -0.00023542671
0.52674443 0.11601912 -0.00024078395
0.52756274 0.11672496 0.00036060502
0.52758944 0.11760253 0.00035525739
0.52840751 0.11830359 0.00095663773
0.52843416 0.11917955 0.00095129985
0.5284608 0.12005551 0.00094596198
0.5292787 0.12075022 0.0015473824
0.52930528 0.12162458 0.0015420543
0.52933186 0.12249894 0.0015367263
0.53014958 0.12318727 0.0021381842
0.53096718 0.12387243 0.0027396628
0.53099364 0.12474361 0.0027343542
0.53181118 0.12542397 0.0033358969
0.53183764 0.12629355 0.0033305979
0.53265494 0.12696914 0.0039321347
0.53268135 0.12783715 0.0039268457
0.53349853 0.12850794 0.0045284103
0.53352487 0.12937436 0.0045231306
0.53434193 0.13004039 0.0051247259
0.53436822 0.13090521 0.005119456
0.5343945 0.13177001 0.0051141861
0.53521132 0.13242967 0.0057158186
0.53523755 0.1332929 0.0057105585
0.53526378 0.13415611 0.0057052979
0.53608048 0.1348094 0.0063070073
0.53610671 0.13567103 0.0063017569
0.53692323 0.13631955 0.0069034575
0.53694934 0.13717957 0.0068982164
0.5369755 0.1380396 0.0068929759
0.53700161 0.13889964 0.0068877349
0.5378179 0.1395402 0.0074894857
0.537844 0.14039864 0.0074842544
0.53787005 0.14125708 0.0074790232
0.53710622 0.14233978 0.0068667717
0.53713232 0.14319982 0.0068615307
0.53557867 0.14451474 0.0056421757
0.53323537 0.14606507 0.0038157695
0.53089237 0.14762497 0.0019892675
0.52854967 0.1491944 0.00016274511
0.52645737 0.11440823 -0.0015183428
0.52727479 0.11511891 -0.00091578742
0.52730149 0.11599804 -0.00092114462
0.52732825 0.11687719 -0.00092650193
0.52814549 0.11758149 -0.00032387141
0.52817214 0.11845903 -0.00032921895
0.5289892 0.11915855 0.00027340432
0.52901584 0.12003451 0.00026806651
0.52904242 0.12091047 0.00026272863
0.5298593 0.12160362 0.00086539076
0.52988589 0.12247799 0.0008600626
0.52991247 0.12335235 0.00085473445
0.53072912 0.12403913 0.0014574353
0.53075564 0.12491191 0.0014521169
0.53157216 0.1255939 0.0020548468
0.53159863 0.12646508 0.0020495381
0.53241503 0.1271423 0.0026523338
0.5324415 0.12801188 0.0026470348
0.53325772 0.12868433 0.0032498229
0.53407383 0.12935358 0.0038526307
0.53410017 0.13022 0.0038473511
0.53412652 0.13108639 0.0038420714
0.53494245 0.13174929 0.0044449177
0.53496873 0.13261409 0.0044396478
0.53499502 0.13347891 0.0044343779
0.53581077 0.13413543 0.0050372635
0.53583699 0.13499863 0.0050320034
0.53665262 0.13565037 0.0056349542
0.53667885 0.136512 0.0056297034
0.53670502 0.13737363 0.0056244531
0.53752041 0.138019 0.0062274062
0.53754658 0.13887902 0.0062221652
0.53757268 0.13973905 0.0062169246
0.53759885 0.14059909 0.0062116836
0.53762501 0.14145912 0.0062064431
0.53765112 0.14231916 0.006201202
0.53688836 0.14340501 0.0055876994
0.53533673 0.14472145 0.0043658689
0.53299654 0.14627326 0.0025357548
0.53065658 0.14783463 0.00070554612
0.52752823 0.14963774 -0.0017330217
0.52785856 0.11597697 -0.0016015053
0.52788526 0.11685611 -0.0016068626
0.52791202 0.11773527 -0.00161222
0.52872819 0.118438 -0.0010083463
0.52875483 0.11931555 -0.0010136939
0.52878153 0.12019309 -0.0010190414
0.52959746 0.12088947 -0.00041516687
0.5296241 0.12176542 -0.00042050469
0.52965075 0.12264139 -0.00042584259
0.5304665 0.12333139 0.00017807225
0.53049302 0.12420575 0.0001727441
0.53130865 0.12489098 0.00077668653
0.53133518 0.12576376 0.00077136816
0.53215063 0.12644421 0.0013753397
0.53217709 0.12731537 0.001370031
0.53299248 0.12799104 0.0019740695
0.53301889 0.12886062 0.0019687705
0.5338341 0.12953152 0.0025728003
0.53386045 0.13039953 0.0025675111
0.53467548 0.13106562 0.0031715715
0.53470182 0.13193204 0.0031662919
0.53551668 0.13259336 0.0037703798
0.53554296 0.13345817 0.0037651099
0.53556925 0.13432297 0.00375984
0.53638393 0.13497794 0.0043639671
0.53641021 0.13584118 0.0043587065
0.53643644 0.13670439 0.0043534464
0.537251 0.13735296 0.0049576499
0.53727716 0.13821459 0.0049523995
0.53730333 0.13907622 0.0049471492
0.53811765 0.13971843 0.0055513536
0.53814381 0.14057848 0.005546113
0.53816992 0.1414385 0.005540872
0.53740811 0.14252272 0.0049261469
0.53664631 0.14361013 0.0043113646
0.53430897 0.14515544 0.0024775923
0.53275967 0.14648138 0.0012532386
0.53042287 0.14804421 -0.00058064051
0.52931088 0.11929451 -0.0016928227
0.52933758 0.12017205 -0.0016981702
0.52936423 0.12104961 -0.0017035179
0.53017914 0.12174442 -0.0010984002
0.53020573 0.12262039 -0.0011037381
0.53023237 0.12349635 -0.001109076
0.53104705 0.12418479 -0.00050391955
0.53107363 0.12505917 -0.00050924771
0.53188819 0.12574282 9.5937838e-05
0.53191471 0.12661561 9.0619353e-05
0.53272909 0.1272945 0.00069583405
0.53275561 0.12816568 0.00069052528
0.53356987 0.12883978 0.0012958054
0.53359634 0.12970936 0.0012905063
0.53441042 0.13037871 0.0018957778
0.53443682 0.13124669 0.0018904886
0.53525078 0.13191126 0.0024957904
0.53527713 0.13277766 0.0024905109
0.53530347 0.13364406 0.0024852313
0.53611726 0.13430224 0.0030905721
0.53614354 0.13516706 0.0030853022
0.53616983 0.13603188 0.0030800321
0.53698337 0.13668369 0.0036854118
0.5370096 0.13754691 0.0036801517
0.53703588 0.13841012 0.0036748913
0.53784931 0.13905556 0.004280346
0.53787547 0.13991718 0.0042750956
0.5379017 0.14077881 0.0042698453
0.53792787 0.14164042 0.0042645945
0.53716707 0.14272623 0.0036485903
0.5364064 0.14381517 0.0030326028
0.5340721 0.14536197 0.0011951237
0.53173804 0.14691834 -0.00064245152
0.53162766 0.12503821 -0.0011859114
0.53165424 0.12591256 -0.0011912395
0.53168082 0.12678693 -0.0011965677
0.53249425 0.12746745 -0.0005901308
0.53330761 0.12814479 1.6326841e-05
0.53333408 0.12901597 1.1018108e-05
0.53414732 0.12968852 0.0006175398
0.53417379 0.13055812 0.00061224075
0.53420019 0.13142769 0.00060694176
0.5350132 0.13209388 0.0012134659
0.5350396 0.13296187 0.0012081766
0.53585243 0.13362329 0.0018147313
0.53587878 0.13448969 0.0018094516
0.53669149 0.13514633 0.002416034
0.53671777 0.13601114 0.0024107641
0.53674406 0.13687594 0.0024054942
0.53677034 0.13774076 0.0024002243
0.53758281 0.13838942 0.0030068553
0.53760904 0.13925265 0.0030015949
0.53763527 0.14011586 0.0029963348
0.53766155 0.14097908 0.0029910745
0.53768778 0.14184231 0.0029858144
0.53692806 0.14292963 0.0023686048
0.53616846 0.14402014 0.0017513757
0.5338372 0.14556843 -8.9848058e-05
0.53229207 0.14689738 -0.0013191152
0.53307378 0.12831931 -0.0012708803
0.53310031 0.12919207 -0.0012761988
0.53391254 0.12986626 -0.00066848978
0.53393906 0.13073745 -0.00067379855
0.53475118 0.13140684 -6.6024782e-05
0.53477764 0.13227643 -7.1323855e-05
0.53558958 0.13294107 0.00053644337
0.53561592 0.13380906 0.00053115399
0.53642774 0.13446891 0.0011389495
0.53645408 0.13533533 0.00113367
0.53648043 0.13620174 0.0011283903
0.537292 0.13685521 0.0017362254
0.53731829 0.13772003 0.0017309554
0.53734457 0.13858484 0.0017256855
0.53737086 0.13944966 0.0017204157
0.53818226 0.14009516 0.0023282985
0.53820848 0.14095838 0.0023230384
0.53744972 0.14204408 0.0017046059
0.53669107 0.14313297 0.0010861532
0.53593254 0.14422503 0.00046768194
0.5343892 0.14554754 -0.0007640472
0.53449106 0.13071656 -0.001347997
0.53451753 0.13158774 -0.0013533058
0.53532863 0.13225558 -0.00074428896
0.53535503 0.13312517 -0.00074958801
0.5353815 0.13399477 -0.00075488706
0.5361923 0.13465625 -0.00014586856
0.5362187 0.13552424 -0.00015115792
0.53702939 0.13618097 0.00045789036
0.53705573 0.13704737 0.00045261075
0.53708208 0.13791376 0.00044733111
0.53789258 0.13856409 0.0010564176
0.53791887 0.13942891 0.0010511476
0.53794515 0.14029372 0.0010458777
0.53797144 0.14115854 0.0010406077
0.53799772 0.14202334 0.0010353378
0.53724009 0.1431122 0.00041565334
0.53569865 0.14442983 -0.0008184755
0.53593248 0.13397393 -0.0014278529
0.53595889 0.13484351 -0.0014331519
0.53676867 0.13550344 -0.00082289113
0.53679508 0.13637143 -0.00082818052
0.53682142 0.13723943 -0.00083346985
0.53763103 0.13789299 -0.00022317027
0.53765738 0.13875939 -0.00022844986
0.53768373 0.1396258 -0.0002337295
0.53771007 0.1404922 -0.00023900911
0.53773636 0.14135861 -0.00024428876
0.5377627 0.14222501 -0.00024956834
0.53700614 0.1433154 -0.00087049516
0.53737146 0.13721862 -0.0015052024
0.5373978 0.13808662 -0.0015104917
0.53742421 0.13895461 -0.001515781
0.53823268 0.13960503 -0.00090422941
0.53825903 0.14047143 -0.00090950902
0.53828537 0.14133784 -0.00091478869
0.53752971 0.1424266 -0.0015369384
0.55062747 0.11615105 -0.021489007
0.55065393 0.11702223 -0.021494316
0.55068046 0.11789342 -0.021499624
0.55070692 0.11876459 -0.021504933
0.55073339 0.11963578 -0.021510242
0.55075985 0.12050696 -0.02151555
0.55078638 0.12137814 -0.02152086
0.55081284 0.12224932 -0.021526169
0.5508393 0.12312051 -0.021531478
0.55117947 0.11613017 -0.022163205
0.55120593 0.11700134 -0.022168515
0.5504784 0.11804919 -0.022826165
0.55125892 0.1187437 -0.022179132
0.55128539 0.11961489 -0.022184441
0.55131185 0.12048607 -0.022189749
0.55133837 0.12135725 -0.022195058
0.55136484 0.12222843 -0.022200366
0.55214512 0.12291339 -0.021553237
0.55217153 0.12378298 -0.021558536
0.55321139 0.1148944 -0.021524966
0.55173147 0.11610927 -0.022837404
0.55175793 0.11698046 -0.022842713
0.55103141 0.11802827 -0.023501595
0.55181092 0.11872282 -0.02285333
