# .PCD v0.7 - Point Cloud Data file format
VERSION 0.7
FIELDS x y z
SIZE 4 4 4
TYPE F F F
COUNT 1 1 1
WIDTH 1394
HEIGHT 1
VIEWPOINT 0 0 0 1 0 0 0
POINTS 1394
DATA ascii
0.48762637 0.084850729 0.048102804
0.48765305 0.085728288 0.048097458
0.48767972 0.086605839 0.048092108
0.48857024 0.087363169 0.048606854
0.48859689 0.088239126 0.048601516
0.4886235 0.089115083 0.048596177
0.48865011 0.089991048 0.048590839
0.48867676 0.090867005 0.048585501
0.48870337 0.091742963 0.048580166
0.48873001 0.092618927 0.048574828
0.48875663 0.093494885 0.048569489
0.48964673 0.094237879 0.049084321
0.48967332 0.095112242 0.049078993
0.48969987 0.095986612 0.049073663
0.4905898 0.096723236 0.049588535
0.47776425 0.055666775 0.041874774
0.47779146 0.056561846 0.04186932
0.4786832 0.057392471 0.042384852
0.47871035 0.058285948 0.042379405
0.47873753 0.059179429 0.042373963
0.47962913 0.060003683 0.042889562
0.47965625 0.06089557 0.042884126
0.47968334 0.061787453 0.042878691
0.48057473 0.062605344 0.043394301
0.48060179 0.063495636 0.043388877
0.48062885 0.064385928 0.043383449
0.48152003 0.065197445 0.043899097
0.48154703 0.066086143 0.043893684
0.48243806 0.066892885 0.044409357
0.48246503 0.067779988 0.044403952
0.48249197 0.068667099 0.044398546
0.48338282 0.069467463 0.044914261
0.48427361 0.070264645 0.045430027
0.48430046 0.071148567 0.045424644
0.48519108 0.071940966 0.045940407
0.4852179 0.072823301 0.045935031
0.48610833 0.073610924 0.046450827
0.4861351 0.074491665 0.046445459
0.48702541 0.075274512 0.046961281
0.48705214 0.076153658 0.046955924
0.48707885 0.077032804 0.046950568
0.48710558 0.077911943 0.046945211
0.48799568 0.078686826 0.047461115
0.48802236 0.079564378 0.047455765
0.48804903 0.080441929 0.04745042
0.4880757 0.081319489 0.04744507
0.48896551 0.082086407 0.047960989
0.48899215 0.082962364 0.047955651
0.48901877 0.083838329 0.047950312
0.48904541 0.084714286 0.047944978
0.48907202 0.085590243 0.04793964
0.48909864 0.086466201 0.047934301
0.48912528 0.087342165 0.047928963
0.4900147 0.088096343 0.04844496
0.49004129 0.088970713 0.048439629
0.49006787 0.089845084 0.048434302
0.49009442 0.090719447 0.048428975
0.49012101 0.091593809 0.048423648
0.49014759 0.09246818 0.048418317
0.49017417 0.09334255 0.04841299
0.49020076 0.09421692 0.048407663
0.49108973 0.094956763 0.048923746
0.49197865 0.095693424 0.049439847
0.49200511 0.096564606 0.049434539
0.4920316 0.097435787 0.04942923
0.49205807 0.098306969 0.049423922
0.49208456 0.09917815 0.049418613
0.47833139 0.055645313 0.041182082
0.4783586 0.056540385 0.041176628
0.47838581 0.057435457 0.041171174
0.47927651 0.058264527 0.041687947
0.47930366 0.059158009 0.041682504
0.47933081 0.06005149 0.041677058
0.47935796 0.060944967 0.041671615
0.48024848 0.061766069 0.042188469
0.48027557 0.06265796 0.042183034
0.48030269 0.063549846 0.042177599
0.48119295 0.064364582 0.042694461
0.48122001 0.065254875 0.042689033
0.48124707 0.066145174 0.042683609
0.48213714 0.06695354 0.043200508
0.48216414 0.067842245 0.043195095
0.48305407 0.068645827 0.043712024
0.48308104 0.069532938 0.043706618
0.48397082 0.070331752 0.044223577
0.48486054 0.07112737 0.044740584
0.48488742 0.072011299 0.044735197
0.48577696 0.072802149 0.045252204
0.48580378 0.073684476 0.045246828
0.48669317 0.07447055 0.045763865
0.48671994 0.07535129 0.045758497
0.48760918 0.076132581 0.046275564
0.48763591 0.077011727 0.046270203
0.48766261 0.077890866 0.046264846
0.48768935 0.078770012 0.046259489
0.48857841 0.079543337 0.04677663
0.48860508 0.080420889 0.04677128
0.48863176 0.081298448 0.046765935
0.48865843 0.082176 0.046760589
0.48954719 0.082941361 0.047277749
0.48957381 0.083817326 0.04727241
0.48960045 0.084693283 0.047267072
0.48962706 0.08556924 0.047261737
0.49051559 0.086326644 0.047778945
0.49054214 0.087201014 0.047773618
0.49056873 0.088075384 0.047768291
0.49059531 0.088949747 0.04776296
0.4914836 0.089699186 0.04828022
0.49064845 0.090698481 0.047752306
0.49067503 0.091572851 0.047746979
0.49156317 0.092317514 0.048264265
0.4915897 0.093190283 0.048258945
0.49161622 0.094063066 0.048253629
0.49164274 0.094935842 0.04824831
0.49253064 0.09567254 0.048765648
0.49255714 0.096543722 0.04876034
0.4925836 0.097414896 0.048755027
0.49347135 0.098145217 0.049272437
0.49349779 0.099014804 0.049267139
0.49352422 0.099884398 0.049261838
0.49355066 0.10075399 0.049256541
0.49443811 0.10147636 0.049773965
0.49446449 0.10234435 0.049768675
0.49449086 0.10321235 0.049763385
0.47892573 0.056518927 0.040483937
0.47895294 0.057413995 0.040478483
0.47898015 0.058309067 0.040473029
0.47986978 0.059136588 0.040991046
0.47989693 0.060030065 0.040985599
0.47992411 0.060923547 0.040980157
0.47995126 0.061817024 0.04097471
0.48084071 0.062636577 0.041492809
0.48086783 0.063528463 0.041487373
0.48089492 0.06442035 0.041481938
0.48178414 0.065233529 0.042000044
0.4818112 0.066123828 0.041994616
0.48183826 0.067014121 0.041989192
0.48272726 0.067820936 0.042507336
0.48275426 0.068709634 0.042501919
0.48364314 0.069511674 0.043020088
0.48367012 0.070398778 0.043014679
0.48455882 0.071196035 0.043532882
0.4854475 0.071990103 0.044051133
0.48547438 0.072874025 0.04404575
0.48636284 0.073663324 0.044563998
0.48638967 0.074545659 0.044558622
0.48727798 0.075330175 0.045076899
0.48730478 0.076210909 0.045071535
0.48819295 0.076990649 0.045589842
0.48821968 0.077869788 0.045584485
0.48824641 0.078748934 0.045579128
0.48827311 0.07962808 0.045573771
0.48916113 0.080399856 0.046092153
0.48918781 0.081277408 0.046086803
0.49007559 0.082044408 0.046605188
0.49010223 0.082920365 0.046599854
0.49012884 0.083796322 0.046594515
0.49015546 0.08467228 0.046589177
0.49104303 0.085431315 0.047107611
0.49106961 0.086305678 0.047102284
0.49109617 0.087180048 0.047096953
0.49198353 0.087932713 0.047615428
0.49201006 0.088805489 0.047610108
0.49203661 0.089678265 0.047604792
0.49206313 0.090551041 0.047599472
0.49208966 0.09142381 0.047594152
0.49297673 0.092166923 0.048112683
0.49214271 0.093169361 0.047583517
0.49302968 0.093909286 0.048102066
0.49305618 0.094780475 0.048096757
0.49308264 0.095651649 0.048091449
0.4939695 0.096385188 0.048610065
0.4939959 0.097254783 0.048604768
0.49402234 0.09812437 0.048599467
0.49404877 0.098993957 0.048594169
0.49493533 0.099719547 0.049112804
0.49496171 0.10058755 0.049107518
0.49584809 0.10130836 0.049626183
0.49587443 0.10217476 0.049620904
0.49590078 0.10304116 0.049615625
0.4959271 0.10390757 0.049610347
0.49595344 0.10477398 0.049605064
0.49597979 0.10564038 0.049599785
0.4960061 0.10650678 0.049594507
0.49603245 0.10737319 0.049589228
0.47863132 0.056560203 0.039266583
0.47952008 0.057392538 0.039785802
0.47954729 0.058287609 0.039780349
0.4795745 0.059182681 0.039774895
0.47960171 0.060077753 0.039769441
0.47962889 0.060972825 0.039763987
0.48051739 0.061795603 0.040283266
0.48054454 0.062689081 0.04027782
0.48057169 0.063582562 0.040272377
0.48146003 0.064398967 0.04079172
0.48148715 0.065290846 0.040786285
0.48151428 0.06618274 0.04078085
0.48240235 0.066992775 0.041300207
0.48242941 0.067883067 0.041294783
0.48331738 0.068688326 0.041814167
0.48334438 0.069577031 0.041808754
0.48423219 0.070377506 0.042328164
0.48425916 0.071264617 0.042322755
0.48514682 0.072060324 0.042842202
0.48603445 0.072852835 0.043361697
0.4860613 0.073736764 0.043356311
0.48694873 0.074524499 0.043875799
0.48783606 0.075309053 0.044395309
0.48786283 0.076189794 0.044389941
0.48788959 0.077070527 0.044384576
0.48877671 0.07784871 0.044904128
0.48880345 0.078727856 0.044898767
0.48883018 0.079607002 0.04489341
0.48885688 0.080486149 0.044888053
0.48974383 0.081256367 0.045407679
0.4897705 0.082133919 0.045402333
0.49065724 0.082899362 0.045921963
0.49068388 0.083775319 0.045916624
0.49157047 0.084535986 0.04643628
0.49159706 0.085410357 0.046430953
0.49162361 0.086284719 0.046425626
0.49251002 0.087039016 0.046945315
0.49253654 0.087911792 0.046939995
0.49256307 0.088784568 0.046934679
0.4934493 0.089532487 0.047454413
0.49347576 0.090403669 0.047449104
0.49350226 0.09127485 0.047443796
0.49352872 0.092146032 0.047438487
0.49355522 0.093017213 0.047433179
0.49358168 0.093888402 0.04742787
0.49446762 0.094625168 0.047947705
0.49363464 0.095630765 0.047417253
0.49452049 0.096364342 0.047937106
0.49454692 0.097233936 0.047931809
0.49457332 0.098103523 0.047926508
0.49459976 0.09897311 0.047921211
0.49548531 0.099698737 0.048441075
0.49551168 0.10056674 0.048435785
0.49639708 0.10128759 0.048955686
0.49642339 0.10215399 0.048950408
0.49644974 0.10302039 0.048945129
0.49733493 0.10373488 0.049465068
0.4965024 0.1047532 0.048934568
0.4973875 0.1054645 0.049454525
0.49741378 0.10632931 0.049449258
0.49744007 0.10719413 0.049443986
0.49746636 0.10805893 0.049438719
0.49749264 0.10892374 0.049433447
0.47922671 0.057435367 0.0385672
0.47925395 0.058332033 0.038561735
0.48014164 0.059161223 0.039082203
0.48016885 0.060056292 0.039076749
0.48019606 0.060951367 0.039071295
0.48022324 0.061846435 0.039065842
0.48025045 0.062741511 0.039060388
0.48113784 0.063561141 0.039580919
0.48116499 0.064454615 0.039575472
0.4820523 0.065269463 0.040096063
0.48207939 0.066161357 0.040090628
0.48210651 0.067053236 0.040085193
0.48299354 0.067861721 0.040605791
0.4830206 0.068752013 0.040600367
0.48390749 0.069555722 0.041120991
0.48393452 0.07044442 0.041115575
0.48482126 0.071243353 0.041636232
0.48484823 0.072130457 0.041630827
0.48573482 0.072924607 0.042151507
0.48662138 0.073715568 0.042672247
0.48664826 0.07459949 0.04266686
0.48753461 0.075385675 0.043187588
0.48756143 0.076268002 0.043182213
0.48844767 0.077049412 0.043702979
0.48847443 0.077930152 0.04369761
0.48850119 0.078810886 0.043692246
0.48938721 0.079585925 0.044213049
0.48941395 0.080465071 0.044207692
0.48944065 0.081344217 0.044202335
0.49032655 0.082112879 0.044723202
0.49121228 0.082878359 0.045244064
0.49123889 0.083754323 0.045238726
0.4921245 0.08451502 0.045759611
0.49215108 0.085389391 0.045754284
0.49217764 0.086263753 0.045748957
0.49306303 0.087018095 0.046269886
0.49308956 0.087890871 0.046264566
0.4939748 0.088640422 0.046785519
0.4940013 0.089511603 0.04678021
0.49402776 0.090382785 0.046774901
0.49405426 0.091253966 0.046769593
0.49408075 0.092125148 0.046764284
0.49496573 0.092865139 0.047285333
0.49499217 0.093734734 0.047280036
0.4950186 0.094604321 0.047274735
0.49504504 0.095473908 0.047269437
0.49507147 0.096343495 0.047264136
0.49595615 0.097073942 0.047785208
0.49598253 0.097941943 0.047779918
0.4960089 0.098809935 0.047774628
0.49603528 0.099677928 0.047769338
0.49691972 0.10040041 0.048290465
0.49694604 0.10126682 0.048285183
0.49697238 0.10213321 0.048279904
0.49785662 0.10284933 0.048801068
0.4978829 0.10371415 0.048795797
0.49790919 0.10457895 0.048790526
0.49793547 0.10544377 0.048785258
0.49796176 0.10630857 0.048779987
0.4988457 0.10701513 0.049301203
0.49887195 0.10787834 0.049295943
0.49889818 0.10874157 0.049290683
0.49978197 0.10944173 0.049811974
0.49980816 0.11030337 0.049806725
0.50069177 0.11099878 0.050328005
0.50157529 0.11169099 0.050849315
0.50248474 0.11323687 0.051365416
0.50339407 0.11477637 0.051881593
0.50342005 0.11563163 0.051876381
0.5043031 0.11630952 0.052397773
0.50432909 0.11716318 0.052392568
0.50435501 0.11801685 0.052387368
0.50438094 0.1188705 0.052382164
0.50526381 0.11954044 0.052903607
0.50528967 0.1203925 0.052898418
0.47893536 0.057478126 0.037346136
0.4798221 0.058310535 0.037867818
0.47984937 0.059207201 0.037862353
0.47987661 0.060103867 0.037856888
0.47990388 0.06100053 0.037851427
0.48079038 0.061824977 0.038373161
0.48081759 0.062720053 0.038367707
0.4808448 0.063615121 0.038362253
0.48173112 0.064433195 0.038884021
0.48175827 0.065326676 0.038878579
0.4826445 0.066139974 0.039400406
0.48267162 0.067031853 0.039394975
0.48269874 0.06792374 0.03938954
0.4835847 0.068730667 0.039911382
0.48361176 0.069620967 0.039905954
0.48449761 0.070423119 0.040427823
0.48452464 0.071311817 0.040422406
0.4854103 0.072109185 0.040944308
0.48543727 0.072996296 0.040938903
0.48632282 0.073788896 0.041460827
0.48720834 0.0745783 0.041982803
0.48723519 0.075462222 0.041977417
0.4881205 0.07624685 0.042499393
0.48814732 0.077129185 0.042494018
0.48903248 0.077909037 0.04301602
0.48905924 0.078789771 0.043010652
0.48908603 0.079670511 0.043005288
0.48997098 0.080443993 0.043527331
0.48999771 0.081323139 0.043521974
0.49088258 0.082091838 0.044044077
0.49176732 0.082857355 0.044566166
0.49179393 0.08373332 0.044560831
0.49182054 0.084609278 0.044555493
0.49270508 0.085368425 0.045077626
0.49273166 0.086242795 0.045072298
0.49361604 0.086997166 0.045594454
0.49450034 0.087748356 0.046116639
0.4945268 0.088619538 0.046111327
0.4945533 0.089490712 0.046106018
0.49543744 0.090235524 0.046628267
0.49546388 0.091105111 0.046622969
0.49549031 0.091974705 0.046617668
0.49551675 0.092844293 0.046612371
0.49554318 0.09371388 0.04660707
0.49642697 0.09444914 0.047129344
0.49645334 0.09531714 0.047124054
0.49647975 0.096185133 0.047118768
0.49650612 0.097053126 0.047113478
0.49738967 0.097780429 0.047635805
0.49741602 0.098646834 0.047630526
0.49744236 0.099513233 0.047625247
0.49746868 0.10037964 0.047619965
0.49835202 0.10109897 0.048142336
0.49837831 0.10196378 0.048137069
0.49840459 0.1028286 0.048131797
0.49843088 0.10369341 0.048126526
0.49931395 0.10440478 0.048648953
0.49848345 0.10542303 0.048115987
0.49936643 0.10613121 0.048638433
0.49939266 0.10699444 0.048633173
0.49941888 0.10785765 0.048627913
0.50030172 0.10855946 0.049150422
0.5011844 0.10925808 0.049672924
0.50121057 0.11011811 0.049667682
0.50209314 0.11081198 0.05019021
0.50211918 0.1116704 0.05018498
0.50300163 0.11235949 0.050707534
0.50388396 0.11304536 0.051230147
0.50390995 0.11390062 0.051224936
0.50481808 0.11543539 0.051742338
0.50484401 0.11628906 0.051737133
0.50572598 0.11696379 0.052259784
0.50575185 0.11781587 0.052254591
0.50577778 0.11866793 0.052249398
0.5058037 0.11952001 0.052244205
0.50668538 0.12018678 0.052766897
0.50671124 0.12103726 0.052761715
0.50673711 0.12188773 0.052756533
0.50676292 0.12273821 0.052751351
0.50678879 0.12358869 0.052746166
0.47864601 0.057520807 0.036122598
0.47953182 0.058354847 0.036645506
0.47955912 0.059253104 0.036640029
0.47958642 0.060151361 0.036634557
0.47961372 0.061049618 0.036629084
0.48049927 0.061875697 0.037152044
0.48052654 0.062772363 0.037146579
0.48141193 0.063593663 0.037669562
0.48143914 0.064488731 0.037664108
0.48146635 0.065383799 0.037658654
0.48235157 0.066198736 0.038181674
0.48237872 0.06709221 0.038176231
0.48326385 0.067902356 0.038699314
0.48329097 0.068794243 0.038693879
0.48417589 0.069599621 0.039216965
0.48420295 0.070489913 0.039211541
0.48508772 0.071290515 0.03973465
0.48511475 0.072179213 0.039729234
0.48599938 0.072975032 0.040252373
0.48602635 0.073862143 0.040246967
0.48691082 0.074653178 0.04077014
0.48779526 0.075441025 0.041293357
0.48782215 0.076324947 0.041287974
0.48870638 0.077108026 0.041811187
0.4887332 0.077990361 0.041805811
0.48961732 0.078768656 0.042329058
0.48964408 0.079649396 0.04232369
0.49052805 0.080422916 0.04284697
0.49055475 0.081302062 0.042841613
0.49058148 0.082181208 0.042836256
0.4914653 0.082948349 0.0433596
0.49234897 0.083712317 0.043882933
0.49237558 0.084588274 0.043877594
0.4932591 0.085347466 0.044400956
0.49328569 0.086221829 0.044395629
0.49416906 0.086976245 0.044919025
0.49419558 0.087849021 0.044913705
0.49507883 0.088598646 0.045437127
0.4951053 0.089469828 0.045431819
0.49598843 0.090214677 0.045955297
0.49601486 0.091084264 0.045949999
0.4960413 0.091953851 0.045944698
0.49692419 0.092692338 0.046468195
0.49695057 0.093560338 0.046462905
0.49697697 0.094428331 0.046457615
0.49700335 0.095296331 0.046452325
0.497886 0.096026845 0.046975862
0.49791232 0.096893251 0.046970583
0.49793866 0.097759649 0.046965301
0.49796501 0.098626062 0.046960022
0.4988474 0.099348612 0.047483608
0.49887368 0.10021342 0.047478337
0.49889997 0.10107824 0.047473069
0.49892625 0.10194305 0.047467798
0.49980843 0.10265765 0.047991432
0.49983466 0.10352086 0.047986172
0.49986091 0.10438408 0.047980912
0.49988714 0.1052473 0.047975652
0.49991339 0.10611051 0.047970392
0.5007953 0.10681555 0.048494119
0.50082147 0.10767717 0.04848887
0.5017032 0.10837743 0.04901259
0.50172937 0.10923745 0.049007349
0.50261098 0.10993295 0.049531098
0.50263703 0.11079139 0.049525868
0.50351846 0.11148209 0.050049651
0.5043999 0.1121696 0.050573483
0.50442588 0.11302485 0.050568271
0.50530708 0.11370759 0.051092099
0.50533301 0.11456125 0.051086895
0.50621408 0.11523922 0.051610753
0.50623995 0.1160913 0.05160556
0.50626588 0.11694337 0.051600367
0.50629175 0.11779544 0.051595178
0.50631768 0.1186475 0.051589984
0.50719845 0.11931591 0.052113906
0.50722426 0.12016638 0.052108724
0.50725013 0.12101687 0.052103538
0.507276 0.12186734 0.052098356
0.50730181 0.12271782 0.052093174
0.50732768 0.1235683 0.052087992
0.50735354 0.12441877 0.052082811
0.50737941 0.12526925 0.052077625
0.50740522 0.12611972 0.052072443
0.50743109 0.12697022 0.052067261
0.50745696 0.12782069 0.052062079
0.50748277 0.12867115 0.052056897
0.47921619 0.05749923 0.035426218
0.47924355 0.058399081 0.035420734
0.47927088 0.059298933 0.035415255
0.48015559 0.060129825 0.03593941
0.48018289 0.061028082 0.035933938
0.48021019 0.061926339 0.035928462
0.48109469 0.062750861 0.036452662
0.48112193 0.063647531 0.036447197
0.48200628 0.064467274 0.036971424
0.48203349 0.065362342 0.03696597
0.4820607 0.066257417 0.036960512
0.48294485 0.06707079 0.03748478
0.48297203 0.067964271 0.037479334
0.48385608 0.06877286 0.038003661
0.4838832 0.069664747 0.037998226
0.48476705 0.070468567 0.038522553
0.48479411 0.07135886 0.038517129
0.48567784 0.072157905 0.039041482
0.48570484 0.073046602 0.039036065
0.48658842 0.073840871 0.039560448
0.48747191 0.074631952 0.040084846
0.48749882 0.075517468 0.040079452
0.48838222 0.076303758 0.040603913
0.48840907 0.077187687 0.040598527
0.48929226 0.077969201 0.041122988
0.48931909 0.078851536 0.041117609
0.49020213 0.079628281 0.041642103
0.49022889 0.080509022 0.041636735
0.49111181 0.081280984 0.042161252
0.49113852 0.08216013 0.042155895
0.49202132 0.082927316 0.042680476
0.492048 0.083804861 0.042675126
0.49293062 0.084567271 0.043199703
0.49295723 0.085443236 0.043194365
0.49383971 0.086200863 0.043718971
0.49386629 0.087075233 0.04371364
0.49474859 0.087828092 0.044238277
0.49563083 0.088577762 0.044762928
0.49565729 0.089448944 0.04475762
0.49653944 0.09019383 0.045282334
0.49656588 0.091063417 0.045277037
0.49659228 0.091933005 0.045271736
0.49747416 0.092671528 0.045796461
0.49750057 0.093539529 0.045791175
0.4983823 0.094273269 0.046315923
0.49840865 0.095139675 0.046310645
0.49843496 0.096006073 0.046305366
0.49846131 0.096872479 0.046300083
0.4993428 0.097598262 0.046824884
0.49936908 0.098463066 0.046819612
0.49939537 0.099327877 0.046814345
0.49942166 0.10019269 0.046809074
0.50030291 0.10091051 0.047333922
0.50032914 0.10177373 0.047328662
0.50035536 0.10263695 0.047323402
0.50038165 0.10350017 0.047318142
0.50126266 0.10421001 0.047843069
0.50128889 0.10507164 0.047837816
0.50131506 0.10593326 0.047832567
0.50219589 0.10663675 0.048357502
0.502222 0.10749678 0.04835226
0.50224817 0.10835681 0.048347019
0.50312877 0.10905392 0.048871998
0.50400931 0.10974785 0.049396992
0.50403535 0.1106047 0.049391773
0.50491577 0.11129384 0.049916826
0.50579607 0.1119798 0.050441865
0.505822 0.11283346 0.050436664
0.50670218 0.11351466 0.050961733
0.50672805 0.11436673 0.050956544
0.50760806 0.11504313 0.051481642
0.50763392 0.11589361 0.05147646
0.50765979 0.11674409 0.051471278
0.5076856 0.11759457 0.051466092
0.50771147 0.11844504 0.051460911
0.50859118 0.1191119 0.051986068
0.50861698 0.11996078 0.051980898
0.50864279 0.12080966 0.051975723
0.5086686 0.12165855 0.051970553
0.50869441 0.12250743 0.051965378
0.50786656 0.12354791 0.051429816
0.50874597 0.1242052 0.051955033
0.50877178 0.12505409 0.051949859
0.50879759 0.12590298 0.051944688
0.50882339 0.12675186 0.051939514
0.5088492 0.12760074 0.051934339
0.50887501 0.12844962 0.051929168
0.50890082 0.12929852 0.051923994
0.50892663 0.1301474 0.051918823
0.50895238 0.13099629 0.051913649
0.47981369 0.058377508 0.034724344
0.47984105 0.059277359 0.034718864
0.47986841 0.060177207 0.03471338
0.47989577 0.061077058 0.034707896
0.47992313 0.061976902 0.034702413
0.48080665 0.06280306 0.035227831
0.48083395 0.063701317 0.035222359
0.48171735 0.064522691 0.035747815
0.48174459 0.065419361 0.03574235
0.48262784 0.06623596 0.036267828
0.48265505 0.067131028 0.036262374
0.48353815 0.06794285 0.036787882
0.4835653 0.068836324 0.036782436
0.48444831 0.069643363 0.037308007
0.48447543 0.07053525 0.037302572
0.48535824 0.071337521 0.03782814
0.4853853 0.072227813 0.037822712
0.48626795 0.073025301 0.03834831
0.48629498 0.073914006 0.038342893
0.48717749 0.074706711 0.038868517
0.48805991 0.075496234 0.039394163
0.48808682 0.07638175 0.039388765
0.48896915 0.07716649 0.03991447
0.48899603 0.078050412 0.039909083
0.48987815 0.078830384 0.040434785
0.48990497 0.079712711 0.04042941
0.49078697 0.080487907 0.040955141
0.49081373 0.08136864 0.040949773
0.49169558 0.082139052 0.041475534
0.49172229 0.083018199 0.041470177
0.49260405 0.083783828 0.041995998
0.49263072 0.084661372 0.041990649
0.49351227 0.085422233 0.04251647
0.49353889 0.08629819 0.042511132
0.49442029 0.087054275 0.043036979
0.4953016 0.087807171 0.043562844
0.49532813 0.08867994 0.043557528
0.49620929 0.089428052 0.044083424
0.49623579 0.090299241 0.044078115
0.49711686 0.091042563 0.04460407
0.4971433 0.091912158 0.044598773
0.49802417 0.092650712 0.045124728
0.49805054 0.093518712 0.045119438
0.49893129 0.094252497 0.04564542
0.4989576 0.095118903 0.045640141
0.49898395 0.095985301 0.045634862
0.49986449 0.096712716 0.046160884
0.49989077 0.097577527 0.046155613
0.49991706 0.098442331 0.046150345
0.49994335 0.099307142 0.046145074
0.50082362 0.10002659 0.046671145
0.50084984 0.10088982 0.046665885
0.50173008 0.10160448 0.047192018
0.50175625 0.1024661 0.047186766
0.50178248 0.10332774 0.047181517
0.50266242 0.10403603 0.047707655
0.50268853 0.10489607 0.047702413
0.50271469 0.10575609 0.047697172
0.5027408 0.10661613 0.047691934
0.50362056 0.10731646 0.04821812
0.50364661 0.10817491 0.04821289
0.5045262 0.10887045 0.048739105
0.50455225 0.10972731 0.048733883
0.50543171 0.11041808 0.049260162
0.5054577 0.11127333 0.04925495
0.50633699 0.11195934 0.049781226
0.50636292 0.112813 0.049776021
0.50724208 0.11349423 0.050302327
0.50812107 0.11417226 0.050828651
0.50814694 0.11502274 0.050823465
0.50902581 0.11569601 0.051349819
0.50905162 0.11654489 0.051344644
0.50907743 0.11739378 0.051339474
0.50910324 0.11824266 0.051334299
0.50912905 0.11909154 0.051329128
0.50915486 0.11994043 0.051323954
0.50918067 0.12078931 0.051318783
0.50920647 0.12163819 0.051313609
0.50923228 0.12248708 0.051308434
0.50925803 0.12333597 0.051303264
0.50928384 0.12418485 0.051298089
0.50930965 0.12503374 0.051292919
0.50933546 0.12588263 0.051287744
0.50936127 0.1267315 0.05128257
0.50938708 0.12758039 0.051277399
0.50941288 0.12842928 0.051272225
0.50943869 0.12927817 0.051267054
0.5094645 0.13012704 0.05126188
0.50949025 0.13097593 0.051256709
0.50951606 0.13182481 0.051251534
0.50954187 0.1326737 0.05124636
0.51041979 0.13331191 0.05177296
0.4795284 0.05842163 0.03349584
0.47955582 0.059323072 0.033490345
0.4795832 0.060224514 0.033484854
0.47961062 0.061125956 0.033479359
0.48049328 0.061955329 0.034006026
0.48052064 0.062855184 0.034000542
0.48054799 0.063755028 0.033995058
0.48143041 0.064578041 0.034521732
0.48145771 0.065476291 0.03451626
0.48234001 0.066294521 0.03504296
0.48322219 0.06710957 0.035569683
0.4832494 0.068004645 0.035564229
0.48327661 0.068899713 0.035558775
0.48415861 0.069708392 0.036085535
0.48504055 0.070513867 0.036612347
0.48506767 0.071405753 0.036606912
0.48594943 0.072206467 0.037133716
0.48597649 0.07309676 0.037128292
0.48685807 0.073892698 0.03765513
0.4868851 0.074781395 0.037649713
0.48776656 0.07557255 0.038176581
0.48864791 0.076360524 0.038703468
0.48867485 0.07724604 0.038698073
0.4895561 0.078029223 0.03922502
0.48958299 0.078913145 0.039219633
0.49046406 0.079691559 0.039746579
0.49049085 0.080573894 0.039741203
0.49137181 0.081347525 0.040268175
0.49139857 0.082228258 0.040262811
0.49227935 0.082997121 0.040789813
0.49230608 0.083876267 0.040784456
0.49318677 0.084640339 0.041311514
0.49406731 0.08540123 0.041838564
0.49409392 0.086277187 0.041833229
0.49497434 0.087033309 0.04236031
0.4950009 0.087907679 0.042354982
0.49588117 0.088659018 0.042882092
0.49676132 0.089407168 0.043409221
0.49678779 0.09027835 0.043403912
0.49766785 0.091021717 0.043931101
0.49769428 0.091891311 0.043925803
0.49857414 0.092629902 0.044452991
0.49860054 0.093497902 0.044447701
0.49948025 0.094231725 0.044974919
0.49950659 0.09509813 0.044969637
0.49953291 0.095964529 0.044964358
0.50041246 0.096691981 0.04549161
0.50043875 0.097556792 0.045486338
0.50046504 0.098421596 0.045481071
0.50134438 0.099142678 0.046008363
0.50137061 0.10000589 0.046003103
0.50224984 0.10072219 0.046530459
0.502276 0.10158382 0.04652521
0.50315505 0.10229535 0.047052562
0.50318122 0.10315537 0.047047321
0.50320733 0.10401541 0.047042079
0.5040862 0.10472056 0.047569472
0.5041123 0.105579 0.047564238
0.50413835 0.10643744 0.047559008
0.50501704 0.10713622 0.048086438
0.50504309 0.10799307 0.048081219
0.50592166 0.10868707 0.048608709
0.50594765 0.10954232 0.048603497
0.50682598 0.11023155 0.049130987
0.50685197 0.11108521 0.049125783
0.50773019 0.11176966 0.049653295
0.50860828 0.11245091 0.050180834
0.50863415 0.1133014 0.050175652
0.50951213 0.11397788 0.050703216
0.50953794 0.11482676 0.050698046
0.50956374 0.11567566 0.050692871
0.51044154 0.11634576 0.051220506
0.51046729 0.11719305 0.051215343
0.51049304 0.11804033 0.051210184
0.51051879 0.11888763 0.05120502
0.51054454 0.11973492 0.051199857
0.51057035 0.12058222 0.051194694
0.5105961 0.1214295 0.051189531
0.51062185 0.1222768 0.051184367
0.51064759 0.1231241 0.051179204
0.51067334 0.12397138 0.051174041
0.51069909 0.12481868 0.051168878
0.51072484 0.12566596 0.051163714
0.51075059 0.12651326 0.051158551
0.51077634 0.12736055 0.051153388
0.51080209 0.12820785 0.051148225
0.51082784 0.12905514 0.051143061
0.51085359 0.12990242 0.051137898
0.51087934 0.13074972 0.051132735
0.51090515 0.13159701 0.051127572
0.5109309 0.13244431 0.051122408
0.51095665 0.1332916 0.051117245
0.51098239 0.13413888 0.051112082
0.51185906 0.13477238 0.051639911
0.51188475 0.13561808 0.051634755
0.47924519 0.058465671 0.032264911
0.47927263 0.059368707 0.032259408
0.47930008 0.060271744 0.032253906
0.48018178 0.061104346 0.032781746
0.48020917 0.062005784 0.032776255
0.48023659 0.062907234 0.03277076
0.48111814 0.063733459 0.033298679
0.4811455 0.064633302 0.033293195
0.48202688 0.065454759 0.033821113
0.48205417 0.066353016 0.033815641
0.4829354 0.067169689 0.034343585
0.48296267 0.068066351 0.03433812
0.48384374 0.068878256 0.034866091
0.48387095 0.069773324 0.034860637
0.48475188 0.070580445 0.035388637
0.48563278 0.07138437 0.035916694
0.4856599 0.072276257 0.035911258
0.48654059 0.073075414 0.036439307
0.48656765 0.073965713 0.036433879
0.48744819 0.074760087 0.036961962
0.48747522 0.075648792 0.036956545
0.48835561 0.07643839 0.037484657
0.48923591 0.077224806 0.038012788
0.48926282 0.078110322 0.03800739
0.49014306 0.078891948 0.038535576
0.49016991 0.07977587 0.03853019
0.49104995 0.080552734 0.039058376
0.49107674 0.081435069 0.039053001
0.49195662 0.082207143 0.039581217
0.49198338 0.083087884 0.039575852
0.49286312 0.083855189 0.040104099
0.49288985 0.084734328 0.040098742
0.49376947 0.08549685 0.040627044
0.49464896 0.086256191 0.041155338
0.49467558 0.087132156 0.04115
0.49555492 0.087886713 0.041678324
0.49558151 0.088761084 0.041672993
0.49646071 0.089510866 0.042201348
0.49733979 0.090257466 0.042729713
0.49736628 0.091128647 0.042724404
0.49824527 0.091870457 0.043252841
0.4982717 0.092740051 0.04324754
0.49915051 0.093477093 0.043775972
0.50002921 0.094210953 0.044304423
0.50005555 0.095077358 0.044299141
0.5000819 0.095943756 0.044293862
0.50096041 0.096671246 0.044822346
0.5009867 0.097536057 0.044817075
0.50186509 0.098258764 0.045345593
0.50189131 0.09912198 0.045340333
0.50276959 0.099839911 0.045868911
0.50279576 0.10070153 0.045863662
0.50367385 0.10141469 0.046392232
0.50370002 0.10227472 0.046386991
0.50457793 0.1029831 0.046915598
0.50460404 0.10384154 0.046910364
0.50463015 0.10469998 0.046905134
0.50550789 0.10540199 0.047433779
0.50553393 0.10625883 0.047428556
0.50555992 0.10711568 0.047423337
0.50643754 0.10781131 0.047952052
0.50646353 0.10866655 0.047946841
0.50734097 0.10935742 0.048475545
0.50821823 0.11004509 0.049004279
0.50824416 0.11089716 0.048999086
0.5091213 0.11158005 0.049527846
0.50914717 0.11243052 0.049522664
0.51002419 0.11310864 0.050051454
0.51005 0.11395752 0.05004628
0.5109269 0.11463086 0.050575126
0.51095265 0.11547815 0.050569963
0.5109784 0.11632544 0.050564799
0.51185507 0.11699241 0.051093657
0.51188082 0.11783811 0.051088504
0.5119065 0.11868381 0.051083349
0.51193219 0.1195295 0.051078197
0.51195794 0.12037521 0.051073045
0.51198363 0.1212209 0.051067889
0.51200932 0.12206661 0.051062737
0.51203501 0.12291231 0.051057585
0.51206076 0.123758 0.051052429
0.51208645 0.1246037 0.051047277
0.5112617 0.12564565 0.050508004
0.51213783 0.1262951 0.051036969
0.5113132 0.12734023 0.050497677
0.51133895 0.12818754 0.050492514
0.51221496 0.12883221 0.051021509
0.51139045 0.12988211 0.050482187
0.51141626 0.13072941 0.050477024
0.51144201 0.13157669 0.050471861
0.51146775 0.132424 0.050466698
0.51234347 0.13306069 0.050995741
0.51236922 0.13390639 0.050990589
0.51239491 0.13475209 0.050985433
0.51242059 0.1355978 0.050980281
0.51329613 0.13622655 0.051509373
0.51332176 0.13707064 0.051504228
0.51334745 0.13791476 0.051499084
0.47896397 0.05850964 0.031031502
0.47899145 0.059414268 0.031025991
0.47901896 0.060318898 0.031020477
0.4798997 0.061153129 0.031549551
0.47992715 0.062056161 0.031544048
0.4799546 0.062959202 0.031538546
0.48083517 0.063787058 0.032067649
0.48171568 0.064611733 0.032596812
0.48174301 0.065511584 0.032591328
0.48177037 0.066411436 0.032585844
0.48265064 0.067229733 0.033115007
0.48353082 0.068044856 0.033644196
0.48355806 0.068941519 0.033638734
0.48443809 0.069751866 0.034167949
0.4844653 0.070646934 0.034162495
0.48534518 0.071452506 0.034691736
0.48622501 0.072254874 0.035221037
0.48625213 0.07314676 0.035215601
0.48713177 0.073944367 0.035744891
0.48715883 0.07483466 0.035739463
0.4880383 0.075627483 0.036268789
0.48891771 0.076417126 0.036798131
0.48894468 0.077304229 0.036792725
0.48982391 0.078089088 0.037322093
0.48985085 0.078974605 0.037316699
0.49072999 0.07975468 0.037846133
0.49075687 0.08063861 0.037840746
0.49163583 0.08141391 0.03837017
0.49251467 0.082186028 0.038899623
0.49254146 0.083066769 0.038894255
0.49342018 0.083834112 0.039423734
0.49344689 0.08471325 0.039418377
0.49432552 0.08547581 0.039947912
0.49435219 0.086353362 0.039942563
0.49523062 0.087111153 0.040472101
0.49525723 0.08798711 0.040466763
0.49613553 0.088740118 0.040996324
0.49701372 0.089489937 0.041525912
0.49704024 0.090362713 0.041520592
0.49791828 0.091107756 0.042050209
0.49879628 0.09184961 0.042579871
0.49882272 0.092719197 0.04257457
0.49970052 0.093456283 0.043104235
0.49972689 0.094324283 0.043098945
0.50060457 0.095056586 0.043628633
0.50063086 0.095922984 0.043623354
0.50150836 0.096650511 0.044153076
0.50153464 0.097515322 0.044147804
0.50241202 0.098238066 0.044677556
0.50243825 0.09910129 0.044672295
0.50331557 0.09981925 0.045202103
0.50334173 0.10068087 0.045196854
0.50421882 0.10139406 0.045726664
0.50424492 0.10225411 0.045721423
0.50512189 0.10296252 0.046251256
0.50514793 0.10382096 0.046246026
0.50602472 0.1045246 0.046775892
0.50605077 0.10538144 0.04677067
0.50692749 0.10608029 0.0473006
0.50695348 0.10693555 0.047295388
0.50782996 0.10762963 0.047825307
0.50785589 0.10848328 0.047820106
0.50873226 0.10917259 0.048350062
0.50875813 0.11002466 0.048344869
0.50963438 0.11070918 0.048874848
0.51051044 0.11139052 0.049404852
0.51053625 0.11223941 0.049399678
0.51141226 0.11291596 0.049929742
0.51143801 0.11376325 0.049924579
0.51146376 0.11461055 0.049919415
0.51233953 0.11528073 0.050449483
0.51236522 0.11612643 0.050444331
0.51239097 0.11697213 0.050439175
0.5132665 0.11763595 0.050969288
0.51329219 0.11848006 0.050964143
0.51331782 0.11932416 0.050958999
0.51334351 0.12016828 0.050953854
0.51336914 0.12101238 0.050948713
0.51339483 0.12185648 0.050943568
0.51342046 0.12270059 0.050938424
0.51344609 0.12354469 0.050933279
0.51347178 0.12438881 0.050928134
0.51349741 0.12523291 0.050922994
0.51267374 0.12627482 0.050382487
0.51269943 0.12712052 0.050377335
0.51272511 0.12796623 0.05037218
0.5127508 0.12881193 0.050367028
0.51277655 0.12965763 0.050361875
0.51280224 0.13050333 0.05035672
0.51282793 0.13134903 0.050351568
0.51285362 0.13219473 0.050346412
0.51287937 0.13304041 0.05034126
0.51290506 0.13388611 0.050336108
0.51293075 0.13473183 0.050330952
0.51380533 0.13536219 0.050861269
0.51383096 0.1362063 0.050856125
0.51385665 0.13705041 0.05085098
0.51388228 0.13789453 0.050845835
0.51390797 0.13873862 0.050840691
0.47868475 0.058553532 0.029795641
0.47871232 0.05945975 0.029790118
0.47873986 0.060365971 0.029784596
0.47961965 0.061201833 0.030314887
0.47964713 0.06210646 0.030309374
0.48052678 0.06293755 0.030839698
0.48055422 0.063840583 0.030834196
0.48143372 0.06466689 0.031364545
0.48146114 0.065568335 0.03135905
0.48234054 0.066389859 0.031889465
0.4823679 0.06728971 0.031883981
0.4832471 0.068106458 0.032414388
0.48412621 0.068920024 0.032944821
0.48415348 0.069816694 0.032939356
0.48503244 0.070625477 0.033469811
0.48505965 0.071520552 0.033464357
0.48593846 0.072324559 0.033994839
0.48681724 0.073125377 0.034525383
0.48684436 0.074017264 0.034519948
0.48772293 0.074813314 0.035050478
0.48774999 0.075703613 0.035045054
0.48862842 0.07649488 0.035575621
0.48950675 0.077282958 0.036106203
0.48953372 0.078170069 0.036100797
0.49041191 0.07895337 0.036631413
0.49129006 0.079733491 0.037162073
0.49131694 0.080617413 0.037156686
0.4913438 0.081501335 0.037151299
0.49222171 0.082275093 0.037681974
0.49309951 0.083045654 0.038212664
0.49312627 0.083926395 0.038207296
0.49400395 0.084692173 0.03873802
0.49403065 0.085571319 0.038732663
0.49490824 0.086332321 0.039263438
0.49578565 0.08709015 0.03979421
0.49581227 0.087966107 0.039788872
0.49668956 0.088719159 0.040319666
0.49671611 0.089593522 0.040314339
0.49759325 0.090341792 0.040845167
0.49847028 0.091086872 0.041376013
0.49849677 0.091958053 0.041370705
0.4993737 0.092698351 0.041901607
0.49940014 0.093567945 0.04189631
0.50027686 0.094303474 0.042427216
0.50115353 0.095035814 0.042958137
0.50117987 0.095902212 0.042952858
0.50205636 0.096629776 0.043483812
0.50208265 0.097494587 0.043478541
0.50295901 0.098217376 0.044009522
0.50298524 0.099080592 0.044004261
0.50386149 0.09979859 0.044535305
0.50388765 0.10066022 0.044530056
0.50476372 0.10137345 0.045061093
0.50478989 0.10223348 0.045055851
0.50566578 0.10294194 0.045586925
0.50654161 0.1036472 0.04611801
0.50656766 0.10450405 0.046112787
0.50744337 0.10520453 0.046643943
0.50746936 0.10605979 0.046638731
0.50834489 0.1067555 0.047169875
0.50837088 0.10760916 0.047164671
0.50924623 0.10830009 0.047695849
0.50927216 0.10915216 0.04769066
0.51014739 0.10983831 0.04822186
0.51017326 0.1106888 0.048216678
0.51104832 0.11137017 0.048747916
0.51107413 0.11221906 0.048742741
0.51194912 0.11289565 0.049274035
0.51197487 0.11374293 0.049268872
0.51284969 0.11441476 0.049800161
0.51287538 0.11526046 0.049795005
0.51375008 0.1159275 0.050326332
0.51377571 0.11677161 0.050321188
0.5138014 0.11761571 0.050316043
0.51382703 0.11845983 0.050310899
0.51385266 0.11930393 0.050305758
0.51387835 0.12014804 0.050300613
0.51475269 0.12080392 0.050832
0.51477826 0.12164644 0.050826866
0.51480389 0.12248896 0.050821733
0.51482952 0.12333147 0.050816596
0.51400661 0.12436857 0.050274894
0.5140323 0.12521267 0.050269749
0.51405793 0.12605678 0.050264608
0.51408362 0.12690088 0.050259463
0.51410925 0.12774499 0.050254319
0.51413488 0.12858911 0.050249174
0.51416057 0.12943321 0.050244033
0.5141862 0.13027732 0.050238889
0.51421189 0.13112143 0.050233744
0.51338953 0.13217445 0.049691938
0.51341522 0.13302013 0.049686786
0.51428884 0.13365375 0.050218314
0.5134666 0.13471155 0.049676478
0.51434016 0.13534196 0.050208025
0.51436579 0.13618606 0.05020288
0.51439148 0.13703017 0.050197739
0.51441711 0.13787428 0.050192595
0.5144428 0.13871838 0.05018745
0.51531607 0.13933924 0.050719049
0.47752851 0.057753485 0.028025793
0.47755617 0.058662888 0.028020252
0.47843513 0.059505165 0.028551742
0.47931406 0.060344245 0.029083278
0.4793416 0.061250463 0.029077755
0.48022035 0.062084772 0.029609289
0.48024783 0.062989406 0.029603776
0.48112643 0.063818932 0.030135343
0.48115388 0.064721972 0.030129841
0.4820323 0.065546721 0.030661432
0.48205972 0.06644816 0.030655939
0.48293805 0.067268133 0.03118759
0.48296541 0.068167984 0.031182108
0.48384356 0.068983182 0.031713761
0.48472163 0.069795191 0.032245431
0.48559958 0.070604019 0.032777119
0.48562679 0.071499087 0.032771666
0.48650458 0.072303139 0.033303387
0.48653176 0.07319662 0.033297945
0.48740947 0.073995881 0.033829723
0.48743659 0.074887767 0.033824287
0.48831409 0.075682268 0.034356061
0.48834115 0.07657256 0.034350637
0.48921853 0.077362269 0.034882449
0.49009582 0.078148805 0.035414271
0.4901228 0.079035908 0.035408866
0.49099994 0.07981766 0.035940718
0.49187702 0.080596223 0.03647263
0.49190387 0.081480145 0.036467243
0.49278077 0.082253933 0.036999144
0.4928076 0.083136268 0.036993768
0.49368435 0.083905272 0.037525699
0.49371111 0.084786013 0.037520334
0.49458772 0.085550241 0.038052298
0.49461442 0.086429387 0.038046941
0.49549094 0.08718884 0.038578961
0.49636731 0.087945111 0.03911097
0.49639392 0.088821068 0.039105631
0.49727014 0.089572564 0.039637677
0.49729672 0.090446927 0.039632346
0.49817279 0.091193639 0.040164415
0.49904877 0.091937162 0.040696502
0.49992469 0.092677504 0.041228645
0.49995112 0.093547091 0.041223343
0.50082684 0.094282657 0.041755479
0.50085324 0.095150657 0.041750189
0.50172883 0.09588144 0.042282354
0.50175518 0.096747845 0.042277075
0.50263059 0.09747386 0.042809274
0.50265688 0.098338664 0.042804003
0.50353217 0.099059895 0.043336224
0.50440741 0.099777937 0.043868497
0.50443363 0.10063956 0.043863248
0.50530869 0.10135283 0.044395525
0.50618362 0.10206291 0.044927813
0.50620973 0.10292136 0.044922583
0.50708455 0.10362665 0.045454901
0.5071106 0.10448351 0.045449682
0.50798529 0.10518403 0.045982067
0.50801128 0.10603929 0.045976855
0.5088858 0.10673503 0.046509232
0.50976026 0.1074276 0.047041629
0.50978613 0.10827966 0.047036435
0.51066041 0.10896745 0.047568869
0.51068628 0.10981793 0.047563683
0.51071215 0.11066841 0.047558501
0.51158619 0.11134982 0.048090968
0.51246023 0.11202804 0.048623484
0.51248598 0.11287533 0.04861832
0.51335984 0.11354878 0.049150839
0.51338553 0.11439448 0.049145684
0.51425922 0.11506316 0.049678229
0.51428491 0.11590727 0.049673084
0.51431054 0.11675137 0.04966794
0.51518404 0.11741367 0.050200522
0.51520967 0.11825619 0.050195388
0.5152353 0.1190987 0.050190251
0.51526088 0.11994121 0.050185118
0.51528651 0.12078372 0.050179984
0.51531214 0.12162624 0.050174851
0.51533771 0.12246875 0.050169718
0.51536334 0.12331127 0.050164584
0.51538897 0.12415379 0.050159447
0.51541454 0.1249963 0.050154313
0.51544017 0.12583882 0.05014918
0.51546574 0.12668133 0.050144047
0.51549137 0.12752384 0.050138913
0.515517 0.12836637 0.05013378
0.51469541 0.12941296 0.049590785
0.5147211 0.13025708 0.04958564
0.51474673 0.13110118 0.049580496
0.51477242 0.1319453 0.049575351
0.51479805 0.1327894 0.04957021
0.51482368 0.13363351 0.049565066
0.51484936 0.13447762 0.049559921
0.51487499 0.13532172 0.049554776
0.51490068 0.13616583 0.049549632
0.51492631 0.13700993 0.049544491
0.51579869 0.13763401 0.050077304
0.51497763 0.13869815 0.049534202
0.51500332 0.13954225 0.049529057
0.47722661 0.056884594 0.026789326
0.47816002 0.059550494 0.02731093
0.47818765 0.060459897 0.027305389
0.47906554 0.061299022 0.027838131
0.47994336 0.062134959 0.028370921
0.4799709 0.06304118 0.028365398
0.48084852 0.063872337 0.028898183
0.48087603 0.064776964 0.028892672
0.4817535 0.065603353 0.029425487
0.48178095 0.066506386 0.029419983
0.4826583 0.067327999 0.029952828
0.48353559 0.068146408 0.030485729
0.48356292 0.069046259 0.030480245
0.48444003 0.0698599 0.031013137
0.48531702 0.070670359 0.031546049
0.48619393 0.071477629 0.032078981
0.48622113 0.072372705 0.032073528
0.48709789 0.073175199 0.032606486
0.48797458 0.073974505 0.033139504
0.4880017 0.074866384 0.033134069
0.48887822 0.075660922 0.033667076
0.48890528 0.076551214 0.033661652
0.48978165 0.077340968 0.034194689
0.48980865 0.078229666 0.034189276
0.4906849 0.079014644 0.034722343
0.49071184 0.079901747 0.034716938
0.49158794 0.08068195 0.03525003
0.49246395 0.081458956 0.035783187
0.49249083 0.082342878 0.0357778
0.49336666 0.083115108 0.036310945
0.4942424 0.083884157 0.036844108
0.49426916 0.084764898 0.03683874
0.49514475 0.085529163 0.037371933
0.49517149 0.08640831 0.037366576
0.49604699 0.087167799 0.037899833
0.49607366 0.088045351 0.037894484
0.49694896 0.088800065 0.03842774
0.49697557 0.089676023 0.038422402
0.49785075 0.090425961 0.038955685
0.4987258 0.09117271 0.039488982
0.49960077 0.091916278 0.040022302
0.49962726 0.092787459 0.040016994
0.50050211 0.093526244 0.040550373
0.50052857 0.094395839 0.040545076
0.50140321 0.095129848 0.041078459
0.50227779 0.095860668 0.041611858
0.50230414 0.096727073 0.041606575
0.5031786 0.097453125 0.042140003
0.50320488 0.098317929 0.042134732
0.50407916 0.099039197 0.04266819
0.50410539 0.099902421 0.04266293
0.50497955 0.1006189 0.043196443
0.50585359 0.10133221 0.043729953
0.50672758 0.10204233 0.044263478
0.50675368 0.10290077 0.044258248
0.50762749 0.10360611 0.044791799
0.50765347 0.10446297 0.044786576
0.50852722 0.10516352 0.04532019
0.50855321 0.10601877 0.045314979
0.50942671 0.10671456 0.045848589
0.50945264 0.10756823 0.045843389
0.51032603 0.10825923 0.046377033
0.51035196 0.1091113 0.04637184
0.51122516 0.10979754 0.04690551
0.51125103 0.11064801 0.046900328
0.51212406 0.11132947 0.047434025
0.51214987 0.11217835 0.047428854
0.51302284 0.11285502 0.04796261
0.51389569 0.1135285 0.048496358
0.51392138 0.11437421 0.048491202
0.51479411 0.11504292 0.049024984
0.51481974 0.11588702 0.049019843
0.51569229 0.11655097 0.049553648
0.51571792 0.11739347 0.04954851
0.51574349 0.11823599 0.049543377
0.51661593 0.11889353 0.050077252
0.5166415 0.11973446 0.05007213
0.51666701 0.12057538 0.050067004
0.51669258 0.12141631 0.050061882
0.51671815 0.12225723 0.050056756
0.51674372 0.12309814 0.050051633
0.51676929 0.12393907 0.050046507
0.51679486 0.12477999 0.050041385
0.51682037 0.12562092 0.050036259
0.51684594 0.12646183 0.050031133
0.51687151 0.12730275 0.050026011
0.51605082 0.12834616 0.049481768
0.51607645 0.12918867 0.049476635
0.51610202 0.13003118 0.049471501
0.51612765 0.1308737 0.049466368
0.51615328 0.13171622 0.049461234
0.51617885 0.13255873 0.049456101
0.51620448 0.13340124 0.049450964
0.51623005 0.13424376 0.04944583
0.51625568 0.13508627 0.049440697
0.51628131 0.13592879 0.049435563
0.51630688 0.13677129 0.04943043
0.51633251 0.13761382 0.049425296
0.51635814 0.13845633 0.049420159
0.51553816 0.13952202 0.048875816
0.47270703 0.057236429 0.0228475
0.47443384 0.058029242 0.023920836
0.47616053 0.058815677 0.024994245
0.47703761 0.059662804 0.025528166
0.47791463 0.060506746 0.026062107
0.47964075 0.061277255 0.027135586
0.48051757 0.062113233 0.027669609
0.4805451 0.063019454 0.027664086
0.48142171 0.063850649 0.028198104
0.48144922 0.064755276 0.028192593
0.4823257 0.065581702 0.028726639
0.48235315 0.066484742 0.028721137
0.48322946 0.067306384 0.029255215
0.48325688 0.068207823 0.029249722
0.48413309 0.069024682 0.02978386
0.48500919 0.069838367 0.030317985
0.48503649 0.070736624 0.030312512
0.48591241 0.071545526 0.030846667
0.48678827 0.072351247 0.03138084
0.48681548 0.073246315 0.031375386
0.48769116 0.074047253 0.031909589
0.48856682 0.074845001 0.032443844
0.48859394 0.075736888 0.032438409
0.48946938 0.076529868 0.03297266
0.48949644 0.07742016 0.032967236
0.49037176 0.078208357 0.033501517
0.49039876 0.079097062 0.0334961
0.49127394 0.079880476 0.034030411
0.49214903 0.080660716 0.034564741
0.49217594 0.081546232 0.034559347
0.4930509 0.082321689 0.035093736
0.49307775 0.083205611 0.035088349
0.49395254 0.083976284 0.035622742
0.49482721 0.084743783 0.03615715
0.494854 0.085624516 0.036151782
0.49572852 0.086387232 0.036686219
0.49575526 0.087266378 0.036680862
0.49662969 0.088024311 0.03721536
0.497504 0.088779069 0.037749846
0.49753061 0.089655027 0.037744507
0.49840477 0.090404995 0.038279019
0.49843135 0.091279365 0.038273692
0.49930534 0.092024565 0.038808234
0.50017923 0.092766576 0.039342798
0.50020576 0.093637757 0.03933749
0.50107956 0.094374985 0.039872114
0.50195318 0.095109038 0.040406723
0.50197959 0.095977031 0.040401433
0.5028531 0.096706301 0.040936075
0.50287944 0.097572707 0.040930793
0.50375283 0.098297194 0.041465465
0.50377911 0.099162005 0.041460194
0.50465232 0.099881724 0.041994892
0.50552553 0.10059825 0.042529643
0.50639856 0.10131159 0.043064378
0.50642473 0.10217163 0.043059137
0.50729758 0.10288019 0.043593906
0.50732368 0.10373864 0.043588672
0.50819641 0.10444243 0.044123475
0.50906914 0.10514301 0.044658322
0.50909513 0.10599827 0.04465311
0.50996763 0.10669409 0.045187954
0.50999355 0.10754776 0.04518275
0.51086593 0.1082388 0.045717623
0.51089185 0.10909087 0.045712434
0.51176405 0.10977715 0.046247333
0.51178992 0.11062762 0.046242151
0.51266193 0.11130912 0.046777084
0.51268774 0.112158 0.04677191
0.51355976 0.1128347 0.047306903
0.51358551 0.11368199 0.047301739
0.51445729 0.11435392 0.047836728
0.51532894 0.11502269 0.048371736
0.51535457 0.11586679 0.048366595
0.51622611 0.11653076 0.048901632
0.51625174 0.11737327 0.048896499
0.51712316 0.11803246 0.049431596
0.51714873 0.11887337 0.049426474
0.5171743 0.1197143 0.049421348
0.51719987 0.12055522 0.049416225
0.518071 0.12120645 0.049951341
0.51809651 0.12204579 0.049946226
0.51812202 0.12288511 0.049941111
0.51814753 0.12372445 0.049935997
0.51817304 0.12456377 0.049930882
0.51819855 0.12540309 0.049925767
0.51737881 0.12644167 0.049380355
0.51740432 0.12728259 0.049375229
0.51742989 0.12812352 0.049370106
0.51745546 0.12896444 0.04936498
0.51748103 0.12980536 0.049359854
0.51666147 0.13085349 0.048814353
0.5166871 0.13169602 0.048809219
0.51671273 0.13253853 0.048804086
0.5167383 0.13338105 0.048798952
0.51676393 0.13422357 0.048793815
0.5167895 0.13506608 0.048788682
0.51681513 0.13590859 0.048783548
0.51684076 0.1367511 0.048778415
0.51686633 0.13759361 0.048773281
0.51689196 0.13843612 0.048768148
0.51691759 0.13927864 0.048763011
0.46819952 0.057587814 0.018890848
0.47077304 0.058326419 0.020507332
0.47334629 0.059055466 0.022123873
0.47591919 0.059774969 0.023740442
0.47679535 0.060622126 0.024275629
0.47936773 0.061325695 0.025892295
0.48024356 0.062163305 0.026427502
0.4811193 0.062997729 0.026962766
0.48114684 0.063903943 0.026957246
0.4820224 0.064733587 0.027492506
0.48204991 0.065638222 0.027486995
0.48292533 0.06646309 0.028022286
0.48295277 0.067366123 0.028016783
0.48382804 0.068186209 0.028552102
0.48470327 0.069003105 0.029087475
0.48473063 0.069902956 0.029081991
0.48560566 0.070715085 0.02961736
0.48648056 0.071524024 0.030152747
0.48650783 0.072420694 0.030147284
0.48738262 0.073224857 0.030682702
0.48740983 0.074119925 0.030677246
0.48828447 0.074919313 0.031212693
0.48915905 0.075715512 0.031748191
0.48918617 0.076607391 0.031742755
0.49006057 0.077398814 0.032278251
0.49008763 0.078289106 0.032272827
0.49096188 0.079075754 0.032808349
