# .PCD v0.7 - Point Cloud Data file format
VERSION 0.7
FIELDS x y z
SIZE 4 4 4
TYPE F F F
COUNT 1 1 1
WIDTH 1353
HEIGHT 1
VIEWPOINT 0 0 0 1 0 0 0
POINTS 1353
DATA ascii
0.41095319 -0.0068939649 0.039406296
0.41098294 -0.005916073 0.039400339
0.41191277 -0.0048955525 0.039875265
0.41194245 -0.0039192503 0.039869316
0.41287217 -0.0029035076 0.040344268
0.41290179 -0.0019288029 0.04033833
0.41293141 -0.00095409818 0.040332392
0.41296104 2.0602831e-05 0.04032645
0.41299066 0.00099530758 0.040320512
0.41302031 0.0019700122 0.040314574
0.41215017 0.0029148271 0.039827671
0.41217986 0.0038911218 0.039821722
0.41220954 0.0048674201 0.039815772
0.41223919 0.0058437185 0.039809823
0.41226888 0.0068200151 0.039803874
0.41229856 0.0077963118 0.039797924
0.41232821 0.0087726079 0.039791975
0.41145849 0.0097301649 0.039304994
0.41148823 0.010708053 0.039299034
0.41151795 0.011685943 0.039293077
0.41154766 0.012663833 0.039287116
0.4115774 0.013641723 0.03928116
0.41160712 0.014619612 0.039275199
0.41163683 0.015597502 0.039269239
0.41166657 0.016575392 0.039263282
0.41169629 0.017553283 0.039257322
0.411726 0.01853117 0.039251365
0.41175574 0.01950906 0.039245404
0.41178545 0.020486951 0.039239444
0.41181517 0.021464841 0.039233487
0.41184491 0.02244273 0.039227527
0.41187462 0.023420621 0.03922157
0.41190434 0.024398509 0.039215609
0.41193408 0.0253764 0.039209649
0.41196379 0.026354289 0.039203692
0.4119935 0.027332179 0.039197732
0.41202325 0.028310068 0.039191775
0.41115451 0.029301068 0.038704593
0.41118428 0.030280551 0.038698625
0.41121405 0.031260032 0.038692657
0.41124383 0.032239515 0.038686685
0.4112736 0.033218998 0.038680717
0.41040513 0.034219556 0.038193446
0.41133314 0.035177961 0.038668782
0.41046476 0.036181703 0.038181491
0.40959653 0.037188631 0.037694208
0.40962642 0.038171299 0.037688218
0.40965629 0.039153967 0.037682232
0.4039273 -0.022143729 0.034883227
0.40485731 -0.021084946 0.035359148
0.40488735 -0.020095902 0.035353124
0.40491742 -0.019106865 0.035347097
0.40494749 -0.018117828 0.035341069
0.40497756 -0.017128788 0.035335042
0.4059073 -0.016079556 0.035811055
0.40593734 -0.015092114 0.035805039
0.40596735 -0.014104667 0.035799023
0.40689686 -0.013061813 0.03627504
0.4078263 -0.012022134 0.036751088
0.40785623 -0.011037875 0.03674509
0.40878549 -0.010002981 0.03722116
0.4097147 -0.0089712711 0.037697248
0.41064382 -0.0079427455 0.038173389
0.41067359 -0.0069632637 0.038167417
0.41160253 -0.0059395181 0.038643561
0.41253138 -0.0049189595 0.039119717
0.41256106 -0.0039426573 0.039113767
0.41259074 -0.0029663628 0.039107818
0.41262043 -0.0019900645 0.039101869
0.41265008 -0.0010137698 0.03909592
0.41267976 -3.7471367e-05 0.03908997
0.41270944 0.00093882327 0.039084021
0.41273913 0.0019151217 0.039078072
0.41276878 0.0028914202 0.039072122
0.41279846 0.0038677147 0.039066173
0.41192949 0.0048172683 0.038578011
0.41195923 0.0057951608 0.038572054
0.41198894 0.006773049 0.038566094
0.41201866 0.0077509372 0.038560133
0.4120484 0.0087288273 0.038554177
0.41207811 0.0097067198 0.038548216
0.41210783 0.010684608 0.038542259
0.41213757 0.011662498 0.038536299
0.41126904 0.012626385 0.038048044
0.41129881 0.013605868 0.038042076
0.41132858 0.014585349 0.038036108
0.41135836 0.015564831 0.038030136
0.41138813 0.016544314 0.038024168
0.4114179 0.017523797 0.038018201
0.41144767 0.018503278 0.038012233
0.41147745 0.019482762 0.038006265
0.41150722 0.020462243 0.038000293
0.41153699 0.021441726 0.037994325
0.41156676 0.022421207 0.037988357
0.41159654 0.02340069 0.037982389
0.41162628 0.024380174 0.037976421
0.41165605 0.025359655 0.03797045
0.41168582 0.026339138 0.037964482
0.4117156 0.027318619 0.037958514
0.41174537 0.028298102 0.037952546
0.41177514 0.029277584 0.037946578
0.41180491 0.030257067 0.037940606
0.41093731 0.031252809 0.037452132
0.41096714 0.032233883 0.037446152
0.41099694 0.033214957 0.037440177
0.41012958 0.034217067 0.036951695
0.41015944 0.035199735 0.036945704
0.41018933 0.036182404 0.036939718
0.40932214 0.037190884 0.036451198
0.40935206 0.038175143 0.0364452
0.40938199 0.039159402 0.036439203
0.40941191 0.040143665 0.036433205
0.40545392 -0.022097694 0.034599766
0.40548399 -0.021108657 0.034593739
0.40551403 -0.020119615 0.034587711
0.4055441 -0.019130578 0.034581684
0.40557417 -0.018141542 0.03457566
0.40560424 -0.017152501 0.034569632
0.406533 -0.01610323 0.035046879
0.40656301 -0.015115788 0.035040863
0.40659302 -0.014128341 0.035034843
0.40752155 -0.013085449 0.035512097
0.40844995 -0.012045732 0.03598937
0.40847987 -0.011061473 0.035983372
0.40940815 -0.010026541 0.036460683
0.41033632 -0.0089947926 0.036938004
0.41036615 -0.0080137206 0.036932025
0.41129422 -0.006986747 0.037409406
0.41222215 -0.0059629632 0.03788678
0.41225189 -0.004985075 0.037880819
0.4122816 -0.0040071825 0.037874859
0.41231132 -0.0030292943 0.037868902
0.41234106 -0.0020514023 0.037862942
0.41237077 -0.001073514 0.037856981
0.41240051 -9.5625706e-05 0.037851024
0.41243023 0.0008822626 0.037845064
0.41245994 0.0018601547 0.037839107
0.41248968 0.002838043 0.037833147
0.4125194 0.003815935 0.037827186
0.41254911 0.0047938232 0.03782123
0.41257885 0.0057717152 0.037815269
0.41260856 0.0067496039 0.037809312
0.41174081 0.0077054882 0.037319876
0.41177058 0.0086849704 0.037313908
0.41180035 0.0096644545 0.03730794
0.41183013 0.010643936 0.037301973
0.4118599 0.011623418 0.037296001
0.41188967 0.012602902 0.037290033
0.41191944 0.013582384 0.037284065
0.41194919 0.014561866 0.037278097
0.41108182 0.015532084 0.036788542
0.41111165 0.016513159 0.036782566
0.41114146 0.017494235 0.036776587
0.41117129 0.018475309 0.036770608
0.41120109 0.019456385 0.036764629
0.41123092 0.02043746 0.03675865
0.41126075 0.021418534 0.036752671
0.41129056 0.02239961 0.036746696
0.41132039 0.023380686 0.036740717
0.41135019 0.024361759 0.036734737
0.41138002 0.025342835 0.036728758
0.41140985 0.026323911 0.036722779
0.41143966 0.027304985 0.036716804
0.41146949 0.02828606 0.036710825
0.41149929 0.029267136 0.036704846
0.41152912 0.03024821 0.036698867
0.41066262 0.031245504 0.036209181
0.41069248 0.032228172 0.036203194
0.41072235 0.03321084 0.036197204
0.41075224 0.034193508 0.036191218
0.4107821 0.035176177 0.036185227
0.40991589 0.036183026 0.035695478
0.40994582 0.037167285 0.035689481
0.40997571 0.038151544 0.035683483
0.40910971 0.039164767 0.0351937
0.40913966 0.04015062 0.035187691
0.4060806 -0.022121407 0.033834368
0.40611064 -0.02113237 0.03382834
0.40614071 -0.020143326 0.033822313
0.40617079 -0.01915429 0.033816285
0.40620086 -0.018165253 0.033810258
0.4062309 -0.017176213 0.033804234
0.40715867 -0.016126905 0.034282707
0.40718868 -0.015139462 0.03427669
0.40721869 -0.014152016 0.034270674
0.4081462 -0.013109085 0.034749161
0.40907359 -0.01206933 0.035227671
0.40910351 -0.011085071 0.035221674
0.41003078 -0.0100501 0.035700209
0.41006064 -0.0090674348 0.035694223
0.41098776 -0.0080372421 0.036172785
0.41191486 -0.0070102303 0.036651395
0.41194463 -0.0060307481 0.036645427
0.4119744 -0.0050512664 0.036639459
0.41290122 -0.0040306277 0.037118081
0.41293094 -0.0030527394 0.037112124
0.41296068 -0.0020748475 0.037106164
0.41299039 -0.001096959 0.037100207
0.4130201 -0.00011907073 0.037094247
0.41304985 0.0008588176 0.037088286
0.41218281 0.0018051114 0.03659768
0.41221258 0.0027845935 0.036591709
0.41224235 0.0037640755 0.036585741
0.4122721 0.0047435574 0.036579773
0.41230187 0.005723041 0.036573805
0.41233164 0.0067025232 0.036567837
0.41236141 0.0076820049 0.036561865
0.41239119 0.0086614871 0.036555897
0.41152453 0.0096221119 0.036065176
0.41155437 0.010603186 0.036059197
0.41158417 0.011584261 0.036053218
0.411614 0.012565337 0.036047239
0.4116438 0.013546413 0.036041263
0.41167364 0.014527487 0.036035284
0.41080737 0.01549926 0.035544518
0.41083723 0.01648193 0.035538532
0.41086709 0.017464597 0.035532542
0.41089696 0.018447263 0.035526555
0.41092685 0.019429931 0.035520568
0.41095671 0.0204126 0.035514578
0.41098657 0.021395268 0.035508592
0.41101643 0.022377934 0.035502601
0.41104633 0.023360603 0.035496615
0.41107619 0.024343271 0.035490625
0.41110605 0.025325939 0.035484638
0.41113591 0.026308605 0.035478652
0.41116577 0.027291274 0.035472661
0.41119567 0.02827394 0.035466675
0.41122553 0.029256608 0.035460684
0.41125539 0.030239277 0.035454698
0.41128525 0.031221945 0.035448708
0.41041985 0.032222386 0.03495777
0.41044977 0.033206645 0.034951773
0.41047969 0.034190904 0.034945775
0.41050962 0.035175167 0.034939777
0.41053954 0.036159426 0.034933779
0.40967444 0.037169423 0.034442775
0.40970439 0.038155276 0.03443677
0.40973437 0.03914113 0.034430761
0.40976432 0.040126983 0.034424752
0.40889946 0.041144941 0.033933707
0.40578026 -0.023205612 0.032589342
0.40581036 -0.022214981 0.032583307
0.40584046 -0.021224352 0.032577269
0.40587059 -0.020233713 0.032571234
0.40679747 -0.019178003 0.033050876
0.40682754 -0.018188966 0.033044849
0.40685758 -0.017199926 0.033038821
0.40778434 -0.016150579 0.03351853
0.40781435 -0.015163137 0.033512514
0.40784436 -0.01417569 0.033506494
0.40877086 -0.013132721 0.033986215
0.40880081 -0.01214686 0.033980209
0.40972719 -0.011108669 0.03445996
0.41065344 -0.01007366 0.034939729
0.4106833 -0.0090909945 0.034933738
0.41160941 -0.0080607636 0.035413537
0.41163924 -0.0070796879 0.035407558
0.41256523 -0.0060542314 0.035887416
0.412595 -0.0050747492 0.035881449
0.41262478 -0.0040952638 0.035875481
0.41265455 -0.0031157818 0.035869513
0.41268432 -0.0021362999 0.035863545
0.41271409 -0.0011568178 0.035857573
0.41274387 -0.00017733578 0.035851605
0.41277364 0.00080214621 0.035845637
0.41280341 0.0017816281 0.035839669
0.41283318 0.0027611102 0.035833698
0.41196725 0.0037121407 0.035341796
0.41199708 0.0046932125 0.035335816
0.41202688 0.00567429 0.035329841
0.41205671 0.0066553657 0.035323862
0.41208655 0.0076364395 0.035317883
0.41122094 0.0085970247 0.034825955
0.4112508 0.0095796939 0.034819964
0.41128066 0.010562362 0.034813978
0.41131055 0.011545029 0.034807988
0.41134042 0.012527699 0.034802001
0.41137028 0.013510366 0.034796011
0.41140014 0.014493033 0.034790024
0.41143 0.015475701 0.034784038
0.41145989 0.01645837 0.034778047
0.41148975 0.017441038 0.034772061
0.41151962 0.018423703 0.034766071
0.41154948 0.019406373 0.034760084
0.41157937 0.020389039 0.034754097
0.41160923 0.021371707 0.034748107
0.41163909 0.022354376 0.034742121
0.41166896 0.023337044 0.03473613
0.41169882 0.02431971 0.034730144
0.41172871 0.025302378 0.034724154
0.41086403 0.026293226 0.034232043
0.41089395 0.027277485 0.034226045
0.41092387 0.028261745 0.034220047
0.41095376 0.029246006 0.034214046
0.41098368 0.030230267 0.034208048
0.4110136 0.031214528 0.03420205
0.41104352 0.032198787 0.034196053
0.41107345 0.033183049 0.034190055
0.41020921 0.03418823 0.033697855
0.41023916 0.035174083 0.033691846
0.41026914 0.036159933 0.033685841
0.41029909 0.037145786 0.033679832
0.40943509 0.038158931 0.033187583
0.4094651 0.039146375 0.033181567
0.40949512 0.040133823 0.033175547
0.40952513 0.041121267 0.03316953
0.40551198 -0.023300851 0.031335838
0.40643805 -0.022238731 0.031816673
0.40646815 -0.0212481 0.031810638
0.40649825 -0.020257464 0.031804603
0.40652838 -0.019266833 0.031798564
0.40745419 -0.018212678 0.032279443
0.40748426 -0.017223638 0.032273415
0.40841001 -0.016174253 0.032754365
0.40844002 -0.015186811 0.032748345
0.40847003 -0.014199364 0.032742329
0.40939552 -0.013156356 0.033223283
0.40942547 -0.012170496 0.033217277
0.41035083 -0.011132266 0.033698253
0.41038075 -0.010148006 0.033692256
0.41130593 -0.0091145542 0.034173269
0.4113358 -0.008131885 0.034167279
0.41226086 -0.0071032089 0.034648322
0.41229069 -0.0061221332 0.034642342
0.41232049 -0.0051410613 0.034636363
0.41235033 -0.0041599819 0.034630384
0.41238013 -0.0031789064 0.034624405
0.41240996 -0.0021978307 0.03461843
0.41243979 -0.0012167589 0.034612451
0.4124696 -0.00023568318 0.034606472
0.41249943 0.00074539246 0.034600493
0.41252923 0.0017264681 0.034594513
0.41255906 0.0027075438 0.034588538
0.41169423 0.0036601282 0.034095421
0.41172409 0.0046427939 0.034089435
0.41175398 0.005625465 0.034083445
0.41178384 0.0066081323 0.034077458
0.41181371 0.0075907982 0.034071468
0.41184357 0.008573465 0.034065481
0.41187343 0.0095561352 0.034059495
0.41190332 0.010538802 0.034053504
0.41193318 0.01152147 0.034047518
0.41196305 0.012504139 0.034041528
0.41199291 0.013486806 0.034035541
0.41112867 0.014458502 0.033542309
0.41115859 0.015442763 0.033536311
0.41118851 0.016427023 0.033530314
0.4112184 0.017411286 0.033524316
0.41124833 0.018395545 0.033518318
0.41127825 0.019379806 0.03351232
0.41130817 0.020364065 0.033506323
0.41133809 0.021348326 0.033500325
0.41136801 0.022332586 0.033494327
0.41139793 0.023316847 0.033488329
0.41142783 0.024301106 0.033482332
0.41145775 0.025285367 0.033476334
0.41148767 0.026269628 0.033470336
0.41151759 0.027253889 0.033464339
0.41154751 0.028238147 0.033458341
0.41157743 0.029222408 0.033452343
0.41160733 0.030206669 0.033446345
0.41074395 0.031207033 0.032952946
0.41077393 0.032192886 0.032946937
0.41080388 0.033178739 0.032940932
0.41083387 0.034164593 0.032934923
0.41086382 0.035150446 0.032928914
0.41000074 0.036160365 0.032435451
0.41092375 0.037122153 0.0329169
0.41006076 0.038135257 0.032423418
0.41009077 0.039122701 0.032417398
0.41012079 0.040110148 0.032411382
0.40925795 0.041129626 0.031917829
0.40521553 -0.024389986 0.030085908
0.40614069 -0.02332464 0.030567959
0.40617085 -0.022332417 0.030561913
0.406201 -0.021340193 0.030555867
0.40712595 -0.020281214 0.031037956
0.40805084 -0.019225426 0.031520065
0.40808088 -0.018236391 0.031514041
0.40811095 -0.017247351 0.031508014
0.40814102 -0.016258314 0.031501986
0.40906569 -0.015210485 0.031984169
0.4090957 -0.014223038 0.031978153
0.41002017 -0.013179992 0.032460336
0.41005015 -0.012194132 0.032454327
0.41097447 -0.011155864 0.032936543
0.41100439 -0.010171604 0.032930546
0.41103432 -0.0091873454 0.032924548
0.41195846 -0.0081554446 0.033406802
0.41198832 -0.0071727787 0.033400815
0.41201818 -0.0061901095 0.033394825
0.41204807 -0.0052074436 0.033388838
0.41207793 -0.0042247707 0.033382848
0.4121078 -0.0032421052 0.033376861
0.41213766 -0.0022594361 0.033370875
0.41216752 -0.0012767704 0.033364885
0.41219741 -0.00029410108 0.033358898
0.41222727 0.0006885645 0.033352908
0.41225713 0.0016712338 0.033346921
0.412287 0.0026538994 0.033340935
0.41231689 0.0036365686 0.033334944
0.41234675 0.0046192342 0.033328958
0.41237661 0.0056019053 0.033322968
0.41151297 0.0065608225 0.032828581
0.41154289 0.0075450819 0.032822583
0.41157281 0.0085293408 0.032816585
0.41160274 0.0095136045 0.032810587
0.41163266 0.010497863 0.03280459
0.41166258 0.011482122 0.032798592
0.4116925 0.012466386 0.032792594
0.41172239 0.013450645 0.032786597
0.41175231 0.014434904 0.032780599
0.41178223 0.015419165 0.032774601
0.41181216 0.016403425 0.032768603
0.41184208 0.017387688 0.032762606
0.411872 0.018371947 0.032756608
0.41190189 0.019356208 0.03275061
0.41193181 0.020340467 0.032744613
0.41106898 0.021324867 0.032250069
0.41109893 0.022310719 0.032244064
0.41112891 0.023296574 0.032238055
0.41115886 0.024282426 0.03223205
0.41118884 0.025268279 0.032226041
0.41121879 0.026254132 0.032220032
0.41124877 0.027239986 0.032214027
0.41127872 0.028225837 0.032208018
0.41130871 0.029211691 0.032202009
0.41133866 0.030197544 0.032196004
0.41136864 0.031183397 0.032189995
0.41139859 0.032169249 0.03218399
0.41053635 0.033174355 0.031689327
0.41056636 0.034161799 0.031683307
0.4105964 0.035149246 0.031677291
0.41062641 0.036136691 0.031671274
0.41065642 0.037124138 0.031665258
0.40979442 0.038138799 0.031170504
0.40982449 0.039127838 0.031164479
0.40985456 0.040116876 0.031158451
0.4098846 0.041105915 0.031152423
0.40991467 0.042094953 0.031146398
0.40495124 -0.024486972 0.028827485
0.40498149 -0.023491565 0.028821418
0.40590563 -0.022426182 0.029304698
0.40682968 -0.021363981 0.029788001
0.40685984 -0.020371754 0.029781954
0.40778375 -0.019314334 0.030265283
0.40781388 -0.018323705 0.030259246
0.40873763 -0.017271062 0.030742608
0.4087677 -0.016282026 0.03073658
0.40969136 -0.015234159 0.031219998
0.40972137 -0.014246712 0.031213982
0.41064483 -0.013203628 0.0316974
0.41067481 -0.012217768 0.031691395
0.41070476 -0.011231919 0.031685386
0.41162804 -0.010195202 0.032168839
0.41165796 -0.0092109432 0.032162841
0.41168788 -0.0082266843 0.032156844
0.41261095 -0.0071963384 0.032640342
0.41264084 -0.0062136687 0.032634355
0.4126707 -0.0052310033 0.032628365
0.41270056 -0.0042483304 0.032622378
0.41273043 -0.0032656647 0.032616392
0.41276032 -0.0022829955 0.032610402
0.4118973 -0.0013368581 0.03211486
0.41192722 -0.00035259893 0.032108862
0.41195714 0.00063166028 0.032102864
0.41198704 0.0016159232 0.032096867
0.41201696 0.0026001825 0.032090869
0.41204688 0.0035844417 0.032084871
0.4120768 0.0045687011 0.032078873
0.41210672 0.0055529638 0.032072876
0.41213664 0.0065372251 0.032066878
0.41216657 0.007521484 0.03206088
0.41219646 0.0085057439 0.032054882
0.41222638 0.0094900066 0.032048885
0.41136402 0.010456848 0.03155322
0.41139397 0.011442701 0.031547215
0.41142395 0.012428556 0.031541206
0.4114539 0.013414407 0.031535197
0.41148385 0.01440026 0.031529192
0.41151384 0.015386113 0.031523183
0.41154379 0.016371967 0.031517178
0.41157377 0.017357821 0.031511169
0.41160372 0.018343672 0.03150516
0.4116337 0.019329526 0.031499155
0.41166365 0.020315377 0.031493146
0.41169363 0.021301232 0.031487137
0.41172358 0.022287084 0.031481132
0.41175357 0.023272937 0.031475123
0.41178352 0.024258791 0.031469118
0.4118135 0.025244644 0.031463109
0.41184345 0.026230497 0.0314571
0.41187343 0.027216349 0.031451095
0.41190338 0.028202202 0.031445086
0.41193333 0.029188056 0.031439077
0.41107199 0.030188343 0.030943206
0.411102 0.031175788 0.030937189
0.41113201 0.032163236 0.030931171
0.41116202 0.03315068 0.030925155
0.41119203 0.034138124 0.030919136
0.41122207 0.035125572 0.03091312
0.41036099 0.036137011 0.030417154
0.41039103 0.037126049 0.030411126
0.4104211 0.038115088 0.0304051
0.41045117 0.039104123 0.030399073
0.40959039 0.040123522 0.029903084
0.41051129 0.0410822 0.03038702
0.40965062 0.042104784 0.02989101
0.40465862 -0.025581039 0.027572632
0.40468892 -0.024584038 0.027566556
0.4056122 -0.023515431 0.02805108
0.40564245 -0.022520019 0.028045015
0.40745839 -0.021387771 0.029020125
0.40838134 -0.020328715 0.029504681
0.40841144 -0.019338084 0.029498644
0.40844154 -0.018347455 0.029492607
0.40936431 -0.017294776 0.029977197
0.40939438 -0.016305739 0.029971171
0.41031703 -0.015257834 0.030455822
0.41034704 -0.014270387 0.030449804
0.41126952 -0.013227264 0.030934459
0.41129947 -0.012241405 0.03092845
0.41132942 -0.011255555 0.030922443
0.4113594 -0.010269702 0.030916436
0.41228163 -0.0092345411 0.031401131
0.41231152 -0.0082502821 0.031395134
0.41234145 -0.007266019 0.031389136
0.41237137 -0.0062817596 0.031383138
0.41240129 -0.0052975002 0.03137714
0.41243121 -0.0043132375 0.031371143
0.41246113 -0.0033289783 0.031365145
0.41249102 -0.0023447152 0.031359147
0.41252095 -0.001360456 0.03135315
0.41255087 -0.00037619678 0.031347152
0.41258079 0.00060806243 0.031341154
0.41171899 0.0015605363 0.030844346
0.41174895 0.0025463891 0.030838337
0.41177893 0.003532242 0.03083233
0.41180888 0.0045180912 0.030826323
0.41183883 0.0055039478 0.030820316
0.41186881 0.0064898008 0.030814307
0.41189876 0.0074756518 0.0308083
0.41192874 0.0084615042 0.030802293
0.41195869 0.0094473595 0.030796286
0.41198868 0.010433212 0.030790277
0.41201863 0.011419065 0.03078427
0.41204861 0.01240492 0.030778263
0.41207856 0.013390771 0.030772256
0.41210854 0.014376624 0.030766247
0.41213849 0.015362477 0.03076024
0.41216847 0.016348332 0.030754233
0.41219842 0.017334184 0.030748226
0.41222841 0.018320035 0.030742217
0.41225836 0.01930589 0.03073621
0.41228834 0.020291742 0.030730203
0.41142753 0.021277659 0.030233184
0.41145754 0.022265103 0.030227168
0.41148758 0.023252551 0.030221149
0.41151759 0.024239995 0.030215133
0.4115476 0.025227441 0.030209115
0.41157761 0.026214886 0.030203098
0.41160762 0.027202332 0.03019708
0.41163763 0.028189778 0.030191064
0.41166764 0.029177222 0.030185046
0.41169766 0.030164668 0.030179029
0.41172767 0.031152114 0.030173011
0.41086742 0.032157142 0.029675851
0.41089749 0.03314618 0.029669825
0.41092753 0.034135219 0.029663797
0.4109576 0.035124257 0.02965777
0.41098768 0.036113296 0.029651742
0.41101772 0.037102334 0.029645717
0.41104779 0.038091373 0.029639689
0.41018796 0.039109144 0.029142482
0.41021809 0.040099774 0.029136447
0.41024819 0.041090403 0.02913041
0.40938857 0.042114545 0.028633159
0.40344551 -0.027754975 0.02582968
0.40347591 -0.026754791 0.025823586
0.40439832 -0.025679773 0.026309272
0.40442869 -0.024681179 0.026303187
0.40535095 -0.02361094 0.026788903
0.40627319 -0.022543885 0.027274672
0.40719527 -0.021480018 0.027760433
0.40811723 -0.020419331 0.028246207
0.40814739 -0.019427111 0.028240161
0.40906924 -0.018371206 0.028725963
0.409991 -0.017318487 0.029211788
0.41002107 -0.016329451 0.02920576
0.4109427 -0.015281508 0.029691644
0.41097271 -0.014294061 0.029685628
0.41100273 -0.013306618 0.029679609
0.41192412 -0.012265041 0.030165507
0.4119541 -0.011279191 0.030159499
0.41198406 -0.010293338 0.030153491
0.41201404 -0.0093074851 0.030147484
0.41204399 -0.0083216326 0.030141477
0.41207397 -0.0073357797 0.03013547
0.41210392 -0.0063499268 0.030129461
0.4121339 -0.0053640739 0.030123454
0.41216385 -0.0043782173 0.030117447
0.4121938 -0.0033923641 0.03011144
0.41222379 -0.0024065112 0.030105431
0.41225374 -0.0014206622 0.030099424
0.41228372 -0.00043480928 0.030093417
0.41231367 0.0005510436 0.03008741
0.41234365 0.0015369003 0.030081401
0.4123736 0.0025227531 0.030075394
0.41240358 0.003508606 0.030069387
0.41243353 0.0044944552 0.03006338
0.41246352 0.0054803118 0.030057371
0.411603 0.0064423 0.029559266
0.41163301 0.0074297446 0.029553248
0.41166303 0.0084171891 0.029547231
0.41169304 0.009404636 0.029541213
0.41172305 0.010392083 0.029535197
0.41175309 0.011379527 0.029529179
0.4117831 0.012366974 0.029523162
0.41181311 0.013354418 0.029517144
0.41184312 0.014341865 0.029511128
0.41187313 0.01532931 0.029505109
0.41190314 0.016316757 0.029499093
0.41193315 0.017304201 0.029493077
0.41196316 0.018291647 0.029487059
0.41199318 0.019279094 0.029481042
0.41202319 0.020266538 0.029475024
0.41205323 0.021253984 0.029469008
0.41208324 0.022241428 0.029462989
0.41211325 0.023228876 0.029456973
0.41214326 0.02421632 0.029450955
0.41217327 0.025203766 0.029444939
0.41220328 0.026191212 0.02943892
0.41134378 0.02718824 0.028940575
0.41137385 0.028177278 0.028934548
0.41140392 0.029166315 0.028928522
0.41143396 0.030155353 0.028922495
0.41146404 0.031144392 0.028916467
0.41149411 0.03213343 0.028910441
0.41152418 0.033122469 0.028904414
0.41155422 0.034111507 0.028898386
0.41069523 0.035122868 0.028399985
0.41072533 0.036113501 0.028393948
0.41075546 0.03710413 0.028387912
0.41078556 0.038094763 0.028381877
0.4099268 0.039114084 0.027883427
0.40995696 0.040106308 0.027877379
0.40998709 0.041098531 0.027871333
0.41001725 0.042090755 0.027865287
0.41004741 0.043082979 0.027859241
0.40407926 -0.027778955 0.025055649
0.40410966 -0.026778771 0.025049552
0.40503106 -0.025703715 0.025536474
0.40506142 -0.024705119 0.025530389
0.40598267 -0.023634844 0.026017344
0.40601298 -0.022637842 0.026011268
0.40782496 -0.021503845 0.026991328
0.40874594 -0.020443119 0.027478341
0.4087761 -0.019450899 0.027472295
0.40969694 -0.018394956 0.027959332
0.40972704 -0.017404325 0.027953295
0.41064772 -0.016353164 0.028440362
0.41067779 -0.015364123 0.028434334
0.41159838 -0.014317735 0.028921461
0.4116284 -0.013330292 0.028915444
0.41165841 -0.012342841 0.028909426
0.41257876 -0.011302827 0.02939656
0.41260871 -0.010316974 0.029390553
0.41263869 -0.0093311211 0.029384546
0.41266865 -0.0083452687 0.029378539
0.41269863 -0.0073594153 0.02937253
0.41272858 -0.0063735624 0.029366523
0.41275856 -0.0053877095 0.029360516
0.41278851 -0.0044018528 0.029354509
0.41281849 -0.0034160002 0.0293485
0.41284844 -0.0024301473 0.029342493
0.41198856 -0.0014809408 0.028843237
0.41201857 -0.00049349427 0.028837221
0.41204858 0.00049394858 0.028831203
0.41207859 0.0014813988 0.028825186
0.41210863 0.0024688416 0.028819168
0.41213864 0.0034562883 0.028813152
0.41216865 0.0044437312 0.028807133
0.41219866 0.0054311794 0.028801117
0.41222867 0.0064186258 0.028795099
0.41225868 0.0074060708 0.028789083
0.4122887 0.0083935158 0.028783066
0.41231871 0.0093809618 0.028777048
0.41234872 0.010368409 0.028771032
0.41237873 0.011355853 0.028765013
0.41240874 0.0123433 0.028758997
0.41243878 0.013330745 0.028752979
0.41246879 0.014318191 0.028746963
0.4124988 0.015305636 0.028740944
0.41252881 0.016293082 0.028734928
0.41255882 0.017280526 0.02872891
0.41258883 0.018267974 0.028722893
0.41172996 0.01925222 0.028223392
0.41176003 0.020241257 0.028217364
0.4117901 0.021230297 0.028211338
0.41182014 0.022219334 0.028205311
0.41185021 0.023208374 0.028199283
0.41188028 0.024197411 0.028193258
0.41191033 0.025186451 0.02818723
0.4119404 0.026175488 0.028181203
0.41197047 0.027164526 0.028175177
0.41200054 0.028153565 0.02816915
0.41203058 0.029142603 0.028163122
0.41117236 0.030145962 0.027663536
0.41120246 0.031136593 0.0276575
0.41123256 0.032127224 0.027651463
0.41126269 0.033117857 0.027645426
0.41129279 0.034108486 0.027639391
0.41132289 0.035099119 0.027633354
0.410465 0.036113624 0.0271337
0.41049516 0.037105847 0.027127653
0.41052532 0.038098071 0.027121607
0.41055548 0.039090294 0.027115561
0.41058564 0.040082518 0.027109515
0.4106158 0.041074742 0.027103469
0.40975824 0.0421004 0.026603742
0.40978846 0.043094214 0.026597684
0.40379244 -0.0288828 0.023793485
0.404713 -0.027802935 0.02428161
0.4047434 -0.02680275 0.024275515
0.4047738 -0.025802562 0.024269421
0.40569416 -0.024729062 0.024757585
0.4057245 -0.02373047 0.024751499
0.4066447 -0.022661746 0.025239691
0.40756488 -0.021596208 0.025727935
0.40848488 -0.02053385 0.026216166
0.40940481 -0.019474689 0.026704418
0.41032463 -0.018418707 0.027192688
0.41035473 -0.017428076 0.027186651
0.4112744 -0.016376875 0.027674951
0.41130447 -0.015387835 0.027668923
0.41222405 -0.014341409 0.028157284
0.41225407 -0.013353966 0.028151266
0.41228408 -0.012366516 0.02814525
0.41231409 -0.01137907 0.028139232
0.4123441 -0.010391623 0.028133215
0.41237414 -0.0094041796 0.028127199
0.41240415 -0.0084167337 0.028121181
0.41243416 -0.0074292906 0.028115164
0.41246417 -0.0064418442 0.028109146
0.41249418 -0.0054543978 0.02810313
0.41252419 -0.0044669509 0.028097112
0.4125542 -0.0034795045 0.028091095
0.41258422 -0.0024920579 0.028085077
0.41261423 -0.0015046151 0.028079061
0.41264424 -0.00051716855 0.028073043
0.41267425 0.0004702743 0.028067026
0.41270429 0.0014577246 0.028061008
0.41184559 0.0024148549 0.027560439
0.41187567 0.0034038913 0.027554411
0.41190571 0.0043929317 0.027548386
0.41193578 0.0053819702 0.027542358
0.41196585 0.0063710082 0.027536331
0.41199592 0.0073600467 0.027530305
0.41202596 0.0083490834 0.027524278
0.41205603 0.0093381237 0.02751825
0.4120861 0.010327161 0.027512224
0.41211614 0.0113162 0.027506197
0.41214621 0.01230524 0.027500169
0.41217628 0.013294277 0.027494144
0.41220635 0.014283315 0.027488116
0.41223639 0.015272354 0.027482089
0.41226646 0.016261393 0.027476061
0.41229653 0.01725043 0.027470035
0.41232657 0.018239468 0.027464008
0.41235664 0.019228507 0.02745798
0.41238672 0.020217545 0.027451955
0.41241679 0.021206584 0.027445927
0.41244683 0.022195622 0.0274399
0.4124769 0.023184661 0.027433874
0.41250697 0.024173699 0.027427847
0.4116495 0.025169056 0.026927076
0.4116796 0.026159687 0.026921039
0.41170973 0.027150318 0.026915003
0.41173983 0.028140949 0.026908966
0.41176993 0.02913158 0.026902929
0.41180006 0.030122211 0.026896892
0.41183016 0.031112842 0.026890857
0.41097307 0.032120943 0.026390009
0.41100323 0.033113167 0.026383962
0.41103339 0.034105387 0.026377914
0.41106355 0.035097614 0.026371868
0.41109371 0.036089838 0.026365822
0.41112387 0.037082061 0.026359776
0.41026711 0.038101308 0.02585886
0.41118419 0.039066508 0.026347684
0.41032755 0.04008894 0.025846748
0.41035774 0.041082755 0.025840692
0.40950125 0.042109966 0.025339728
0.4095315 0.043105375 0.025333662
0.40439674 -0.029908603 0.02302433
0.40531632 -0.028827099 0.023513678
0.40534672 -0.027826915 0.023507584
0.40537712 -0.02682673 0.023501489
0.40629652 -0.025751598 0.023990875
0.40632689 -0.024753002 0.023984792
0.40724611 -0.02368265 0.024474207
0.40727642 -0.022685649 0.024468131
0.40819559 -0.021620072 0.024957603
0.4091146 -0.020557677 0.025447069
0.41003349 -0.019498477 0.025936551
0.4109523 -0.018442458 0.026426056
0.41098243 -0.017451826 0.02642002
0.41190109 -0.016400587 0.026909553
0.41193116 -0.015411547 0.026903525
0.4119612 -0.014422511 0.026897497
0.41287974 -0.01337764 0.027387096
0.41290975 -0.01239019 0.027381079
0.41293976 -0.011402744 0.027375061
0.41296977 -0.010415297 0.027369045
0.41299981 -0.0094278539 0.027363027
0.41302982 -0.0084404079 0.02735701
0.41305983 -0.0074529648 0.027350992
0.41308984 -0.0064655184 0.027344976
0.41311985 -0.0054780715 0.027338957
0.41314986 -0.0044906251 0.027332941
0.41317987 -0.0035031785 0.027326923
0.41232195 -0.0025540469 0.026825175
0.41235203 -0.0015650105 0.026819147
0.4123821 -0.00057597406 0.026813122
0.41241214 0.00041306615 0.026807094
0.41244221 0.0014021064 0.026801066
0.41247228 0.0023911428 0.026795041
0.41250232 0.0033801794 0.026789013
0.41253239 0.0043692193 0.026782986
0.41256246 0.0053582578 0.02677696
0.41259253 0.0063472963 0.026770933
0.41262257 0.0073363348 0.026764905
0.41176531 0.0083045773 0.026263067
0.41179541 0.0092952112 0.026257031
0.41182551 0.010285841 0.026250994
0.41185564 0.011276471 0.026244957
0.41188574 0.012267103 0.02623892
0.41191584 0.013257735 0.026232883
0.41194597 0.014248366 0.026226847
0.41197607 0.015238996 0.02622081
0.41200617 0.016229628 0.026214773
0.4120363 0.017220259 0.026208736
0.4120664 0.01821089 0.026202701
0.4120965 0.019201521 0.026196664
0.41212663 0.02019215 0.026190627
0.41215673 0.021182783 0.026184591
0.41218683 0.022173414 0.026178554
0.41221696 0.023164045 0.026172517
0.41224706 0.024154676 0.02616648
0.41227716 0.025145307 0.026160443
0.41142082 0.026143812 0.025658421
0.41145098 0.027136033 0.025652375
0.41148114 0.028128257 0.025646327
0.4115113 0.029120481 0.025640281
0.41154146 0.030112706 0.025634235
0.41157162 0.031104928 0.025628189
0.41071558 0.03211458 0.025126098
0.4107458 0.033108398 0.025120042
0.41077599 0.034102213 0.025113985
0.41080621 0.035096031 0.025107929
0.4108364 0.036089849 0.025101874
0.41086662 0.037083663 0.025095817
0.41001093 0.038104463 0.024593659
0.41004118 0.039099872 0.024587592
0.41007143 0.040095281 0.024581527
0.41010171 0.04109069 0.024575461
0.41013196 0.042086098 0.024569396
0.41016221 0.043081511 0.024563329
0.40930682 0.044113461 0.024061076
0.40591967 -0.029851271 0.022745736
0.40595007 -0.028851079 0.022739641
0.40598047 -0.027850894 0.022733545
0.4060109 -0.02685071 0.02272745
0.40692925 -0.025775539 0.023218071
0.40784755 -0.024703555 0.023708705
0.40787786 -0.023706554 0.023702631
0.40790817 -0.022709552 0.023696555
0.40882629 -0.021643938 0.024187265
0.40974429 -0.020581504 0.024677958
0.4106622 -0.019522266 0.025168676
0.41158 -0.018466208 0.025659412
0.41161013 -0.017475577 0.025653375
0.41164023 -0.016484948 0.025647338
0.41255784 -0.01543526 0.026138114
0.41258788 -0.014446223 0.026132088
0.41261795 -0.013457187 0.026126061
0.41264802 -0.012468143 0.026120033
0.41267809 -0.011479107 0.026114007
0.41270813 -0.010490066 0.02610798
0.4127382 -0.0095010297 0.026101952
0.41276827 -0.0085119931 0.026095927
0.41279832 -0.0075229532 0.026089899
0.41282839 -0.0065339166 0.026083872
0.41285846 -0.0055448799 0.026077844
0.41288853 -0.0045558363 0.026071819
0.41291857 -0.0035667997 0.026065791
0.41294864 -0.0025777596 0.026059764
0.41297871 -0.001588723 0.026053738
0.41300878 -0.00059968652 0.02604771
0.41303882 0.00038935366 0.026041683
0.41218221 0.00134641 0.025538679
0.41221231 0.0023370439 0.025532642
0.41224244 0.003327674 0.025526606
0.41227254 0.0043183044 0.025520569
0.41230264 0.0053089364 0.025514532
0.41233277 0.0062995665 0.025508497
0.41236287 0.0072901966 0.02550246
0.412393 0.0082808267 0.025496423
0.4124231 0.0092714606 0.025490386
0.4124532 0.010262091 0.02548435
0.41248333 0.011252721 0.025478313
0.41251343 0.012243353 0.025472276
0.41254354 0.013233985 0.025466239
0.41257367 0.014224615 0.025460202
0.41260377 0.015215245 0.025454167
0.41263387 0.016205877 0.02544813
0.412664 0.017196508 0.025442094
0.4126941 0.018187139 0.025436057
0.41183841 0.019174457 0.024932867
0.41186857 0.02016668 0.024926821
0.41189873 0.021158904 0.024920775
0.41192889 0.022151127 0.024914728
0.41195905 0.023143351 0.024908682
0.41198921 0.024135575 0.024902636
0.41201937 0.025127798 0.02489659
0.4120495 0.026120022 0.024890544
0.41119426 0.027121672 0.024387266
0.41122445 0.02811549 0.024381211
0.41125467 0.029109305 0.024375156
0.41128489 0.030103123 0.0243691
0.41131508 0.031096939 0.024363043
0.41046011 0.032108147 0.023859715
0.41049036 0.033103555 0.023853648
0.41052064 0.034098964 0.023847584
0.41055089 0.035094373 0.023841517
0.41058114 0.036089782 0.023835452
0.41061139 0.03708519 0.023829386
0.41064164 0.038080599 0.023823321
0.40978703 0.039104551 0.023319876
0.40981734 0.040101551 0.023313802
0.40984765 0.041098554 0.023307726
0.40987793 0.042095553 0.02330165
0.40990824 0.043092556 0.023295574
0.40993854 0.044089559 0.0232895
0.40908429 0.045124654 0.022786025
0.40652302 -0.030875435 0.021977799
0.40655342 -0.029875251 0.021971703
0.40658382 -0.028875059 0.021965608
0.40750128 -0.027796665 0.022457443
0.40753165 -0.026798075 0.022451358
0.40756199 -0.025799479 0.022445273
0.40759236 -0.024800885 0.022439187
0.40850958 -0.023730457 0.022931071
0.40853989 -0.022733456 0.022924995
0.40945703 -0.021667803 0.023416933
0.41037402 -0.020605331 0.023908859
0.41129088 -0.019546054 0.02440081
0.41132104 -0.018553831 0.024394764
0.41223779 -0.017499328 0.024886742
0.41226792 -0.016508698 0.024880707
0.41229802 -0.015518067 0.02487467
0.41232812 -0.014527437 0.024868634
0.41324463 -0.013480899 0.025360655
0.41327471 -0.012491855 0.025354629
0.41330475 -0.011502819 0.025348602
0.41333482 -0.010513779 0.025342574
0.41336489 -0.0095247421 0.025336549
0.41339496 -0.0085357055 0.025330521
0.413425 -0.0075466656 0.025324494
0.41345507 -0.006557629 0.025318468
0.41348514 -0.0055685923 0.02531244
0.41351521 -0.0045795487 0.025306413
0.41265935 -0.0036304947 0.02480223
0.41268945 -0.0026398608 0.024796193
0.41271958 -0.0016492307 0.024790157
0.41274968 -0.00065860059 0.02478412
0.41277978 0.00033202954 0.024778083
0.41280991 0.0013226597 0.024772046
0.41284001 0.0023132935 0.024766011
0.41287011 0.0033039236 0.024759974
0.41201472 0.0042673126 0.024255697
0.41204488 0.0052595367 0.024249651
0.41207504 0.0062517603 0.024243604
0.4121052 0.0072439844 0.024237558
0.41213536 0.0082362061 0.024231512
0.41216549 0.0092284316 0.024225466
0.41219565 0.010220655 0.02421942
0.41222581 0.011212878 0.024213374
0.41225597 0.012205103 0.024207328
0.41228613 0.013197327 0.02420128
0.41231629 0.014189549 0.024195233
0.41234645 0.015181772 0.024189187
0.41237661 0.016173998 0.024183141
0.41240677 0.01716622 0.024177095
0.41243693 0.018158443 0.024171049
0.41246709 0.019150669 0.024165003
0.41249725 0.020142892 0.024158956
0.41164273 0.02113495 0.023654506
0.41167292 0.022128765 0.023648448
0.41170314 0.023122583 0.023642393
0.41173333 0.024116397 0.023636337
0.41087905 0.025116419 0.023131844
0.4109093 0.026111826 0.023125777
0.41093954 0.027107237 0.02311971
0.41096982 0.028102646 0.023113646
0.41100007 0.029098054 0.023107579
0.41103032 0.030093463 0.023101514
0.41106057 0.031088872 0.023095448
0.41109082 0.032084282 0.023089383
0.41023692 0.033098638 0.02258477
0.41026723 0.034095638 0.022578694
0.41029751 0.035092641 0.022572618
0.41032782 0.03608964 0.022566544
0.41035813 0.037086643 0.022560468
0.41038844 0.038083646 0.022554392
0.41041875 0.039080646 0.022548316
0.41044906 0.040077649 0.022542242
0.41047934 0.041074648 0.022536166
0.40962598 0.04210493 0.022031482
0.40965632 0.043103524 0.022025397
0.40968668 0.044102121 0.022019312
0.40971702 0.045100715 0.022013227
0.40801263 -0.031814985 0.021708978
0.40715677 -0.030899415 0.02120376
0.40718716 -0.02989923 0.021197665
0.40810367 -0.028819205 0.021690723
0.40813404 -0.027820608 0.021684639
0.40816438 -0.026822016 0.021678554
0.40819472 -0.025823422 0.021672469
0.40911099 -0.024751361 0.022165569
0.4091413 -0.02375436 0.022159493
0.41005749 -0.022687076 0.022652661
0.41008773 -0.021691667 0.022646595
0.41100371 -0.020629158 0.023139754
0.41191959 -0.019569844 0.023632932
0.41194975 -0.01857762 0.023626886
0.41286549 -0.017523078 0.0241201
0.41289559 -0.016532449 0.024114063
0.41292572 -0.015541818 0.024108026
0.41295582 -0.014551188 0.024101989
0.41298592 -0.013560558 0.024095953
0.41301605 -0.01256992 0.024089916
0.41304615 -0.01157929 0.024083879
0.41307625 -0.01058866 0.024077842
0.41310638 -0.0095980298 0.024071807
0.41313648 -0.0086073996 0.02406577
0.41316661 -0.0076167695 0.024059733
0.41319671 -0.0066261394 0.024053697
0.41322681 -0.0056355093 0.02404766
0.41325694 -0.0046448754 0.024041623
0.41328704 -0.0036542455 0.024035586
0.41331714 -0.0026636117 0.024029549
0.41334727 -0.0016729814 0.024023512
0.41337737 -0.0006823513 0.024017477
0.41252279 0.00027462863 0.023512006
0.41255295 0.0012668525 0.02350596
0.41258308 0.0022590763 0.023499914
0.41261324 0.0032513 0.023493867
0.4126434 0.0042435238 0.023487819
0.41267356 0.0052357474 0.023481773
0.41270372 0.0062279715 0.023475727
0.41184953 0.0071976935 0.022970185
0.41187972 0.0081915092 0.022964129
0.41190994 0.0091853263 0.022958072
0.41194016 0.010179142 0.022952016
0.41197035 0.011172958 0.022945961
0.41200057 0.012166777 0.022939904
0.41203076 0.013160593 0.022933848
0.41206098 0.014154408 0.022927793
0.4120912 0.015148223 0.022921737
0.41212139 0.01614204 0.02291568
0.4121516 0.017135857 0.022909625
0.41129798 0.018124692 0.022403965
0.41132823 0.019120101 0.0223979
0.41135848 0.020115508 0.022391833
0.41138873 0.021110918 0.022385769
0.411419 0.022106327 0.022379702
0.41144925 0.023101736 0.022373637
0.4114795 0.024097145 0.022367571
0.41150975 0.025092555 0.022361504
0.41065651 0.026095722 0.021855721
0.41068682 0.027092723 0.021849645
0.41071713 0.028089724 0.021843569
0.41074744 0.029086726 0.021837493
0.41077775 0.030083729 0.021831419
0.41080803 0.03108073 0.021825343
0.41083834 0.032077733 0.021819267
0.41086864 0.033074733 0.021813191
0.41089895 0.034071736 0.021807117
0.41004625 0.03509083 0.021301273
0.41007659 0.036089424 0.021295188
0.41010696 0.037088018 0.021289103
0.4101373 0.038086612 0.021283017
0.41016766 0.039085206 0.021276932
0.410198 0.0400838 0.021270847
0.41022837 0.041082393 0.021264762
0.41025871 0.042080987 0.021258676
0.41028908 0.043079585 0.021252591
0.41031942 0.044078179 0.021246506
0.40946725 0.045114793 0.02074055
0.40949765 0.046114977 0.020734455
0.40772972 -0.032923773 0.020441923
0.40776011 -0.031923581 0.020435829
0.40779051 -0.030923394 0.020429734
0.40870607 -0.029841745 0.020924009
0.40873641 -0.028843148 0.020917924
0.40876678 -0.027844548 0.020911839
0.40968212 -0.026769267 0.021406161
0.40971243 -0.025772266 0.021400085
0.40974271 -0.024775265 0.021394009
0.40977302 -0.023778263 0.021387933
0.41068819 -0.02271094 0.021882324
0.41071844 -0.021715533 0.021876257
0.41163343 -0.020652985 0.022370655
0.4125483 -0.019593632 0.022865066
0.41257846 -0.018601408 0.02285902
0.41260862 -0.017609185 0.022852974
0.41263878 -0.016616961 0.022846928
0.41355342 -0.015565569 0.023341388
0.41358352 -0.014574938 0.023335351
0.41361362 -0.013584308 0.023329314
0.41364375 -0.012593671 0.023323279
0.41367385 -0.011603041 0.023317242
0.41370395 -0.01061241 0.023311205
0.41373408 -0.0096217804 0.023305168
0.41376418 -0.0086311502 0.023299132
0.41379428 -0.0076405201 0.023293095
0.41382441 -0.00664989 0.023287058
0.41385451 -0.0056592599 0.023281021
0.41388461 -0.004668626 0.023274984
0.41303083 -0.0037180514 0.022768326
0.41306099 -0.0027258275 0.02276228
0.41309115 -0.0017336075 0.022756232
0.41312131 -0.0007413837 0.022750186
0.41315147 0.00025084009 0.02274414
0.41318163 0.0012430639 0.022738094
0.41321179 0.0022352878 0.022732047
0.4123584 0.0031986006 0.022225309
0.41238859 0.004192418 0.022219254
0.41241881 0.0051862355 0.022213198
0.41244903 0.0061800512 0.022207143
0.41159588 0.0071513262 0.021700351
0.41162613 0.0081467358 0.021694284
0.41165638 0.0091421464 0.021688219
0.41168663 0.010137554 0.021682153
0.41171691 0.011132963 0.021676088
0.41174716 0.012128375 0.021670021
0.41177741 0.013123782 0.021663956
0.41180766 0.014119189 0.02165789
0.41183791 0.015114599 0.021651825
0.41186818 0.01611001 0.021645758
0.41189843 0.017105417 0.021639694
0.41192868 0.018100826 0.021633627
0.41195893 0.019096235 0.021627562
0.41110641 0.020089809 0.021120613
0.41113672 0.02108681 0.021114537
0.41116703 0.022083811 0.021108463
0.41119733 0.023080815 0.021102387
0.41122764 0.024077816 0.021096312
0.41125792 0.025074817 0.021090236
0.41128823 0.026071819 0.021084161
0.41043615 0.027078133 0.020577155
0.41046652 0.028076727 0.02057107
0.41049686 0.029075323 0.020564985
0.41052723 0.030073917 0.020558899
0.41055757 0.03107251 0.020552816
0.41058791 0.032071106 0.020546731
0.41061828 0.0330697 0.020540645
0.41064861 0.034068294 0.02053456
0.41067898 0.035066888 0.020528475
0.41070932 0.036065482 0.02052239
0.41073969 0.037064075 0.020516304
0.40988818 0.038089503 0.020009188
0.40991858 0.039089691 0.020003093
0.41083074 0.040059861 0.020498049
0.40997937 0.041090064 0.019990904
0.41000977 0.042090252 0.01998481
0.41004017 0.043090437 0.019978713
0.4100706 0.044090625 0.019972619
0.410101 0.045090813 0.019966524
0.40836346 -0.032947753 0.019667886
0.40927809 -0.03186287 0.020163376
0.40842426 -0.030947374 0.019655695
0.4093388 -0.029865688 0.020151205
0.40936914 -0.028867088 0.02014512
0.40939951 -0.027868491 0.020139035
0.41031384 -0.026793171 0.020634582
0.41034415 -0.025796169 0.020628508
0.41037446 -0.024799168 0.020622432
0.41040477 -0.023802167 0.020616356
0.41131893 -0.022734806 0.021111986
0.41134918 -0.021739397 0.021105919
0.41226313 -0.020676812 0.021601545
0.41229334 -0.019682998 0.021595489
0.41320714 -0.018625198 0.022091148
0.4132373 -0.017632972 0.022085102
0.41326746 -0.016640749 0.022079056
0.41329762 -0.015648525 0.02207301
0.41332778 -0.014656305 0.022066964
0.41335794 -0.013664082 0.022060918
0.4133881 -0.012671854 0.022054872
0.41341826 -0.011679631 0.022048825
0.41344842 -0.010687407 0.022042779
0.41347858 -0.0096951826 0.022036731
0.41350874 -0.0087029627 0.022030685
0.4135389 -0.007710739 0.022024639
0.41356906 -0.0067185154 0.022018593
0.41359922 -0.0057262913 0.022012547
0.41362938 -0.004734064 0.022006501
0.41365954 -0.0037418401 0.022000454
0.4136897 -0.0027496163 0.021994408
0.41283709 -0.0017943064 0.02148648
0.41286728 -0.00080048898 0.021480424
0.4128975 0.00019332475 0.021474367
0.41292769 0.0011871422 0.021468312
0.41207531 0.0021504168 0.02096034
0.41210556 0.0031458279 0.020954276
0.41213581 0.0041412353 0.020948209
0.41216609 0.0051366463 0.020942144
0.41219634 0.0061320537 0.020936077
0.41222659 0.007127461 0.020930013
0.41225684 0.0081228707 0.020923946
0.41228712 0.0091182813 0.020917881
0.4114351 0.01009589 0.020409791
0.41146541 0.01109289 0.020403715
0.41149572 0.012089893 0.020397641
0.41152602 0.013086895 0.020391565
0.41155633 0.014083896 0.020385489
0.41158661 0.015080896 0.020379413
0.41161692 0.0160779 0.020373339
0.41164723 0.0170749 0.020367263
0.41167754 0.018071901 0.020361187
0.41170785 0.019068904 0.020355111
0.41173816 0.020065906 0.020349037
0.41088676 0.021062626 0.019840863
0.41091713 0.022061219 0.019834777
0.41094747 0.023059815 0.019828692
0.41097784 0.024058409 0.019822607
0.41100818 0.025057005 0.019816522
0.41103855 0.026055597 0.019810436
0.41106889 0.027054192 0.019804351
0.41109926 0.028052786 0.019798266
0.41112959 0.02905138 0.019792181
0.41027871 0.030064028 0.019283909
0.41030911 0.031064214 0.019277815
0.4103395 0.032064401 0.01927172
0.41036993 0.033064589 0.019265626
0.41040033 0.034064777 0.019259529
0.41043073 0.035064962 0.019253435
0.41046113 0.03606515 0.01924734
0.41049153 0.037065335 0.019241245
0.41052192 0.038065523 0.019235151
0.41055232 0.039065711 0.019229056
0.41058272 0.040065896 0.01922296
0.41061312 0.041066084 0.019216865
0.40976286 0.042099435 0.018708467
0.40979332 0.043101214 0.018702364
0.40982378 0.044102997 0.01869626
0.40809315 0.045180663 0.017685458
0.40808347 -0.034059823 0.018397145
0.40899721 -0.032971732 0.018893847
0.40991083 -0.031886812 0.01939057
0.409058 -0.030971354 0.018881658
0.40997154 -0.029889628 0.019378401
0.41000187 -0.028891031 0.019372316
0.41091529 -0.027814079 0.019869087
0.41094556 -0.026817074 0.019863011
0.41097587 -0.025820073 0.019856935
0.41100618 -0.024823071 0.019850861
0.41191939 -0.023754081 0.020347713
0.41194963 -0.02275867 0.020341648
0.41197988 -0.021763263 0.020335581
0.41289285 -0.020700639 0.02083244
0.41292304 -0.019706825 0.020826384
0.41295326 -0.018713009 0.020820327
0.41386601 -0.017656762 0.021317225
0.41389617 -0.016664539 0.021311179
0.41392633 -0.015672315 0.021305133
0.41395649 -0.014680095 0.021299087
0.41398665 -0.01368787 0.02129304
0.41401681 -0.012695643 0.021286994
0.41404697 -0.011703419 0.021280948
0.41407713 -0.010711196 0.021274902
0.41410729 -0.0097189723 0.021268856
0.41413745 -0.0087267514 0.021262808
0.41416761 -0.0077345278 0.021256762
0.41419777 -0.0067423042 0.021250715
0.41422793 -0.0057500801 0.021244669
0.41425809 -0.0047578528 0.021238623
0.41340637 -0.0038057645 0.020729488
0.41343656 -0.0028119471 0.02072343
0.41346678 -0.0018181334 0.020717375
0.41261527 -0.00085967424 0.0202082
0.41264552 0.00013573316 0.020202134
0.41267577 0.0011311442 0.020196069
0.41270602 0.0021265517 0.020190002
0.4127363 0.0031219628 0.020183938
0.41188499 0.0040899739 0.019674672
0.4119153 0.005086977 0.019668598
0.41194561 0.0060839779 0.019662522
0.41197592 0.0070809792 0.019656446
0.41200623 0.00807798 0.01965037
0.41203654 0.009074985 0.019644296
0.41206682 0.010071986 0.01963822
0.41209713 0.011068987 0.019632144
0.41124633 0.012051338 0.019122824
0.4112767 0.013049931 0.019116739
0.41130704 0.014048525 0.019110654
0.41133741 0.015047118 0.019104568
0.41136774 0.016045716 0.019098483
0.41139811 0.017044308 0.019092398
0.41142845 0.018042903 0.019086313
0.41145882 0.019041497 0.019080227
0.41148916 0.020040089 0.019074142
0.41151953 0.021038685 0.019068057
0.41154987 0.022037279 0.019061971
0.41069967 0.023038741 0.018552536
0.41073006 0.024038928 0.01854644
0.41076046 0.025039114 0.018540345
0.41079086 0.0260393 0.018534251
0.41082126 0.027039487 0.018528156
0.41085166 0.028039673 0.018522061
0.41088206 0.029039862 0.018515967
0.41091245 0.030040048 0.018509872
0.41094285 0.031040234 0.018503776
0.41097328 0.032040421 0.018497681
0.41100368 0.033040609 0.018491587
0.41015404 0.034061182 0.017982034
0.41018447 0.035062961 0.017975928
0.41021493 0.03606474 0.017969824
0.41024539 0.037066519 0.01796372
0.41027585 0.038068298 0.017957615
0.41030627 0.039070081 0.017951511
0.41033673 0.04007186 0.017945407
0.40948743 0.041105174 0.017435743
0.4086383 0.042141672 0.016926093
0.40690964 0.043216076 0.015912877
0.40430158 0.044333164 0.014396035
0.40783584 -0.034171801 0.017117821
0.40963092 -0.032995712 0.018119821
0.40966135 -0.03199552 0.018113727
0.40969175 -0.030995334 0.018107632
0.41060427 -0.029913571 0.018605608
0.41063461 -0.028914971 0.018599523
0.41154701 -0.027837982 0.019097522
0.41157728 -0.026840977 0.019091446
0.41160759 -0.025843976 0.01908537
0.41251984 -0.024773354 0.019583447
0.41255009 -0.023777947 0.01957738
0.41258034 -0.022782536 0.019571315
0.41261059 -0.021787127 0.019565249
0.41264087 -0.020791713 0.019559184
