# .PCD v0.7 - Point Cloud Data file format
VERSION 0.7
FIELDS x y z
SIZE 4 4 4
TYPE F F F
COUNT 1 1 1
WIDTH 1376
HEIGHT 1
VIEWPOINT 0 0 0 1 0 0 0
POINTS 1376
DATA ascii
0.51822162 0.067122191 0.03231205
0.51741809 0.068064481 0.031743769
0.51661468 0.06900996 0.0311755
0.51664072 0.069868401 0.031170269
0.51583749 0.070818655 0.030601971
0.51503426 0.071772099 0.030033654
0.51423115 0.072728723 0.029465282
0.51425737 0.073591948 0.029460022
0.51345444 0.074553348 0.02889166
0.51265162 0.075517938 0.028323274
0.51267797 0.076384336 0.028317995
0.51187527 0.077353701 0.027749581
0.5110727 0.078326255 0.027181149
0.51027012 0.079302005 0.02661266
0.50946772 0.080280922 0.02604419
0.50949425 0.081153698 0.026038872
0.50869197 0.082137398 0.02547037
0.50788981 0.08312428 0.02490185
0.50791645 0.084000237 0.024896512
0.50711441 0.084991902 0.024327962
0.50631249 0.085986756 0.023759358
0.50633919 0.086865909 0.023754001
0.50553739 0.087865531 0.023185404
0.50556415 0.088746272 0.023180038
0.50476253 0.08975067 0.022611409
0.50396103 0.090758264 0.022042762
0.50398791 0.091642186 0.022037378
0.50318646 0.092654563 0.021468665
0.50321335 0.093540072 0.021463269
0.50241214 0.094557226 0.020894567
0.50243908 0.095444337 0.020889161
0.52195346 0.035324845 0.034662548
0.52197921 0.036172137 0.034657385
0.52200496 0.037019428 0.034652222
0.52286094 0.037835464 0.035210986
0.52288663 0.038681164 0.035205834
0.52291232 0.039526865 0.035200682
0.52376807 0.040336531 0.035759486
0.52379376 0.041180637 0.035754342
0.52381939 0.042024743 0.035749201
0.52467495 0.042828038 0.036308043
0.52553046 0.043628145 0.036866941
0.52555603 0.044469066 0.036861818
0.5255816 0.045309991 0.036856692
0.52560717 0.046150912 0.03685157
0.52646238 0.046943057 0.037410479
0.52648789 0.047782388 0.037405364
0.5265134 0.048621714 0.037400249
0.52570939 0.049514595 0.036831073
0.52573496 0.050355516 0.036825947
0.52576053 0.051196437 0.036820821
0.5257861 0.052037358 0.036815699
0.52498227 0.052938212 0.036246434
0.5250079 0.053780723 0.0362413
0.52420425 0.054686345 0.035672043
0.52422988 0.055530451 0.035666898
0.52342641 0.056440853 0.03509761
0.52345216 0.057286553 0.035092458
0.52264881 0.05820173 0.034523144
0.52267456 0.059049021 0.034517981
0.52187133 0.059968982 0.0339486
0.52106822 0.060892124 0.033379234
0.52109408 0.0617426 0.033374052
0.52029115 0.062670521 0.032804657
0.52031708 0.063522592 0.032799464
0.51951426 0.064455286 0.032230046
0.51871157 0.065391168 0.031660601
0.51873755 0.066246428 0.03165539
0.51793492 0.067187093 0.031085884
0.51713246 0.06813094 0.030516392
0.51715857 0.068989374 0.030511161
0.51635629 0.069937997 0.029941643
0.51555407 0.070889808 0.029372102
0.51475185 0.071844816 0.02880251
0.51477814 0.072708033 0.02879725
0.51397616 0.073667802 0.028227661
0.51317424 0.07463076 0.027658055
0.51320058 0.075497165 0.027652776
0.51239884 0.076464899 0.027083138
0.51159722 0.077435814 0.02651348
0.51079565 0.078409925 0.025943771
0.51082212 0.079281114 0.025938462
0.51002073 0.080259994 0.025368759
0.50921941 0.08124207 0.024799036
0.5084182 0.082227319 0.02422929
0.50844485 0.083103284 0.024223953
0.50764382 0.08409331 0.023654182
0.50684279 0.085086532 0.023084357
0.50686949 0.085965678 0.023079
0.50606871 0.086963683 0.022509178
0.50609547 0.087844416 0.02250381
0.5052948 0.08884719 0.02193396
0.50449425 0.089853145 0.021364091
0.50452107 0.090737067 0.021358706
0.50372064 0.091747813 0.020788774
0.50292027 0.09276174 0.020218855
0.50294727 0.093648843 0.020213449
0.50297421 0.094535954 0.020208042
0.50217408 0.095556252 0.019638084
0.50137407 0.096579723 0.019068111
0.52249032 0.035304531 0.034006834
0.52251607 0.036151823 0.034001671
0.52254182 0.036999114 0.033996508
0.52339679 0.037815187 0.034556504
0.52342248 0.038660888 0.034551352
0.52344817 0.039506588 0.0345462
0.52430296 0.040316291 0.035106238
0.52432859 0.041160397 0.035101097
0.5251832 0.041965324 0.035661161
0.52520883 0.04280784 0.035656027
0.52606332 0.043607984 0.036216158
0.52608889 0.044448905 0.036211032
0.52611446 0.045289829 0.03620591
0.52613997 0.04613075 0.036200784
0.52616554 0.046971671 0.036195662
0.52619112 0.047812592 0.036190536
0.52621669 0.048653513 0.036185414
0.52624226 0.049494434 0.036180288
0.52626777 0.050335355 0.036175162
0.52629334 0.051176276 0.036170039
0.52549052 0.052075494 0.035599552
0.52551609 0.052918009 0.035594419
0.52471346 0.053822003 0.035023939
0.52473909 0.054666106 0.035018794
0.52393657 0.055574875 0.034448285
0.52396232 0.056420576 0.034443129
0.52315992 0.057334125 0.033872593
0.52235758 0.058250859 0.033301998
0.52238339 0.059099745 0.033296827
0.52158129 0.060021259 0.032726239
0.52160716 0.060871731 0.032721058
0.52080512 0.061798021 0.03215044
0.52083105 0.062650092 0.032145251
0.52002919 0.063581161 0.031574599
0.51922745 0.064515412 0.031003937
0.51925349 0.065370664 0.030998725
0.51845181 0.066309698 0.030427996
0.51847786 0.067166552 0.030422775
0.51767641 0.068110354 0.029852053
0.51687509 0.069057345 0.029281309
0.51607382 0.070007525 0.028710546
0.51609999 0.070869148 0.028705297
0.51529884 0.071824118 0.028134471
0.51449782 0.072782256 0.027563661
0.5145241 0.073647067 0.02755839
0.51372325 0.074609987 0.026987549
0.51292247 0.075576089 0.026416691
0.5121218 0.07654538 0.025845813
0.5121482 0.077414967 0.025840513
0.51134765 0.078389041 0.025269572
0.51054722 0.079366297 0.024698643
0.50974685 0.080346741 0.024127698
0.50894666 0.081330359 0.023556732
0.50897324 0.082206316 0.023551393
0.50817317 0.083194718 0.022980396
0.50737309 0.084186316 0.022409348
0.50739986 0.085065454 0.022403991
0.50659996 0.08606182 0.021832949
0.50662678 0.086942568 0.02182758
0.50582707 0.08794371 0.021256508
0.50502747 0.088948034 0.020685414
0.50422788 0.089955553 0.020114269
0.50425482 0.09084107 0.020108873
0.5034554 0.091853358 0.019537732
0.50265616 0.092868835 0.018966574
0.50268316 0.09375754 0.018961158
0.50188404 0.094777793 0.018389966
0.5019111 0.095668085 0.018384542
0.5011121 0.096693121 0.017813325
0.52302718 0.035284217 0.033351127
0.5238812 0.036103513 0.033912338
0.52390695 0.036949214 0.033907183
0.52393264 0.037794914 0.03390203
0.52395833 0.038640615 0.033896878
0.5248121 0.039451949 0.034458138
0.52483779 0.040296055 0.034452993
0.52486342 0.041140161 0.034447849
0.52571702 0.041945126 0.035009149
0.52574265 0.042787641 0.035004016
0.52659613 0.043587822 0.03556538
0.5266217 0.044428743 0.035560254
0.52664727 0.045269668 0.035555132
0.52667284 0.046110589 0.035550006
0.52669841 0.04695151 0.035544883
0.52672392 0.047792431 0.035539757
0.52674949 0.048633352 0.035534635
0.52677506 0.049474273 0.035529509
0.52597314 0.050370269 0.034957811
0.52599871 0.05121278 0.034952674
0.52602434 0.052055296 0.034947541
0.52522266 0.052957658 0.034375839
0.52524829 0.053801764 0.034370694
0.52444673 0.054708902 0.033798963
0.52364528 0.055619225 0.033227209
0.52367103 0.05646652 0.033222046
0.52286971 0.057381622 0.032650229
0.52289546 0.058230508 0.032645058
0.52209431 0.059150387 0.032073248
0.52212018 0.060000867 0.032068063
0.52131915 0.060925525 0.031496223
0.52134502 0.061777595 0.031491034
0.52054417 0.062707029 0.030919164
0.51974338 0.063639648 0.030347276
0.51976937 0.064494908 0.030342065
0.5189687 0.06543231 0.029770112
0.51899475 0.066289157 0.029764891
0.51819426 0.067231335 0.029192945
0.51739389 0.068176694 0.028620979
0.51741999 0.06903673 0.028615739
0.51661974 0.069986872 0.028043743
0.51581955 0.070940197 0.027471695
0.51501948 0.07189671 0.026899662
0.51504576 0.072761521 0.026894391
0.51424587 0.07372281 0.026322329
0.51344609 0.074687287 0.025750246
0.51264638 0.075654939 0.025178146
0.51267278 0.076524533 0.025172846
0.51187319 0.077496976 0.024600681
0.51107371 0.078472592 0.02402853
0.51027435 0.079451405 0.023456361
0.50947505 0.080433398 0.022884173
0.5095017 0.081309363 0.022878835
0.50870252 0.082296126 0.022306617
0.50790346 0.083286092 0.021734344
0.50793016 0.084165238 0.021728987
0.50713128 0.085159972 0.021156721
0.50633246 0.086157888 0.020584434
0.50635928 0.087040223 0.020579059
0.50556064 0.088042922 0.020006742
0.50476205 0.089048803 0.019434378
0.50396359 0.090057872 0.018862022
0.50399053 0.090944983 0.018856617
0.50319225 0.091958828 0.018284231
0.50239402 0.092975855 0.017711829
0.50159591 0.093996078 0.017139407
0.50162303 0.094887964 0.017133972
0.50082499 0.095912963 0.01656149
0.50002712 0.096941143 0.015989019
0.52439135 0.03523754 0.033263013
0.5244171 0.03608324 0.033257861
0.52444279 0.036928937 0.033252705
0.52446848 0.037774637 0.033247553
0.52449417 0.038620338 0.033242397
0.52534699 0.03943171 0.033804893
0.52537262 0.040275816 0.033799749
0.52622527 0.041082412 0.034362271
0.5262509 0.041924927 0.034357138
0.52627647 0.042767439 0.034352005
0.52712899 0.043567661 0.034914598
0.52715451 0.044408582 0.034909476
0.52718008 0.045249507 0.03490435
0.52720565 0.046090428 0.034899224
0.52723122 0.046931349 0.034894101
0.52725679 0.04777227 0.034888975
0.52728236 0.048613191 0.034883853
0.52648133 0.049507555 0.034310933
0.52650696 0.050350066 0.034305796
0.52653259 0.051192582 0.034300663
0.5257318 0.052093312 0.033727735
0.52575749 0.052937418 0.033722594
0.52495688 0.053842925 0.033149637
0.52415639 0.05475162 0.032576662
0.52418214 0.055598911 0.032571498
0.52338177 0.056512389 0.031998459
0.52340758 0.057361271 0.031993289
0.52260733 0.058279522 0.031420253
0.52263319 0.059129998 0.031415071
0.52183312 0.060053028 0.030842008
0.52185905 0.060905095 0.030836817
0.5210591 0.061832901 0.030263728
0.52025932 0.062763892 0.029690616
0.52028531 0.063619144 0.029685404
0.51948559 0.064554915 0.029112227
0.518686 0.065493874 0.028539071
0.5187121 0.066352308 0.028533841
0.51791269 0.067296043 0.027960651
0.51793879 0.068156078 0.027955409
0.51713949 0.06910459 0.027382191
0.51634026 0.070056282 0.026808921
0.5155412 0.071011163 0.026235664
0.51556748 0.071875975 0.026230395
0.51476854 0.072835632 0.025657108
0.51479489 0.073702037 0.025651829
0.51399606 0.074666478 0.025078513
0.51319736 0.075634092 0.024505179
0.51239872 0.07660491 0.023931792
0.5116002 0.077578895 0.02335842
0.51080179 0.078556076 0.022785027
0.51082832 0.079430446 0.022779698
0.51003009 0.080412395 0.022206279
0.50923193 0.081397541 0.021632837
0.50843376 0.082385868 0.021059342
0.50763577 0.083377376 0.020485863
0.50766259 0.084258117 0.020480497
0.50686473 0.085254401 0.019906987
0.50606698 0.086253874 0.019333458
0.50609386 0.087137803 0.019328073
0.50529623 0.088142067 0.018754482
0.50449872 0.089149497 0.018180905
0.50452566 0.090036608 0.0181755
0.502904 0.091173925 0.017033691
0.50293106 0.092064217 0.017028267
0.50213391 0.093082808 0.016454624
0.50133681 0.094104581 0.015880924
0.50053984 0.095129542 0.01530724
0.50056708 0.09602461 0.015301785
0.49977025 0.097054347 0.014728075
0.52407515 0.034396295 0.032044869
0.52492726 0.035217263 0.032608539
0.52495295 0.036062963 0.032603383
0.52497864 0.036908664 0.032598231
0.52500433 0.037754361 0.032593075
0.5258562 0.038567364 0.03315679
0.52588183 0.039411474 0.033151649
0.52590746 0.04025558 0.033146504
0.52675909 0.041062213 0.03371026
0.52678472 0.041904729 0.033705126
0.52681035 0.042747241 0.033699993
0.52683592 0.043589756 0.03369486
0.52768737 0.044388421 0.034258697
0.52771294 0.045229346 0.034253571
0.52773851 0.046070267 0.034248445
0.52776402 0.046911187 0.034243323
0.52778959 0.047752108 0.034238197
0.52698958 0.048644841 0.033664055
0.52701521 0.049487356 0.033658922
0.52621537 0.05038486 0.03308478
0.526241 0.051228967 0.033079635
0.52544135 0.052131251 0.032505468
0.52546704 0.052976951 0.032500315
0.5246675 0.053884014 0.031926114
0.52469325 0.054731306 0.031920951
0.52389383 0.055643149 0.03134669
0.52391964 0.056492034 0.031341519
0.5231204 0.057408653 0.030767262
0.52314621 0.05825913 0.030762078
0.52234715 0.059180524 0.030187795
0.52237302 0.060032599 0.030182602
0.52157408 0.060958769 0.029608287
0.5207752 0.061888129 0.029033955
0.52080119 0.062743381 0.029028744
0.52000242 0.063677527 0.028454347
0.51920384 0.064614847 0.027879963
0.51922995 0.065473288 0.027874732
0.51843148 0.066415392 0.027300322
0.51845759 0.067275427 0.027295081
0.51765925 0.068222307 0.026720639
0.51686102 0.069172367 0.026146146
0.51688725 0.070035592 0.026140885
0.51608914 0.070990428 0.025566395
0.51529115 0.071948461 0.024991889
0.5153175 0.072814859 0.024986608
0.51451963 0.073777668 0.024412069
0.51372188 0.074743658 0.023837514
0.51292419 0.075712837 0.023262905
0.51212668 0.076685198 0.022688307
0.51132923 0.077660739 0.022113694
0.51135576 0.07853511 0.022108365
0.51055849 0.079515442 0.02153372
0.50976127 0.080498949 0.020959057
0.50896412 0.081485644 0.020384338
0.50816709 0.082475528 0.019809637
0.50819385 0.083356261 0.019804269
0.507397 0.084350921 0.019229537
0.5066002 0.085348763 0.018654786
0.50662708 0.086232685 0.018649401
0.50583041 0.087235317 0.018074587
0.50503385 0.088241123 0.017499786
0.50506079 0.089128226 0.01749438
0.50426441 0.090138815 0.016919553
0.50346816 0.091152579 0.016344704
0.50267196 0.092169538 0.015769837
0.50187582 0.093189687 0.015194917
0.5010798 0.094213009 0.014620009
0.5002839 0.095239528 0.014045085
0.49948809 0.096269213 0.013470138
0.49704629 0.097571358 0.011756158
0.52543741 0.034351289 0.031959213
0.52463782 0.035223275 0.031383995
0.52548879 0.036042687 0.031948905
0.52551448 0.036888387 0.031943753
0.52554023 0.037734084 0.031938598
0.52639103 0.038547128 0.032503545
0.52641666 0.039391235 0.032498404
0.52644235 0.040235341 0.03249326
0.52729297 0.041042015 0.033058245
0.52731854 0.041884527 0.033053111
0.52734417 0.042727042 0.033047978
0.5273698 0.043569557 0.033042844
0.52739537 0.044412069 0.033037711
0.527421 0.045254584 0.033032577
0.52744657 0.0460971 0.03302744
0.5274722 0.046939611 0.033022307
0.52749783 0.047782127 0.033017173
0.5275234 0.048624642 0.03301204
0.52672458 0.049520515 0.032436676
0.52675021 0.050364625 0.032431535
0.5259515 0.051265277 0.031856142
0.52597719 0.052110977 0.03185099
0.52517861 0.053016409 0.03127557
0.52520436 0.0538637 0.031270407
0.5244059 0.054773912 0.030694922
0.52443171 0.055622797 0.03068975
0.52363342 0.056537785 0.030114269
0.52365929 0.057388265 0.030109085
0.52286112 0.058308028 0.029533578
0.52288705 0.059160095 0.029528387
0.522089 0.060084641 0.02895285
0.52129114 0.061012369 0.028377295
0.52131712 0.061867625 0.028372083
0.52051932 0.062800132 0.027796462
0.51972169 0.063735828 0.027220858
0.51974779 0.064594269 0.027215626
0.51895028 0.065534741 0.026639991
0.51897639 0.066394769 0.026634749
0.51817906 0.067340024 0.026059087
0.51738173 0.06828846 0.02548337
0.51658452 0.069240071 0.024907669
0.5166108 0.070104882 0.024902398
0.51581383 0.071061283 0.024326667
0.51584011 0.071927689 0.024321388
0.51504326 0.072888859 0.023745628
0.51424646 0.073853217 0.023169847
0.51344973 0.074820772 0.022594012
0.51347619 0.075691953 0.022588704
0.5126797 0.076664276 0.022012876
0.51188326 0.077639781 0.02143703
0.51108688 0.078618474 0.020861164
0.51029062 0.079600357 0.020285275
0.50949442 0.08058542 0.019709338
0.50952113 0.081464566 0.019703981
0.50872517 0.082454413 0.019128043
0.50792921 0.083447434 0.018552089
0.50713342 0.084443651 0.017976116
0.50716031 0.085327573 0.01797073
0.50636458 0.086328566 0.017394692
0.50556898 0.087332748 0.016818671
0.50559592 0.088219851 0.016813265
0.5048005 0.089228809 0.01623721
0.50400519 0.09024094 0.015661141
0.50320995 0.091256268 0.015085051
0.50241476 0.092274785 0.014508907
0.50161976 0.093296476 0.013932779
0.50000262 0.094451167 0.012785934
0.49756357 0.095743634 0.011068315
0.49430278 0.097178653 0.0087799225
0.49186438 0.09849181 0.007062213
0.52512318 0.033508375 0.030738611
0.52514893 0.034355666 0.030733448
0.52517468 0.035202961 0.030728284
0.52602464 0.03602241 0.031294428
0.52605033 0.03686811 0.031289272
0.52690023 0.037682783 0.031855445
0.52692586 0.038526893 0.031850301
0.52695149 0.039370999 0.031845156
0.52780116 0.040179301 0.032411367
0.52782679 0.041021813 0.032406233
0.52785242 0.041864328 0.0324011
0.52787799 0.042706843 0.032395966
0.52790362 0.043549355 0.032390833
0.52792925 0.04439187 0.032385699
0.52795482 0.045234386 0.032380562
0.52798045 0.046076898 0.032375429
0.52800602 0.046919413 0.032370295
0.52803165 0.047761928 0.032365162
0.52723372 0.048656173 0.031788576
0.52725941 0.049500279 0.031783432
0.52646166 0.050399303 0.031206818
0.52648735 0.051245 0.031201664
0.52568972 0.0521488 0.030625021
0.52571547 0.052996095 0.030619858
0.52491796 0.053904675 0.030043153
0.52494377 0.054753561 0.030037981
0.52414644 0.055666916 0.029461278
0.52417231 0.056517396 0.029456096
0.52337509 0.057435531 0.028879365
0.52340102 0.058287598 0.028874172
0.52260399 0.059210513 0.028297413
0.52180707 0.060136609 0.027720632
0.52183306 0.060991865 0.02771542
0.52103621 0.061922744 0.027138578
0.52023953 0.062856808 0.02656175
0.52026558 0.063715249 0.026556518
0.51946908 0.064654082 0.025979662
0.51867259 0.065596111 0.025402784
0.51869881 0.066457734 0.025397534
0.51790243 0.067404546 0.024820596
0.51710624 0.068354532 0.024243671
0.51713252 0.069219343 0.024238402
0.51633644 0.070174105 0.023661448
0.51636279 0.071040511 0.023656167
0.51556689 0.072000057 0.023079185
0.51477104 0.072962783 0.022502182
0.51397526 0.073928706 0.021925125
0.51400173 0.07479988 0.021919817
0.51320618 0.075770572 0.021342766
0.5124107 0.076744452 0.020765694
0.51161528 0.077721514 0.020188604
0.51081997 0.078701757 0.019611495
0.51002473 0.079685204 0.019034334
0.51005149 0.080564342 0.019028977
0.50925642 0.081552558 0.018451819
0.50846148 0.082543954 0.017874641
0.50766665 0.083538532 0.017297445
0.50769347 0.084422454 0.017292058
0.5068987 0.085421823 0.016714796
0.50610411 0.086424366 0.016137552
0.50613105 0.087311476 0.016132146
0.50533664 0.088318802 0.015554871
0.50454223 0.089329302 0.014977577
0.50374794 0.090342999 0.014400264
0.50295377 0.091359884 0.013822896
0.50215966 0.092379943 0.013245547
0.50054449 0.09353137 0.012096259
0.49892947 0.094689175 0.010946896
0.49567243 0.096116081 0.0086536212
0.49159476 0.097688675 0.0057883263
0.48751757 0.099277191 0.0029229305
0.52396154 0.031833161 0.028948216
0.52481079 0.032662205 0.029515533
0.52566004 0.033488061 0.030082902
0.52568579 0.034335356 0.030077739
0.5265348 0.035156436 0.030645104
0.52656049 0.036002137 0.030639952
0.52658623 0.036847834 0.030634798
0.52743506 0.037662547 0.031202201
0.52746069 0.038506653 0.031197056
0.52748638 0.039350759 0.031191913
0.52833503 0.040159103 0.031759355
0.52836061 0.041001614 0.031754222
0.52838624 0.04184413 0.031749088
0.52841187 0.042686645 0.031743955
0.52843744 0.043529157 0.031738821
0.52846307 0.044371672 0.031733688
0.52848864 0.045214187 0.031728551
0.52851427 0.046056699 0.031723417
0.5285399 0.046899214 0.031718284
0.52774292 0.047791827 0.031140475
0.52776861 0.048635934 0.031135332
0.52697182 0.049533326 0.030557496
0.52699751 0.050379027 0.030552343
0.52620083 0.051281195 0.029974476
0.52622658 0.052128486 0.029969312
0.52543002 0.053035442 0.029391384
0.52545583 0.053884324 0.029386211
0.52465945 0.054796051 0.028808286
0.52468532 0.055646528 0.028803103
0.52388912 0.056563031 0.028225148
0.52391499 0.057415102 0.028219957
0.52311891 0.058336381 0.027641973
0.52232295 0.059260849 0.027063971
0.52234894 0.060116105 0.02705876
0.5215531 0.061045352 0.026480693
0.52075732 0.061977785 0.025902644
0.52078342 0.062836222 0.025897413
0.51998788 0.063773431 0.025319332
0.51919234 0.064713821 0.024741232
0.51921856 0.065575451 0.024735982
0.51842314 0.066520624 0.02415782
0.51762789 0.067468986 0.023579672
0.51765418 0.068333797 0.023574403
0.51685911 0.069286928 0.022996226
0.51606411 0.070243247 0.02241803
0.51609045 0.071111247 0.022412742
0.51529562 0.072072349 0.021834515
0.5145008 0.073036633 0.021256236
0.51452726 0.073907815 0.021250928
0.51373267 0.074876875 0.020672653
0.51293814 0.075849123 0.020094359
0.51214367 0.076824553 0.019516047
0.51217031 0.077700511 0.019510711
0.51137602 0.078680716 0.018932367
0.51058179 0.079664126 0.018353973
0.50978774 0.080650702 0.017775591
0.50899374 0.081640467 0.01719719
0.50902057 0.082522802 0.017191814
0.50822669 0.083517343 0.016613383
0.50743288 0.084515072 0.016034901
0.50745982 0.085400589 0.016029505
0.50666618 0.086403094 0.015451027
0.50587273 0.087408796 0.014872532
0.50507927 0.088417664 0.014294014
0.50428599 0.089429729 0.013715478
0.50349271 0.090444982 0.013136889
0.50187933 0.091588371 0.011985186
0.50026613 0.092738129 0.010833439
0.49865305 0.093894258 0.0096816234
0.49704024 0.095056757 0.0085298028
0.49296731 0.096619606 0.0056584016
0.48807481 0.09833131 0.002213689
0.48400289 0.099927604 -0.00065791572
0.52450043 0.031812768 0.028290039
0.52534866 0.03264185 0.028858587
0.52537447 0.033490736 0.028853415
0.52622265 0.034315042 0.02942203
0.5262484 0.035162333 0.029416867
0.52709639 0.03598186 0.029985473
0.52794427 0.036798202 0.030554099
0.5279699 0.037642308 0.030548954
0.52799559 0.038486417 0.030543812
0.52802122 0.039330523 0.030538667
0.52804685 0.04017463 0.030533524
0.52889448 0.040981416 0.03110221
0.52892005 0.041823931 0.031097077
0.52894568 0.042666443 0.031091943
0.52897125 0.043508958 0.031086808
0.52899688 0.04435147 0.031081675
0.52902251 0.045193985 0.031076541
0.52822649 0.046083376 0.030497517
0.52825212 0.046927486 0.030492375
0.52827781 0.047771592 0.03048723
0.52748197 0.048667353 0.029908171
0.52750766 0.049513053 0.029903017
0.52671194 0.05041359 0.02932393
0.52673769 0.051260881 0.029318767
0.52594209 0.052166201 0.028739613
0.5259679 0.053015087 0.028734438
0.52517253 0.053925183 0.028155293
0.52519834 0.054775659 0.02815011
0.5244031 0.055690531 0.027570935
0.52442902 0.056542601 0.027565742
0.5236339 0.057462253 0.026986536
0.52283889 0.058385089 0.026407311
0.52286488 0.059240345 0.026402099
0.52206993 0.060167965 0.025822813
0.52127516 0.061098762 0.025243536
0.52130127 0.061957203 0.025238305
0.52050662 0.06289278 0.024659004
0.51971209 0.063831545 0.02407968
0.51891762 0.064773493 0.023500305
0.51894385 0.065636709 0.023495045
0.51814955 0.06658344 0.022915676
0.5181759 0.067448251 0.022910405
0.51738173 0.068399757 0.022331003
0.51658767 0.069354437 0.021751586
0.51579374 0.070312314 0.021172149
0.51582015 0.071181901 0.02116685
0.51502633 0.072144568 0.020587346
0.51423258 0.073110402 0.02000786
0.5142591 0.073983178 0.02000254
0.51346558 0.074953794 0.019423027
0.51267213 0.075927593 0.018843489
0.51269871 0.07680355 0.01883815
0.51190543 0.077782132 0.018258587
0.51111215 0.078763895 0.01767897
0.51031899 0.079748854 0.017099364
0.51034576 0.080629587 0.017093997
0.50955278 0.081619315 0.016514366
0.50875992 0.082612224 0.015934711
0.50796705 0.083608329 0.015355007
0.507994 0.084493846 0.015349611
0.50720131 0.085494719 0.014769912
0.50640881 0.086498782 0.01419019
0.50561637 0.087506033 0.013610451
0.50482398 0.088516459 0.013030694
0.50403172 0.089530088 0.012450879
0.50242019 0.090670206 0.01129673
0.50080895 0.091816701 0.010142541
0.49837857 0.093096085 0.0084139062
0.49676767 0.094256915 0.0072595938
0.49433792 0.095553815 0.0055308868
0.49027023 0.097122848 0.0026532833
0.48620301 0.098707803 -0.00022441731
0.52252293 0.030141158 0.025917422
0.52337044 0.030978242 0.026487155
0.52503932 0.03179238 0.027631862
0.52506512 0.032642856 0.027626678
0.52591234 0.033470385 0.028196471
0.52593815 0.03431927 0.028191296
0.52678525 0.035142019 0.028761152
0.52763224 0.035961583 0.029330991
0.52765793 0.036807284 0.029325839
0.52768362 0.037652984 0.029320685
0.52853042 0.038466178 0.029890563
0.52855605 0.039310284 0.029885421
0.52858174 0.04015439 0.029880276
0.5294283 0.040961217 0.030450197
0.52945393 0.041803729 0.030445062
0.5294795 0.042646244 0.030439928
0.52950513 0.04348876 0.030434795
0.52871001 0.044374924 0.029854557
0.52873564 0.04521903 0.029849414
0.52876133 0.04606314 0.029844269
0.52878696 0.046907246 0.029839126
0.52799213 0.047801375 0.029258844
0.52801782 0.048647076 0.02925369
0.52722305 0.049545985 0.028673379
0.5272488 0.050393276 0.028668215
0.52645421 0.051296964 0.028087839
0.52648002 0.05214585 0.028082667
0.52568555 0.053054314 0.027502296
0.52571142 0.05390479 0.027497115
0.52491713 0.054818034 0.026916716
0.52412289 0.055734459 0.026336297
0.52414888 0.056588124 0.026331095
0.52335477 0.057509329 0.025750648
0.52256078 0.058433723 0.025170146
0.52258682 0.059290569 0.025164925
0.52179301 0.060219742 0.024584429
0.52099931 0.061152093 0.02400391
0.52102548 0.062012125 0.02399867
0.5202319 0.062949255 0.023418125
0.51943839 0.063889578 0.022837525
0.51946461 0.064752795 0.022832265
0.51867127 0.065697894 0.022251673
0.51787806 0.066646174 0.02167106
0.51790434 0.067512579 0.021665782
0.5171113 0.068465635 0.021085139
0.51631832 0.06942188 0.020504478
0.51634473 0.070291467 0.020499179
0.51555181 0.071252495 0.019918455
0.51475906 0.072216704 0.019337745
0.51396644 0.073184095 0.018757015
0.51399302 0.074058458 0.018751688
0.51320052 0.075030632 0.01817093
0.51240808 0.07600598 0.01759015
0.51243478 0.07688354 0.017584803
0.51164246 0.077863671 0.017003961
0.51085031 0.078846991 0.016423134
0.51087707 0.079727732 0.016417768
0.51008505 0.080715828 0.015836913
0.50929314 0.081707112 0.015256038
0.50931996 0.082591034 0.015250651
0.50852817 0.083587103 0.014669713
0.5077365 0.084586345 0.01408879
0.50694489 0.085588776 0.013507848
0.5061534 0.086594388 0.012926886
0.50536203 0.087603189 0.012345904
0.50375223 0.088735282 0.011189303
0.5029611 0.089752048 0.010608271
0.50135177 0.09089528 0.0094516361
0.49892429 0.092169769 0.0077193333
0.49649709 0.09345381 0.0059869722
0.49407026 0.094747409 0.0042545847
0.49164364 0.09605056 0.0025221072
0.48839927 0.097494528 0.00021393776
0.48515528 0.098951221 -0.0020943123
0.52055091 0.028450208 0.023537491
0.52139765 0.029295294 0.02410841
0.52306485 0.030120652 0.02525555
0.52391136 0.030957775 0.025826516
0.52475774 0.031791713 0.026397498
0.52560401 0.032622464 0.026968503
0.52645022 0.033450034 0.027539527
0.52647603 0.034298915 0.027534354
0.52732211 0.035121705 0.028105443
0.52734786 0.035968997 0.02810028
0.52819377 0.036787007 0.028671363
0.52821952 0.037632708 0.028666209
0.52906525 0.038445942 0.029237319
0.52909094 0.039290048 0.029232174
0.52993655 0.040098503 0.029803315
0.52996212 0.040941015 0.029798182
0.52998775 0.04178353 0.029793048
0.53001338 0.042626046 0.029787913
0.52921921 0.043510582 0.029206457
0.52924484 0.044354688 0.029201312
0.52927053 0.045198794 0.029196169
0.52929616 0.046042901 0.029191025
0.52850223 0.046935402 0.028609522
0.52852798 0.047781099 0.028604368
0.52773416 0.04867838 0.028022833
0.52775991 0.049525671 0.02801767
0.52696627 0.050427727 0.02743607
0.52699208 0.051276613 0.027430898
0.52619857 0.052183446 0.026849303
0.52622443 0.053033926 0.026844122
0.5254311 0.053945538 0.026262499
0.52463788 0.054860331 0.025680861
0.52466381 0.055713993 0.025675658
0.52387071 0.056633569 0.025093988
0.52307767 0.057556331 0.024512261
0.52310371 0.058413181 0.02450704
0.52231085 0.059340719 0.023925321
0.52151811 0.060271442 0.023343582
0.52154428 0.061131474 0.02333834
0.52075166 0.062066972 0.022756573
0.51995909 0.063005663 0.022174753
0.51998532 0.06386888 0.022169493
0.51919293 0.064812347 0.021587675
0.51840067 0.065758996 0.021005841
0.51842701 0.066625401 0.02100056
0.51763487 0.067576833 0.020418696
0.51684284 0.068531446 0.019836811
0.51605088 0.069489241 0.019254874
0.51607734 0.070360422 0.019249566
0.51528555 0.071323 0.018667633
0.51449388 0.072288767 0.018085681
0.51452047 0.073163129 0.018080352
0.51372892 0.074133672 0.01749837
0.51293749 0.075107396 0.01691637
0.51296413 0.075984947 0.016911022
0.51217276 0.076963454 0.016328961
0.51138157 0.077945136 0.01574691
0.51140833 0.078825876 0.015741544
0.51061732 0.079812348 0.015159464
0.5098263 0.080801994 0.014577366
0.50985318 0.081685923 0.014571981
0.50906235 0.082680352 0.013989818
0.50827163 0.083677962 0.013407672
0.50829858 0.084565073 0.013402265
0.50750798 0.085567467 0.012820093
0.5067175 0.086573042 0.012237898
0.50510967 0.087700285 0.011078859
0.50350201 0.088833883 0.0099198157
0.50189459 0.089973859 0.0087607373
0.49946997 0.091243453 0.0070247636
0.49704567 0.092522606 0.0052887346
0.49462172 0.093811303 0.0035526792
0.48977455 0.09641739 8.0329984e-05
0.48735148 0.097734757 -0.0016558999
0.51940405 0.026729785 0.021727646
0.52025002 0.027581278 0.022299791
0.52194154 0.029274711 0.023444073
0.52278715 0.030116651 0.024016241
0.52363276 0.030955404 0.024588466
0.5244782 0.031790972 0.025160672
0.52532351 0.032623354 0.025732901
0.52616876 0.033452552 0.026305145
0.5270139 0.034278564 0.026877413
0.52703971 0.03512745 0.02687224
0.52788472 0.035948683 0.027444569
0.52872962 0.03676673 0.028016884
0.52875537 0.037612431 0.028011732
0.52960008 0.038425703 0.028584076
0.52962577 0.039269809 0.028578933
0.5296514 0.040113918 0.028573789
0.530496 0.040920816 0.02914617
0.53052157 0.041763332 0.029141035
0.5305472 0.042605847 0.029135901
0.52975404 0.043490343 0.028553214
0.52977967 0.044334449 0.028548069
0.52980536 0.045178559 0.028542927
0.52901238 0.046069425 0.027960196
0.52903813 0.046915125 0.027955042
0.52824527 0.047810771 0.027372284
0.52827108 0.048658065 0.027367121
0.52747834 0.049558491 0.026784301
0.52750415 0.050407376 0.026779128
0.52671164 0.051312577 0.026196312
0.52673745 0.052163053 0.026191128
0.52594507 0.053073037 0.025608286
0.525971 0.053925108 0.025603093
0.52517879 0.054839864 0.025020218
0.52438664 0.055757806 0.024437327
0.52359456 0.056678943 0.023854377
0.52362061 0.05753579 0.023849156
0.5228287 0.058461696 0.023266215
0.52203691 0.059390787 0.022683254
0.52206302 0.060250822 0.022678012
0.52127141 0.061184689 0.022095021
0.5204798 0.062121753 0.021511978
0.51968837 0.06306199 0.020928947
0.51971465 0.063926801 0.020923676
0.51892334 0.064871825 0.02034062
0.51813209 0.065820023 0.019757541
0.5181585 0.066688016 0.019752251
0.51736742 0.067641005 0.019169146
0.51657641 0.068597175 0.018585984
0.51660287 0.069468357 0.018580675
0.51581204 0.070429303 0.017997522
0.51502132 0.07139343 0.017414344
0.51423067 0.072360754 0.016831152
0.51425731 0.073236711 0.016825814
0.51346684 0.074208803 0.01624259
0.51267642 0.075184084 0.015659314
0.51270312 0.076063231 0.015653957
0.51191288 0.077043287 0.015070683
0.51193964 0.077924021 0.015065316
0.51114953 0.078908861 0.014482014
0.51035953 0.079896882 0.013898695
0.51038641 0.080780804 0.013893309
0.50959653 0.081773609 0.013309923
0.50880677 0.082769588 0.012726556
0.50883371 0.083656698 0.01272115
0.50804406 0.08465746 0.01213775
0.50725454 0.085661404 0.011554334
0.50646514 0.086668536 0.010970896
0.50404292 0.087915719 0.0092313616
0.50243741 0.089052431 0.0080698356
0.50001568 0.090317138 0.0063301967
0.49841055 0.091468185 0.0051685488
0.49275234 0.094168574 0.0011109603
0.4903318 0.095471501 -0.00062891433
0.48791158 0.096783973 -0.0023688122
0.5182609 0.024996467 0.019912982
0.51910597 0.02585437 0.020486286
0.51995099 0.026709089 0.02105961
0.52079594 0.027560622 0.02163299
0.52082217 0.028422246 0.021627739
0.52166688 0.029269002 0.022201112
0.5225116 0.030112572 0.022774503
0.52335614 0.030952957 0.023347912
0.52420068 0.031790152 0.023921382
0.52504504 0.032624166 0.024494831
0.52588934 0.033454996 0.0250683
0.52673352 0.03428264 0.02564179
0.52757758 0.035107099 0.026215298
0.52842164 0.035928369 0.026788861
0.52926552 0.036746457 0.027362406
0.52929121 0.037592154 0.027357252
0.53013498 0.038405467 0.027930832
0.53016061 0.039249573 0.027925687
0.53018624 0.040093679 0.027920544
0.53102982 0.040900618 0.028494159
0.53105545 0.041743133 0.028489023
0.53026325 0.042625997 0.027905112
0.53028888 0.043470107 0.027899969
0.53031456 0.044314213 0.027894825
0.52952254 0.045203451 0.027310872
0.52954829 0.046049152 0.027305719
0.52875638 0.046943165 0.026721738
0.52878219 0.047790457 0.026716575
0.5279904 0.048689254 0.026132531
0.52801621 0.049538139 0.026127359
0.52722466 0.050441712 0.025543321
0.52725053 0.051292188 0.025538139
0.5264591 0.052200537 0.024954069
0.52648497 0.053052608 0.024948876
0.52569371 0.053965736 0.024364781
0.52490252 0.05488205 0.023780664
0.52492857 0.055737302 0.023775453
0.5241375 0.056658398 0.023191271
0.52334654 0.057582676 0.022607107
0.52255571 0.058510136 0.022022923
0.52258182 0.059370168 0.022017684
0.52179116 0.060302407 0.021433471
0.5210005 0.061237834 0.020849202
0.52021003 0.062176444 0.02026495
0.52023631 0.063041255 0.02025968
0.51944596 0.063984647 0.0196754
0.51865572 0.064931221 0.019091098
0.51786554 0.065880977 0.018506778
0.517892 0.066750564 0.018501479
0.51710194 0.06770511 0.017917095
0.516312 0.06866283 0.017332727
0.51633853 0.069535606 0.017327409
0.51554877 0.070498101 0.01674301
0.51475912 0.071463786 0.016158594
0.51478571 0.072339751 0.016153255
0.51399618 0.073310211 0.01556881
0.51320672 0.074283861 0.014984311
0.51323342 0.075163007 0.014978953
0.51244414 0.076141432 0.014394457
0.51165497 0.077123046 0.013809943
0.5116818 0.078005373 0.013804566
0.51089275 0.078991763 0.013220023
0.51091963 0.079875685 0.013214638
0.51013064 0.080866858 0.012630028
0.5093419 0.081861213 0.012045437
0.50936884 0.082748324 0.012040031
0.50858015 0.083747454 0.011455411
0.50779164 0.084749766 0.010870771
0.50700313 0.085755266 0.01028611
0.50539929 0.086880758 0.0091221537
0.50298017 0.088131011 0.0073789367
0.50137675 0.089270838 0.0062148902
0.49895817 0.090538613 0.0044715349
0.49330667 0.09322758 0.00040538391
0.49088901 0.094525613 -0.0013381558
0.51880985 0.024975695 0.019242482
0.51965398 0.025833637 0.019817021
0.52049798 0.026688393 0.020391576
0.5205242 0.027551612 0.020386316
0.52136809 0.028401589 0.020960936
0.52221185 0.029248383 0.021535542
0.52305549 0.03009199 0.022110166
0.5230816 0.030950431 0.022104936
0.52392513 0.031789262 0.02267959
0.52558595 0.0326037 0.023834191
0.52642918 0.033434566 0.024408894
0.5272724 0.034262251 0.024983615
0.52811545 0.035086747 0.025558356
0.5289585 0.035908055 0.026133152
0.52898425 0.036755346 0.026127988
0.52982706 0.037571881 0.026702777
0.53066981 0.038385227 0.027277587
0.53069544 0.039229333 0.027272442
0.53072113 0.040073443 0.027267298
0.53074676 0.040917549 0.027262155
0.53077245 0.041761655 0.02725701
0.53079808 0.042605761 0.027251868
0.53082377 0.043449868 0.027246723
0.5308494 0.044293974 0.02724158
0.53005838 0.045183174 0.026656397
0.53008413 0.046028875 0.026651243
0.5292933 0.046922851 0.026066029
0.52931905 0.047770143 0.026060866
0.52852827 0.048668902 0.02547559
0.52855408 0.049517788 0.025470417
0.52776355 0.05042132 0.024885146
0.52697307 0.051328041 0.024299856
0.526999 0.052180108 0.024294663
0.5262087 0.053091608 0.023709344
0.52541846 0.05400629 0.023124004
0.52544445 0.054861542 0.023118792
0.52465433 0.055781007 0.022533391
0.52386439 0.056703653 0.021948002
0.5238905 0.057562094 0.021942772
0.52310061 0.058489516 0.021357354
0.52231091 0.059420124 0.020771919
0.52152121 0.060353924 0.020186428
0.52073169 0.061290901 0.019600954
0.52075797 0.062155712 0.019595683
0.51996857 0.06309747 0.019010179
0.51917928 0.064042412 0.018424656
0.51839012 0.064990543 0.017839113
0.51841652 0.06586013 0.017833814
0.51762742 0.066813037 0.017248208
0.51683849 0.067769125 0.016662616
0.51604962 0.068728402 0.016077004
0.51607621 0.069602773 0.016071677
0.51528752 0.070566826 0.015486037
0.5153141 0.071442783 0.015480699
0.51452559 0.072411619 0.014895028
0.51373702 0.073383637 0.014309307
0.51294869 0.074358843 0.013723599
0.51297545 0.075239576 0.013718233
0.51218724 0.076219559 0.013132492
0.51221406 0.077101886 0.013127116
0.51142597 0.078086652 0.01254135
0.51145279 0.078970574 0.012535963
0.51066482 0.079960115 0.011950136
0.50987703 0.080952838 0.011364321
0.50990397 0.081839941 0.011358916
0.50911629 0.082837448 0.010773069
0.50832868 0.083838128 0.010187206
0.50754118 0.084841996 0.0096013239
0.50675374 0.085849062 0.0090153869
0.50515193 0.086976059 0.0078489883
0.50192147 0.088346153 0.0055215438
0.5003202 0.08948908 0.0043550488
0.49467531 0.092163458 0.00028032591
0.49144626 0.093579732 -0.0020474002
0.50699854 0.021496221 0.0098779825
0.51933253 0.024088519 0.018577259
0.51935887 0.024954922 0.01857198
0.52020192 0.025812902 0.01914775
0.52022821 0.026677713 0.019142481
0.52107114 0.027530916 0.01971828
0.52191406 0.02838093 0.020294134
0.52194023 0.029242557 0.020288883
0.52278292 0.030087797 0.020864729
0.52362555 0.03092985 0.021440595
0.524468 0.031768717 0.022016482
0.52531046 0.0326044 0.022592423
0.52615279 0.033436898 0.023168348
0.52781129 0.034241859 0.02432544
0.52865332 0.035066392 0.024901414
0.52949536 0.035887741 0.025477439
0.53033721 0.036705904 0.026053453
0.5303629 0.037551604 0.026048299
0.53120464 0.038364992 0.026624341
0.53123033 0.039209098 0.026619198
0.53125596 0.040053204 0.026614053
0.53128159 0.04089731 0.02660891
0.53130728 0.041741416 0.026603766
0.53133291 0.042585522 0.026598623
0.5313586 0.043429632 0.026593478
0.53056854 0.044317201 0.026007071
0.53059429 0.045162898 0.026001917
0.52980441 0.046055246 0.025415482
0.52983016 0.046902537 0.025410319
0.52904034 0.047799665 0.02482382
0.52906615 0.048648551 0.024818648
0.52827656 0.049550451 0.024232153
0.52830243 0.050400931 0.024226971
0.52751297 0.051307611 0.023640446
0.52672362 0.052217476 0.023053903
0.5259344 0.05313053 0.022467343
0.52596039 0.053985782 0.022462131
0.52517122 0.054903615 0.021875506
0.52438223 0.05582463 0.021288894
0.52440828 0.056683071 0.021283664
0.52361941 0.057608861 0.020697024
0.52283067 0.058537841 0.020110367
0.52204198 0.059470005 0.019523652
0.5220682 0.060333226 0.019518392
0.52127969 0.061270166 0.018931683
0.52049124 0.062210292 0.018344956
0.51970291 0.063153602 0.017758211
0.5189147 0.064100102 0.017171446
0.5189411 0.064969689 0.017166147
0.51815295 0.065920971 0.016579315
0.51736498 0.066875428 0.015992504
0.51657706 0.067833073 0.01540567
0.51660365 0.068707436 0.015400342
0.51581591 0.069669865 0.014813478
0.51502824 0.070635475 0.014226595
0.51505494 0.071513027 0.014221247
0.51426739 0.07248342 0.013634304
0.51347995 0.073456988 0.013047372
0.51350671 0.074337728 0.013042005
0.51271945 0.075316072 0.012455044
0.51193231 0.076297611 0.011868064
0.51195914 0.077181533 0.011862678
0.51117212 0.078167848 0.011275637
0.511199 0.079053365 0.011270241
0.51041216 0.080044463 0.010683203
0.5104391 0.080931567 0.010677797
0.50965238 0.081927434 0.01009073
0.50886571 0.082926489 0.009503643
0.50889277 0.083816782 0.0094982181
0.50729269 0.08493416 0.0083293794
0.50569284 0.086057901 0.0071605342
0.50409317 0.087188013 0.0059916531
0.50086683 0.088561133 0.0036592586
0.49845427 0.089827083 0.0019085159
0.49522868 0.091224097 -0.00042402398
0.49281672 0.092510752 -0.0021748927
0.51985514 0.023201343 0.01791204
0.51988149 0.024067746 0.017906759
0.51990783 0.02493415 0.01790148
0.52074993 0.025792168 0.018478483
0.52077621 0.02665698 0.018473214
0.5208025 0.027521791 0.018467944
0.52164435 0.028373439 0.019044984
0.52248621 0.0292219 0.01962208
0.52332789 0.030067177 0.020199159
0.52416945 0.030909268 0.020776261
0.52501094 0.031748176 0.021353377
0.52585238 0.032583896 0.021930551
0.5266937 0.033416431 0.022507709
0.52835011 0.03422147 0.023667265
0.5291912 0.035046041 0.024244472
0.53003222 0.035867427 0.02482173
0.53087306 0.036685627 0.025398973
0.53089875 0.037531327 0.025393821
0.53173947 0.038344752 0.025971096
0.53176516 0.039188858 0.025965953
0.53179079 0.040032968 0.025960809
0.53181648 0.040877074 0.025955664
0.53184211 0.04172118 0.025950521
0.5318678 0.042565286 0.025945377
0.53189343 0.043409392 0.025940234
0.53110445 0.044296924 0.025352594
0.53113014 0.045142625 0.02534744
0.53034127 0.046034932 0.024759773
0.53036702 0.046882223 0.02475461
0.52957821 0.047779314 0.024166878
0.52878958 0.048679586 0.02357916
0.52881545 0.049530063 0.023573978
0.528027 0.050435111 0.022986233
0.52805287 0.051287182 0.02298104
0.52726454 0.052197009 0.022393264
0.52647626 0.053110022 0.021805471
0.52568811 0.054026224 0.021217622
0.52571416 0.054883074 0.021212399
0.52492613 0.055804048 0.020624558
0.52413821 0.05672821 0.020036694
0.52335042 0.057655558 0.019448813
0.52256268 0.058586091 0.018860877
0.52258891 0.059449311 0.018855616
0.52180135 0.060384624 0.018267687
0.52101386 0.061323117 0.017679736
0.5210402 0.062189519 0.017674455
0.52025288 0.063132793 0.017086478
0.51946568 0.064079255 0.016498478
0.51867849 0.065028898 0.015910428
0.51789147 0.065981731 0.015322389
0.51710451 0.066937745 0.014734334
0.51713109 0.067812115 0.014729006
0.51634431 0.068772905 0.014140922
0.51555765 0.069736883 0.013552816
0.51558429 0.070614435 0.013547468
0.51479769 0.071583189 0.0129593
0.51401126 0.07255514 0.012371145
0.51403803 0.073435873 0.012365778
0.51325172 0.074412592 0.011777597
0.51246548 0.075392492 0.011189393
0.51249236 0.076276422 0.011184007
0.51170623 0.077261105 0.010595742
0.51092029 0.07824897 0.01000749
0.51094729 0.079136081 0.010002084
0.51097423 0.080023192 0.0099966787
0.51018846 0.081017427 0.0094083901
0.50940275 0.082014851 0.0088200802
0.50942981 0.082905143 0.0088146552
0.50864428 0.083907343 0.0082263183
0.50704628 0.085026234 0.0070550037
0.50463599 0.086266585 0.0053007514
0.50303841 0.087399811 0.004129352
0.49981621 0.08877597 0.0017920078
0.49659443 0.090164863 -0.00054541399
0.52040416 0.02318057 0.017241539
0.5212453 0.024041811 0.017819755
0.52045679 0.024913378 0.01723098
0.52129787 0.025771433 0.017809214
0.52132416 0.026636245 0.017803945
0.52135044 0.027501058 0.017798675
0.52219129 0.028352743 0.01837695
0.52221757 0.029215962 0.01837169
0.5230583 0.030062869 0.018950026
0.52389896 0.030906592 0.019528348
0.52555388 0.031727631 0.020690272
0.52639431 0.032563388 0.021268679
0.52723461 0.033395965 0.021847069
0.528889 0.034201078 0.023009088
0.52972907 0.03502569 0.023587527
0.53056908 0.035847113 0.024166021
0.53140891 0.036665354 0.024744499
0.53143466 0.037511051 0.024739346
0.53227437 0.038324516 0.025317851
0.5323 0.039168622 0.025312707
0.53232563 0.040012728 0.025307564
0.53235132 0.040856835 0.025302419
0.53237695 0.041700941 0.025297277
0.53240263 0.042545047 0.025292132
0.53161454 0.04343095 0.024703272
0.53164029 0.044276647 0.024698118
0.53085238 0.045167327 0.024109228
0.53087813 0.046014618 0.024104064
0.53009033 0.046910077 0.023515107
0.53011608 0.047758959 0.023509933
0.52932847 0.048659194 0.022920985
0.52935433 0.049509671 0.022915803
0.52856684 0.050414685 0.022326825
0.52777946 0.051322881 0.021737827
0.5269922 0.052234262 0.02114881
0.52701819 0.053089518 0.021143598
0.52623099 0.054005682 0.020554515
0.52544397 0.054925028 0.019965449
0.52465701 0.055847555 0.019376365
0.52468318 0.056707591 0.019371124
0.5238964 0.057634901 0.01878201
0.52310961 0.058565397 0.018192843
0.52232301 0.059499074 0.017603688
0.5223493 0.060363889 0.017598417
0.52156287 0.061302345 0.017009236
0.52077651 0.062243987 0.016420035
0.51999021 0.063188814 0.015830815
0.51920402 0.064136833 0.015241539
0.51923048 0.065008014 0.015236231
0.51844448 0.065960802 0.014646959
0.51765853 0.066916779 0.014057671
0.5168727 0.067875944 0.013468362
0.516087 0.068838291 0.012879035
0.51611364 0.069715843 0.012873688
0.51532805 0.070682973 0.012284297
0.51454252 0.071653277 0.011694918
0.51456928 0.072534017 0.011689551
0.51378399 0.073509112 0.011100146
0.5129987 0.074487381 0.010510722
0.51302558 0.075371303 0.010505335
0.51224041 0.076354362 0.0099158473
0.51145542 0.077340595 0.0093263742
0.51148242 0.078227706 0.0093209688
0.51069754 0.079218715 0.0087314639
0.51072454 0.080107421 0.0087260483
0.50993985 0.081103213 0.0081365174
0.50915521 0.082102194 0.0075469669
0.50918233 0.082994074 0.0075415317
0.50758624 0.084109709 0.0063677728
0.50599033 0.085231707 0.005194007
0.50358313 0.086475126 0.0034360059
0.5019877 0.087611452 0.0022621527
0.49876967 0.088990644 -8.0141312e-05
0.52095312 0.023159798 0.016571037
0.52097946 0.024026202 0.016565757
0.52181953 0.024885889 0.017145215
0.52184582 0.0257507 0.017139945
0.5218721 0.026615512 0.017134676
0.52189839 0.027480323 0.017129404
0.52273828 0.028332047 0.017708911
0.5227645 0.029195266 0.017703651
0.52441776 0.030025939 0.018868018
0.52525729 0.030868106 0.019447582
0.52609676 0.031707089 0.020027166
0.52693623 0.032542884 0.020606805
0.52858877 0.033352852 0.021771258
0.52942789 0.03418069 0.022350911
0.53026694 0.035005338 0.022930581
0.53110594 0.035826799 0.023510307
0.53194481 0.036645077 0.024090018
0.5319705 0.037490778 0.024084864
0.5328092 0.038304277 0.024664603
0.53283483 0.039148383 0.024659459
0.53286052 0.039992493 0.024654316
0.53288615 0.040836599 0.024649171
0.53291184 0.041680705 0.024644028
0.5321247 0.042564973 0.024053942
0.53215045 0.043410674 0.02404879
0.53217614 0.044256371 0.024043636
0.53138924 0.045147013 0.023453513
0.53141499 0.045994304 0.02344835
0.5306282 0.046889722 0.022858161
0.52984154 0.047788326 0.02226799
0.52986735 0.048638806 0.022262806
0.52908087 0.049542185 0.021672605
0.52910674 0.050394256 0.021667413
0.52832037 0.051302411 0.021077182
0.52753413 0.052213758 0.020486936
0.52674788 0.053128291 0.01989663
0.52596182 0.054046005 0.019306341
0.52598792 0.054904446 0.019301111
0.52520198 0.055826936 0.018710792
0.52441615 0.056752618 0.018120456
0.52363038 0.057681482 0.017530063
0.52284473 0.058613531 0.016939688
0.52287102 0.059478343 0.016934417
0.52208549 0.060415171 0.016344013
0.52130008 0.061355181 0.015753588
0.52051479 0.062298376 0.015163144
0.52054125 0.063167967 0.015157845
0.51975602 0.064115942 0.014567337
0.51897097 0.065067105 0.013976844
0.51818597 0.06602145 0.013386332
0.5174011 0.066978984 0.0127958
0.51742774 0.067854941 0.012790463
0.51664305 0.06881725 0.012199902
0.51585835 0.069782749 0.011609291
0.51507384 0.070751429 0.011018691
0.5151006 0.071632162 0.011013324
0.5143162 0.072605625 0.010422695
0.51353192 0.073582269 0.0098320479
0.5135588 0.074466191 0.0098266611
0.51277459 0.075447619 0.0092359493
0.51199055 0.076432221 0.0086452533
0.51201755 0.077319324 0.0086398469
0.51123363 0.078308709 0.0080491211
0.51044983 0.079301275 0.0074583767
0.51047689 0.080191575 0.0074529513
0.50969321 0.081188925 0.0068621775
0.50972033 0.082080811 0.0068567423
0.50893676 0.083082937 0.0062659043
0.50734276 0.084200077 0.0050897039
0.50574899 0.085323587 0.0039134645
0.50334483 0.08656849 0.0021517568
0.50013059 0.08793956 -0.00019541904
0.4977271 0.089205176 -0.0019572556
0.52150208 0.023139026 0.015900537
0.52152842 0.02400543 0.015895257
0.52236754 0.024865154 0.016475948
0.52320653 0.025721695 0.017056659
0.52242011 0.026594777 0.016465409
0.52325898 0.027448133 0.017046139
0.52328521 0.028311351 0.017040879
0.52412403 0.029159928 0.01762167
0.52496266 0.030005319 0.018202448
0.52580124 0.030847525 0.018783245
0.5266397 0.031686544 0.019364059
0.5274781 0.03252238 0.019944932
0.52912867 0.033332426 0.021111853
0.52996677 0.034160297 0.021692738
0.53080481 0.034984984 0.022273643
0.53164279 0.035806485 0.022854598
0.53248066 0.0366248 0.023435542
0.53250635 0.037470501 0.023430388
0.53334403 0.038284041 0.02401136
0.53336972 0.039128147 0.024006218
0.53339535 0.039972253 0.024001073
0.53342098 0.040816359 0.02399593
0.53263485 0.041699 0.023404621
0.5326606 0.042544696 0.023399469
0.53268629 0.043390397 0.023394315
0.53190035 0.044279404 0.022802968
0.5319261 0.045126699 0.022797804
0.53114027 0.046020485 0.022206396
0.53116608 0.046869371 0.022201221
0.53038043 0.047767937 0.021609817
0.53040624 0.048618414 0.021604635
0.52962077 0.049521759 0.021013198
0.52883536 0.050428286 0.020421747
0.52805001 0.051337998 0.019830273
0.52726477 0.052250899 0.019238746
0.52729082 0.053107746 0.019233525
0.52650577 0.054025423 0.018642006
0.52572078 0.054946285 0.018050464
0.5249359 0.055870332 0.017458903
0.52415109 0.056797568 0.016867291
0.52417731 0.057660788 0.016862031
0.52339268 0.058592796 0.016270421
0.52260816 0.059527989 0.015678793
0.52263445 0.060394399 0.015673513
0.52185011 0.061334368 0.015081857
0.52106577 0.062277529 0.014490181
