# .PCD v0.7 - Point Cloud Data file format
VERSION 0.7
FIELDS x y z
SIZE 4 4 4
TYPE F F F
COUNT 1 1 1
WIDTH 1394
HEIGHT 1
VIEWPOINT 0 0 0 1 0 0 0
POINTS 1394
DATA ascii
0.49323261 0.09804599 0.051138587
0.49325898 0.098913983 0.051133297
0.49414849 0.099637866 0.051648244
0.49417484 0.10050427 0.051642966
0.49420118 0.10137068 0.051637687
0.49509048 0.10208818 0.052152678
0.49511677 0.102953 0.052147407
0.49514306 0.10381781 0.05214214
0.49603221 0.10452896 0.052657165
0.49605843 0.10539217 0.052651905
0.49608469 0.10625538 0.052646644
0.49611092 0.10711861 0.052641384
0.49613714 0.10798182 0.052636124
0.4961634 0.10884504 0.052630864
0.49532709 0.10987148 0.052105248
0.49535337 0.1107363 0.05209998
0.49537966 0.11160112 0.052094709
0.49454352 0.11263393 0.051569052
0.49370751 0.11366993 0.05104338
0.49287155 0.11470912 0.050517689
0.49289799 0.11557871 0.050512388
0.49292442 0.11644829 0.050507091
0.48065591 0.06527622 0.043378025
0.47895479 0.066327266 0.042330403
0.47811791 0.067302704 0.041803867
0.47814512 0.068197779 0.041798413
0.47730842 0.069177993 0.041271847
0.47733566 0.070074663 0.041266385
0.47736293 0.070971325 0.04126092
0.47739017 0.071867988 0.041255455
0.47741744 0.072764657 0.04124999
0.47744468 0.07366132 0.041244529
0.47833556 0.074463278 0.041760232
0.47836277 0.075358354 0.041754778
0.47838998 0.076253422 0.041749325
0.47928068 0.07704901 0.042265069
0.48017132 0.077841409 0.042780865
0.48019841 0.078733295 0.04277543
0.48108888 0.079520918 0.043291222
0.48111594 0.080411211 0.043285798
0.48200625 0.081194066 0.043801621
0.48203325 0.082082763 0.043796204
0.48292342 0.082860835 0.044312056
0.48381346 0.083635718 0.044827923
0.48470348 0.084407412 0.045343846
0.48473036 0.085291333 0.045338459
0.48562017 0.086058259 0.045854378
0.48564699 0.086940587 0.045849003
0.48653665 0.087702736 0.046364956
0.48656341 0.088583469 0.046359587
0.48745295 0.089340836 0.046875566
0.48747969 0.090219982 0.046870209
0.48836911 0.090972558 0.047386248
0.48925841 0.091721959 0.047902275
0.48928502 0.092597924 0.047896937
0.49017417 0.09334255 0.04841299
0.49020076 0.09421692 0.048407663
0.49108973 0.094956763 0.048923746
0.49197865 0.095693424 0.049439847
0.49200511 0.096564606 0.049434539
0.49289393 0.097296484 0.049950704
0.49292037 0.098166071 0.049945407
0.49294677 0.099035658 0.049940106
0.49383536 0.099761166 0.050456278
0.4947238 0.1004835 0.050972469
0.49475014 0.10134991 0.05096719
0.49477649 0.1022163 0.050961908
0.49566475 0.10293227 0.05147814
0.49569103 0.10379708 0.051472869
0.49571732 0.10466189 0.051467597
0.4957436 0.1055267 0.05146233
0.49576989 0.1063915 0.051457059
0.49579617 0.10725632 0.051451791
0.49582246 0.10812113 0.05144652
0.49584875 0.10898595 0.051441249
0.49587503 0.10985075 0.051435981
0.49590132 0.11071556 0.05143071
0.49506617 0.11174676 0.050903834
0.49509248 0.11261316 0.050898556
0.49425748 0.11364912 0.050371651
0.49342257 0.11468826 0.049844723
0.49344897 0.11555786 0.049839426
0.49261415 0.11660179 0.049312439
0.49264064 0.11747298 0.04930713
0.4803569 0.065333612 0.042166729
0.47865787 0.066386171 0.041116633
0.47868505 0.067281246 0.041111175
0.47871226 0.068176322 0.041105721
0.47787657 0.069156498 0.040577922
0.47704095 0.07013987 0.040050104
0.47706828 0.071038127 0.040044632
0.47709557 0.071936384 0.040039159
0.47712287 0.072834633 0.040033683
0.47715017 0.07373289 0.040028211
0.4780401 0.074536487 0.040545139
0.47892991 0.075336896 0.041062087
0.47895712 0.076231964 0.041056633
0.47898433 0.077127032 0.041051179
0.47987396 0.07792107 0.041568168
0.48076355 0.078711912 0.042085204
0.48079064 0.079603799 0.042079769
0.48168004 0.080389872 0.042596806
0.4817071 0.081280164 0.042591382
0.48259637 0.082061462 0.043108445
0.48348549 0.082839563 0.04362553
0.48351246 0.083726674 0.043620124
0.48440146 0.084500007 0.044137236
0.48529044 0.085270144 0.044654403
0.48531729 0.086154066 0.044649016
0.48620605 0.086919434 0.04516618
0.48623288 0.087801769 0.0451608
0.48712149 0.088562354 0.045677993
0.48714826 0.089443095 0.045672625
0.48803672 0.090198904 0.046189845
0.48806345 0.09107805 0.046184488
0.48895183 0.091829069 0.046701763
0.48984006 0.092576921 0.047219034
0.48986667 0.093452878 0.047213696
0.49075478 0.094195955 0.047730993
0.49078134 0.095070317 0.047725666
0.4916693 0.095808618 0.04824299
0.49169582 0.096681386 0.048237674
0.4925836 0.097414896 0.048755027
0.4926101 0.098286077 0.048749719
0.49349779 0.099014804 0.049267139
0.49352422 0.099884398 0.049261838
0.49441171 0.10060836 0.049779251
0.49529913 0.10132913 0.050296687
0.49532545 0.10219553 0.050291408
0.49535179 0.10306194 0.050286125
0.49537814 0.10392834 0.050280847
0.49626529 0.10464115 0.05079833
0.49629158 0.10550597 0.050793059
0.49631786 0.10637077 0.050787792
0.49634415 0.1072356 0.05078252
0.49637043 0.1081004 0.050777249
0.49639672 0.10896521 0.050771981
0.49556246 0.10999317 0.050243892
0.49558881 0.11085958 0.050238609
0.49561512 0.11172599 0.050233331
0.49478108 0.11276031 0.049705204
0.49394712 0.11379783 0.049177054
0.49397355 0.11466742 0.049171753
0.49313968 0.11570972 0.048643544
0.49316615 0.1165809 0.048638236
0.49319264 0.11745209 0.048632927
0.49235901 0.11850075 0.048104711
0.48175707 0.064343236 0.042005468
0.48005989 0.065390937 0.040952932
0.47836295 0.066445008 0.039900396
0.47839022 0.06734167 0.039894935
0.47755551 0.068321817 0.039365903
0.47758281 0.069220074 0.039360426
0.47674826 0.070204996 0.038831364
0.47677562 0.071104847 0.038825881
0.47680297 0.072004691 0.038820397
0.47683033 0.072904542 0.038814917
0.47685766 0.073804393 0.038809434
0.47774664 0.074609622 0.039327584
0.47863549 0.075411655 0.039845757
0.47866276 0.076308317 0.039840292
0.47955146 0.077105574 0.040358488
0.47957867 0.078000642 0.040353034
0.48046726 0.078793123 0.040871263
0.48135579 0.079582416 0.041389547
0.48138291 0.080474302 0.041384112
0.48227122 0.081258819 0.041902389
0.48229828 0.082149111 0.041896965
0.48318648 0.082928851 0.042415272
0.48407456 0.08370541 0.042933594
0.48410153 0.084592514 0.042928189
0.48498946 0.08536429 0.043446545
0.48587736 0.086132869 0.043964952
0.48590425 0.087016791 0.043959565
0.48679194 0.08778061 0.044477969
0.48767954 0.08854124 0.044996396
0.48770633 0.089421973 0.044991028
0.4877331 0.090302713 0.044985663
0.48862049 0.091056973 0.045504123
0.48864722 0.091936111 0.045498766
0.48953456 0.092685588 0.046017285
0.49042171 0.093431875 0.046535797
0.49044836 0.09430784 0.046530459
0.49133536 0.095049359 0.047049001
0.49136195 0.095923722 0.047043674
0.49224883 0.096660465 0.047562242
0.49227536 0.097533233 0.047556926
0.4931621 0.098265193 0.048075523
0.49318856 0.099136382 0.048070215
0.49407521 0.099863552 0.048588868
0.49410164 0.10073314 0.048583571
0.49498808 0.10145555 0.049102228
0.49501446 0.10232354 0.049096938
0.49590078 0.10304116 0.049615625
0.4959271 0.10390757 0.049610347
0.49595344 0.10477398 0.049605064
0.49597979 0.10564038 0.049599785
0.4960061 0.10650678 0.049594507
0.49603245 0.10737319 0.049589228
0.49605879 0.10823959 0.049583945
0.49608511 0.109106 0.049578667
0.49611145 0.1099724 0.049573388
0.49613777 0.11083881 0.049568109
0.49530467 0.1118715 0.049038757
0.49533108 0.1127395 0.049033467
0.4944981 0.11377698 0.048504084
0.49366522 0.11481766 0.047974657
0.49369168 0.11568883 0.047969349
0.49285898 0.11673427 0.047439918
0.4928855 0.11760705 0.047434598
0.49205294 0.11865728 0.046905141
0.47723639 0.067483872 0.038151436
0.47726372 0.068383723 0.038145952
0.47729108 0.069283567 0.038140468
0.47645754 0.070270054 0.037610132
0.47648492 0.0711715 0.037604641
0.47651234 0.072072938 0.037599146
0.47653973 0.072974376 0.037593655
0.47742784 0.073782817 0.038113054
0.4774552 0.074682675 0.03810757
0.4783431 0.07548634 0.038626958
0.47923091 0.076286823 0.039146375
0.47925815 0.077183485 0.03914091
0.48014581 0.077979185 0.039660353
0.48017302 0.07887426 0.039654899
0.48106053 0.079665184 0.040174372
0.48194802 0.080452919 0.040693894
0.48197511 0.081344806 0.040688459
0.48286238 0.082127772 0.04120798
0.48288944 0.083018064 0.041202553
0.4837766 0.083796248 0.041722104
0.48466364 0.084571242 0.04224167
0.48469058 0.085458353 0.042236265
0.48557746 0.086228579 0.042755865
0.48646432 0.086995602 0.043275513
0.48649117 0.087879531 0.043270126
0.48737782 0.088641793 0.04378977
0.48826438 0.089400858 0.044309437
0.48829114 0.090281598 0.044304069
0.48831791 0.091162339 0.044298705
0.48920426 0.091915034 0.044818409
0.48923099 0.09279418 0.044813052
0.49011725 0.093542099 0.045332815
0.49100336 0.094286844 0.045852568
0.49103001 0.095162801 0.04584723
0.49191597 0.095902763 0.046367016
0.49194252 0.096777134 0.046361689
0.49282837 0.097512312 0.046881493
0.49285489 0.098385088 0.046876177
0.49374056 0.099115491 0.047396019
0.49376705 0.099986672 0.047390711
0.49465263 0.10071229 0.047910612
0.49467906 0.10158189 0.047905315
0.49556446 0.10230273 0.048425209
0.49559084 0.10317073 0.048419919
0.49561721 0.10403873 0.048414629
0.4965024 0.1047532 0.048934568
0.49652874 0.10561961 0.048929289
0.49655509 0.10648601 0.04892401
0.49658141 0.10735241 0.048918728
0.49660775 0.10821882 0.048913449
0.4966341 0.10908522 0.04890817
0.49666041 0.10995162 0.048902892
0.49582827 0.11098269 0.048372313
0.49585468 0.11185069 0.048367023
0.49502268 0.11288654 0.047836427
0.49504909 0.11375614 0.047831126
0.49421722 0.11479677 0.047300462
0.49424368 0.11566795 0.047295153
0.49341199 0.11671335 0.046764489
0.49343851 0.11758613 0.04675917
0.49260697 0.11863631 0.046228483
0.49263352 0.11951067 0.046223156
0.47608653 0.067625925 0.036402971
0.47611398 0.068528965 0.036397468
0.47614142 0.06943199 0.036391962
0.47616887 0.070335031 0.03638646
0.47619632 0.071238063 0.036380958
0.47622377 0.072141103 0.036375456
0.47625121 0.073044136 0.036369953
0.47713831 0.073854215 0.036890544
0.47802535 0.074661098 0.037411179
0.47805271 0.07556095 0.037405696
0.47893956 0.076363057 0.037926335
0.4798263 0.07716199 0.038446993
0.47985357 0.078058653 0.038441528
0.48074016 0.078852803 0.038962208
0.48076737 0.079747871 0.038956754
0.48165384 0.080537237 0.039477471
0.48254025 0.081323422 0.039998233
0.48256737 0.082215309 0.039992798
0.48345357 0.082996719 0.040513564
0.48348063 0.083887011 0.040508136
0.48436671 0.084663644 0.041028924
0.48525268 0.085437082 0.041549738
0.48527965 0.086324193 0.041544333
0.48616549 0.087092862 0.04206517
0.48705125 0.087858342 0.042586066
0.48707813 0.088742264 0.042580679
0.48796371 0.089502968 0.043101564
0.48799053 0.090385295 0.043096185
0.48887599 0.091141224 0.043617107
0.48890275 0.092021957 0.043611739
0.48978806 0.092773102 0.044132687
0.48981476 0.093652248 0.04412733
0.49069998 0.094398618 0.044648338
0.49158502 0.095141798 0.045169335
0.49161166 0.096017756 0.045163997
0.49163827 0.096893713 0.045158658
0.49252313 0.097630531 0.045679688
0.49254972 0.098504893 0.045674361
0.49343443 0.099236935 0.046195425
0.49431905 0.099965788 0.046716508
0.49434555 0.10083697 0.046711199
0.49523005 0.10156103 0.047232345
0.49525648 0.10243062 0.047227044
0.49528292 0.10330021 0.047221746
0.49616721 0.10401792 0.047742892
0.49619359 0.10488591 0.047737602
0.49621996 0.10575391 0.047732316
0.49624637 0.1066219 0.047727026
0.49627274 0.1074899 0.047721736
0.49629912 0.10835789 0.047716446
0.49632549 0.10922589 0.047711156
0.4963519 0.11009388 0.047705866
0.49637827 0.11096188 0.047700576
0.49554724 0.11199611 0.047168754
0.49557367 0.11286569 0.047163457
0.49474272 0.1139047 0.046631567
0.49476922 0.11477588 0.046626259
0.49393848 0.11581966 0.046094377
0.493965 0.11669242 0.046089057
0.49313441 0.11774098 0.045557141
0.49316099 0.11861535 0.045551814
0.49318755 0.11948971 0.045546487
0.47494078 0.067767821 0.034649618
0.47496831 0.068674043 0.034644097
0.47499588 0.069580257 0.034638572
0.47502342 0.070486479 0.034633052
0.47590974 0.07130456 0.035154819
0.47593725 0.072209187 0.03514931
0.47682342 0.073022485 0.035671107
0.47685087 0.073925517 0.035665605
0.47773689 0.074734047 0.036187436
0.47862288 0.075539373 0.036709316
0.47865024 0.076439224 0.036703832
0.47953603 0.077239782 0.037225712
0.48042172 0.07803715 0.03774761
0.48044896 0.07893382 0.037742145
0.48133451 0.079726413 0.038264077
0.48136172 0.080621481 0.03825862
0.48224711 0.081409305 0.038780574
0.48313248 0.082193926 0.03930258
0.48315957 0.083085813 0.039297145
0.48404473 0.083865672 0.039819151
0.48407179 0.084755965 0.039813727
0.48495683 0.085531034 0.04033576
0.48584175 0.086302929 0.040857814
0.48586869 0.087190032 0.040852409
0.48675346 0.087957151 0.04137449
0.48763821 0.088721067 0.041896619
0.48766506 0.089604989 0.041891232
0.48854959 0.090364136 0.042413369
0.48857641 0.091246471 0.04240799
0.4894608 0.092000842 0.042930149
0.48948759 0.092881575 0.04292478
0.49037182 0.093631171 0.043446973
0.49039853 0.094510317 0.043441616
0.49128267 0.095255129 0.043963864
0.49130934 0.096132681 0.043958515
0.49219331 0.096872717 0.04448076
0.49221992 0.097748674 0.044475425
0.49310374 0.098483935 0.044997703
0.49313033 0.099358298 0.044992376
0.49401397 0.10008878 0.045514677
0.49404049 0.10096156 0.045509361
0.49492401 0.10168727 0.046031699
0.4949505 0.10255844 0.04602639
0.4958339 0.10327936 0.04654878
0.49586034 0.10414895 0.046543483
0.49588677 0.10501854 0.046538185
0.49591321 0.10588814 0.046532884
0.49593964 0.10675772 0.046527587
0.49682271 0.10746909 0.047050007
0.49684912 0.10833708 0.047044717
0.49601895 0.10936649 0.046511687
0.49604538 0.11023608 0.04650639
0.49607179 0.11110567 0.046501089
0.49609822 0.11197525 0.046495792
0.49612466 0.11284484 0.046490494
0.49529472 0.11388382 0.045957375
0.49532121 0.11475499 0.045952067
0.49534768 0.11562617 0.045946758
0.49451801 0.1166715 0.045413628
0.49368843 0.11772002 0.044880483
0.49371499 0.11859439 0.044875156
0.49288556 0.11964767 0.044341978
0.47465697 0.067827836 0.03341978
0.47468457 0.068735644 0.033414248
0.47471216 0.06964346 0.033408716
0.47559762 0.070464753 0.033931732
0.47562516 0.071370974 0.033926211
0.47651044 0.072187498 0.034449223
0.47653794 0.073092125 0.03444371
0.47742304 0.073903874 0.034966752
0.47745049 0.074806906 0.03496125
0.47833547 0.075613871 0.035484325
0.47922039 0.076417647 0.036007445
0.47924775 0.077317499 0.036001962
0.48013249 0.078116499 0.036525082
0.48101711 0.078912318 0.037048228
0.48104438 0.07980898 0.037042763
0.48192886 0.080600023 0.037565932
0.48195606 0.081495099 0.037560474
0.48284042 0.082281359 0.038083673
0.48372471 0.083064429 0.038606919
0.48375183 0.083956316 0.038601484
0.48463592 0.084734619 0.039124735
0.48466298 0.085624911 0.039119311
0.48554695 0.08639843 0.039642584
0.48643079 0.087168761 0.040165879
0.48645777 0.088055879 0.040160473
0.48734146 0.088821433 0.040683802
0.4873684 0.08970695 0.040678404
0.48825201 0.090467721 0.041201789
0.4891355 0.091225319 0.041725162
0.4891623 0.092107646 0.041719783
0.49004564 0.09286046 0.042243186
0.4900724 0.093741201 0.042237818
0.49095559 0.094489239 0.042761251
0.49098229 0.095368385 0.042755894
0.4918654 0.09611164 0.043279387
0.49189207 0.096989192 0.043274038
0.49277496 0.097727671 0.043797527
0.49280158 0.098603636 0.043792188
0.49368435 0.099337339 0.044315707
0.49371091 0.1002117 0.044310376
0.49373749 0.10108608 0.044305049
0.49462005 0.10181341 0.044828612
0.4955025 0.10253755 0.045352187
0.49552897 0.10340874 0.045346878
0.49555546 0.10427993 0.04534157
0.49643779 0.10499769 0.045865215
0.49646419 0.10586729 0.045859914
0.49649063 0.10673688 0.045854617
0.49651706 0.10760646 0.045849316
0.4965435 0.10847604 0.045844018
0.49656993 0.10934564 0.045838717
0.49659637 0.11021522 0.04583342
0.4966228 0.11108482 0.045828123
0.49664924 0.11195441 0.045822822
0.49582025 0.11299174 0.045288481
0.49584675 0.11386292 0.045283172
0.49587321 0.11473411 0.045277864
0.4950445 0.11577781 0.044743516
0.49421588 0.11682468 0.044209141
0.49424246 0.11769906 0.044203814
0.49426901 0.11857342 0.044198487
0.4942956 0.11944778 0.04419316
0.49346721 0.12050264 0.043658741
0.47351828 0.067969464 0.031657796
0.47440287 0.068797171 0.032181975
0.4744305 0.069706574 0.032176435
0.47445816 0.070615984 0.032170892
0.47534257 0.071437322 0.032695107
0.47622693 0.07225547 0.033219375
0.47625446 0.073161691 0.033213854
0.47713861 0.073975064 0.033738118
0.47802266 0.074785262 0.034262408
0.47805011 0.075688295 0.034256905
0.47893405 0.076493703 0.034781218
0.47981793 0.077295922 0.035305586
0.47984526 0.078195773 0.035300102
0.48072892 0.078993224 0.035824463
0.4816125 0.079787485 0.036348846
0.48163977 0.080684148 0.036343381
0.4825232 0.081473641 0.03686779
0.48255041 0.082368709 0.036862336
0.48343369 0.083153419 0.037386775
0.48431695 0.083934933 0.037911266
0.48434404 0.08482682 0.037905831
0.48522708 0.085603565 0.038430326
0.48525414 0.086493857 0.038424902
0.48613706 0.087265819 0.038949419
0.48616406 0.088154532 0.038944002
0.48704681 0.088921718 0.039468549
0.48792946 0.089685716 0.039993115
0.4879564 0.090571232 0.039987717
0.48883897 0.091330454 0.040512346
0.48886582 0.092214376 0.040506959
0.48974818 0.092968822 0.041031584
0.49063045 0.093720086 0.041556232
0.49065724 0.094600827 0.041550864
0.49153936 0.095347308 0.042075537
0.49156609 0.096226454 0.04207018
0.49159279 0.0971056 0.042064823
0.49247479 0.097845711 0.042589568
0.49335662 0.098582633 0.043114297
0.49338323 0.09945859 0.043108959
0.49340987 0.10033455 0.04310362
0.49429151 0.10106511 0.043628391
0.4943181 0.10193948 0.043623064
0.49519959 0.10266525 0.04414786
0.49522611 0.10353804 0.044142544
0.49610746 0.10425904 0.044667371
0.49613395 0.10513022 0.044662062
0.49616042 0.1060014 0.044656754
0.49618691 0.10687258 0.044651445
0.49706808 0.10758561 0.045176353
0.49709448 0.1084552 0.045171056
0.49712092 0.10932479 0.045165755
0.49714735 0.11019438 0.045160457
0.49631929 0.11122849 0.044624902
0.49634579 0.11209968 0.044619594
0.49637225 0.11297085 0.044614285
0.49639875 0.11384204 0.044608977
0.49557099 0.1148841 0.044073403
0.49559751 0.11575688 0.044068087
0.4947699 0.11680372 0.043532483
0.49479645 0.11767809 0.043527156
0.49482304 0.11855246 0.043521829
0.49484962 0.11942682 0.043516502
0.49402225 0.12048163 0.04298085
0.47318411 0.066204093 0.030432949
0.47321182 0.067116693 0.030427387
0.47409552 0.067947619 0.03095278
0.47412321 0.068858616 0.030947227
0.4741509 0.069769613 0.030941676
0.47503439 0.070594177 0.031467106
0.47591779 0.071415558 0.031992555
0.47594538 0.072323367 0.031987023
0.47682866 0.073139966 0.032512534
0.4768562 0.07404618 0.032507014
0.4777393 0.07485801 0.033032522
0.47862232 0.075666644 0.033558048
0.47864977 0.076569676 0.033552546
0.47953263 0.077373534 0.034078106
0.48041543 0.078174204 0.034603711
0.48044279 0.079074048 0.034598228
0.48132542 0.079869941 0.035123833
0.48220792 0.080662653 0.03564946
0.48223516 0.081559315 0.035643999
0.48311755 0.082347251 0.036169652
0.48314476 0.08324232 0.036164198
0.484027 0.08402548 0.036689878
0.48490918 0.084805436 0.037215613
0.48493627 0.085697323 0.037210178
0.48581827 0.086472511 0.037735909
0.48584533 0.087362804 0.037730485
0.48672718 0.088133223 0.038256243
0.48675418 0.089021921 0.03825083
0.48763588 0.089787558 0.038776617
0.48766285 0.090674661 0.038771212
0.4885444 0.091435522 0.039297033
0.4894259 0.092193179 0.039822903
0.48945278 0.093077108 0.039817516
0.49033406 0.093829997 0.040343381
0.49036089 0.094712332 0.040338006
0.49124205 0.095460445 0.040863901
0.49126884 0.096341185 0.040858533
0.49214986 0.097084522 0.041384459
0.49217656 0.097963668 0.041379102
0.49305749 0.098702215 0.04190509
0.49308416 0.099579774 0.041899741
0.49396491 0.10031355 0.042425726
0.49399152 0.10118952 0.042420387
0.49487212 0.10191851 0.042946398
0.49489868 0.10279288 0.042941071
0.49492526 0.10366725 0.042935744
0.49580565 0.10438988 0.043461796
0.49583218 0.10526266 0.043456476
0.49671242 0.10598052 0.043982558
0.49673891 0.1068517 0.043977249
0.49676538 0.10772288 0.043971941
0.49679187 0.10859406 0.043966632
0.49681833 0.10946524 0.04396132
0.49684483 0.11033642 0.043956012
0.49687129 0.1112076 0.043950703
0.49689779 0.11207879 0.043945394
0.49692425 0.11294997 0.043940086
0.49695075 0.11382116 0.043934777
0.496124 0.11486317 0.043397974
0.49615052 0.11573596 0.043392655
0.49617705 0.11660873 0.043387335
0.49535048 0.11765713 0.042850494
0.49537706 0.1185315 0.042845163
0.49540365 0.11940586 0.042839836
0.49457729 0.12046064 0.042302955
0.4946039 0.12133659 0.042297617
0.4729073 0.066260651 0.029194536
0.47379008 0.06709481 0.029721141
0.47381783 0.068007402 0.029715581
0.47470045 0.068836778 0.030242216
0.47472814 0.069747776 0.030236663
0.47475582 0.070658773 0.030231113
0.47563824 0.071481779 0.030757785
0.4765206 0.072301604 0.031284478
0.47740287 0.07311824 0.031811222
0.4774304 0.074024454 0.031805702
0.47831249 0.074836321 0.032332443
0.47834 0.075740941 0.032326929
0.47922194 0.076548025 0.032853693
0.48010379 0.07735192 0.033380482
0.48013121 0.078253366 0.033374991
0.48101297 0.079052471 0.03390184
0.4810403 0.079952322 0.033896357
0.48192188 0.080746666 0.034423206
0.48280331 0.08153782 0.034950074
0.48283058 0.082434483 0.034944609
0.4837119 0.083220862 0.035471506
0.48373911 0.08411593 0.035466053
0.48462027 0.084897533 0.035992976
0.48550141 0.08567594 0.036519956
0.4855285 0.086567827 0.036514521
0.48640946 0.087341458 0.037041489
0.48643652 0.088231757 0.037036061
0.48731729 0.089000612 0.037563067
0.48734429 0.089889318 0.03755765
0.48822495 0.090653397 0.038084682
0.48825189 0.091540508 0.038079277
0.4891324 0.092299804 0.038606338
0.49001285 0.093055911 0.039133452
0.49003971 0.093939833 0.039128065
0.49091998 0.09469118 0.039655175
0.4909468 0.095573507 0.039649799
0.49182689 0.09632007 0.040176939
0.49185365 0.097200803 0.040171571
0.49273363 0.097942591 0.040698741
0.49276036 0.098821737 0.04069338
0.49364021 0.099558733 0.041220605
0.49366689 0.10043628 0.04121526
0.49454656 0.10116851 0.041742485
0.49457318 0.10204447 0.041737147
0.49459982 0.10292043 0.041731808
0.49547929 0.10364629 0.042259075
0.49550587 0.10452066 0.042253748
0.49638519 0.10524174 0.04278104
0.49641171 0.10611451 0.04277572
0.49643826 0.10698728 0.042770404
0.4973174 0.10770199 0.043297738
0.49734387 0.10857317 0.043292429
0.49737036 0.10944436 0.043287121
0.49739683 0.11031553 0.043281812
0.49742332 0.11118672 0.0432765
0.49744979 0.1120579 0.043271191
0.49747628 0.11292908 0.043265883
0.49665049 0.11396948 0.042727854
0.49667701 0.11484225 0.042722538
0.49585137 0.11588743 0.04218448
0.49587795 0.11676179 0.042179152
0.49590451 0.11763617 0.042173825
0.49593109 0.11851054 0.042168494
0.49510568 0.11956366 0.041630391
0.49513233 0.12043963 0.041625053
0.49515894 0.12131558 0.041619714
0.47348654 0.066238731 0.028487062
0.47351435 0.067152917 0.028481493
0.47354212 0.068067104 0.028475922
0.4744238 0.068898112 0.029003778
0.47445154 0.069810703 0.028998218
0.47533303 0.070636936 0.029526105
0.47621447 0.071459979 0.030054012
0.4762421 0.072369382 0.030048471
0.47712338 0.073187649 0.0305764
0.4780046 0.074002728 0.031104388
0.47803217 0.074908949 0.031098865
0.47891319 0.075719252 0.03162685
0.47979414 0.076526374 0.032154854
0.47982159 0.077429406 0.032149352
0.48070237 0.078231752 0.032677379
0.48072979 0.07913319 0.032671884
0.48161048 0.079930753 0.033199977
0.48163784 0.080830596 0.033194494
0.48251832 0.08162339 0.033722587
0.48339874 0.082412988 0.034250695
0.48342597 0.08330965 0.034245234
0.48430625 0.084094472 0.034773365
0.48433346 0.084989548 0.034767911
0.48521358 0.085769594 0.035296079
0.48609364 0.086546443 0.035824299
0.48612073 0.08743833 0.035818867
0.48614785 0.088330217 0.035813432
0.48702767 0.089100704 0.036341652
0.48705474 0.089990996 0.036336228
0.48793441 0.090756714 0.036864482
0.488814 0.091519237 0.037392758
0.48884097 0.09240634 0.037387352
0.4897204 0.093164086 0.037915658
0.49059978 0.093918644 0.038444009
0.49062666 0.094802573 0.038438622
0.49150586 0.095552355 0.038966972
0.49153268 0.096434683 0.038961597
0.49241173 0.097179689 0.039489981
0.4924385 0.098060429 0.039484613
0.4933174 0.098800659 0.040013023
0.49334413 0.099679798 0.040007666
0.49337083 0.10055895 0.040002309
0.49424961 0.1012928 0.040530786
0.49512821 0.10202347 0.041059256
0.49515483 0.10289943 0.041053917
0.49518147 0.10377539 0.041048579
0.49605989 0.1044997 0.04157709
0.49608645 0.10537406 0.041571759
0.49611303 0.10624842 0.041566432
0.49699125 0.10696636 0.042094979
0.4970178 0.10783913 0.04208966
0.49704432 0.10871191 0.042084344
0.49792236 0.10942347 0.042612921
0.49794883 0.11029464 0.042607613
0.49797532 0.11116583 0.042602304
0.49800178 0.11203702 0.042596996
0.49717695 0.11307578 0.042057749
0.4972035 0.11394855 0.042052433
0.49723002 0.11482132 0.042047113
0.49640539 0.11586647 0.041507822
0.49643195 0.11674083 0.041502494
0.49645853 0.1176152 0.041497167
0.49648511 0.11848957 0.041491836
0.49566072 0.11954267 0.0409525
0.49568734 0.12041863 0.040947162
0.49571398 0.12129459 0.040941823
0.47321275 0.066295177 0.027244924
0.47409359 0.067130998 0.027774014
0.47412139 0.068045184 0.027768442
0.47500202 0.068876229 0.028297534
0.47588259 0.069704093 0.028826645
0.47591028 0.07061509 0.028821092
0.47593796 0.071526088 0.028815541
0.47681832 0.072347581 0.029344685
0.47769859 0.073165886 0.029873854
0.47772619 0.074073695 0.029868323
0.47860637 0.074887224 0.030397547
0.47863391 0.075793445 0.030392025
0.47951388 0.076602198 0.030921252
0.48039377 0.077407755 0.031450499
0.48042122 0.078310795 0.031444997
0.48130095 0.079111584 0.031974267
0.48132837 0.080013022 0.031968772
0.48220798 0.080809027 0.03249811
0.48223534 0.081708878 0.032492626
0.48311478 0.082500108 0.033021953
0.48399413 0.083288155 0.033551309
0.4840214 0.084184818 0.033545844
0.48490059 0.08496809 0.034075227
0.4849278 0.085863158 0.034069773
0.48580685 0.086641647 0.034599178
0.485834 0.087535128 0.034593735
0.48671296 0.088308834 0.035123207
0.48674008 0.08920072 0.035117771
0.48761886 0.08996965 0.035647236
0.48764592 0.09085995 0.035641812
0.48852453 0.091624103 0.03617131
0.48940307 0.092385076 0.03670083
0.48943001 0.093272179 0.036695421
0.4903084 0.094028376 0.037224963
0.49033532 0.094913892 0.037219569
0.49121359 0.095665298 0.037749175
0.49124047 0.096549228 0.037743792
0.49211857 0.097295858 0.03827339
0.49299654 0.098039314 0.038803015
0.49302331 0.098920047 0.03879765
0.49390116 0.09965872 0.039327305
0.4939279 0.10053787 0.039321944
0.4939546 0.10141702 0.039316587
0.49483231 0.10214931 0.039846309
0.49485898 0.10302686 0.039840959
0.49573651 0.10375439 0.040370684
0.49576312 0.10463035 0.040365346
0.49578974 0.1055063 0.040360007
0.49666706 0.10622746 0.040889762
0.49669364 0.10710183 0.040884435
0.49672022 0.1079762 0.040879104
0.49759734 0.10869098 0.041408908
0.49762386 0.10956375 0.041403588
0.49765038 0.11043653 0.041398268
0.49767691 0.1113093 0.041392952
0.49770343 0.11218208 0.041387632
0.49772999 0.11305485 0.041382313
0.49775651 0.11392763 0.041376997
0.49778304 0.1148004 0.041371677
0.49695942 0.1158455 0.040831152
0.49698597 0.11671986 0.040825825
0.49701256 0.11759424 0.040820498
0.49703914 0.1184686 0.040815167
0.49621576 0.11952166 0.040274601
0.49624237 0.12039763 0.040269263
0.49626899 0.12127358 0.040263925
0.47376516 0.065357447 0.026541797
0.47464505 0.066194899 0.027072109
0.47467285 0.067109086 0.02706654
0.47470063 0.068023264 0.027060969
0.47472841 0.068937451 0.027055398
0.47560802 0.069766946 0.027585732
0.47563574 0.070679531 0.027580172
0.4765152 0.07150425 0.028110528
0.47739455 0.072325781 0.028640911
0.47742221 0.073235184 0.02863537
0.47830141 0.074051932 0.029165776
0.47918057 0.074865498 0.029696239
0.47920811 0.075771719 0.029690718
0.47923565 0.076677941 0.029685196
0.48011458 0.077485137 0.03021566
0.48099339 0.078289144 0.030746151
0.48102084 0.079192176 0.030740647
0.48189953 0.079991408 0.03127116
0.48192692 0.080892853 0.031265669
0.48280552 0.081687309 0.031796247
0.48283285 0.082587153 0.031790763
0.48371124 0.083376825 0.032321334
0.48458955 0.084163323 0.032851931
0.48461679 0.085059986 0.032846466
0.48549494 0.0858417 0.033377089
0.48552215 0.086736768 0.033371631
0.48640016 0.087513708 0.03390228
0.48642731 0.088407189 0.033896837
0.48730519 0.089179337 0.034427553
0.48733231 0.090071224 0.034422118
0.48821002 0.090838604 0.034952827
0.48823708 0.091728896 0.034947399
0.48911464 0.092491493 0.035478141
0.48914167 0.093380198 0.035472728
0.49001908 0.094138019 0.036003493
0.49004605 0.09502513 0.035998087
0.49092332 0.095778182 0.036528885
0.49180055 0.096528031 0.037059732
0.4918274 0.097411953 0.037054345
0.49270445 0.098157033 0.037585195
0.49358138 0.098898932 0.038116056
0.49360815 0.099779665 0.038110692
0.49363491 0.10066041 0.038105324
0.49451166 0.10139594 0.03863623
0.49453837 0.10227508 0.038630873
0.49541503 0.10300582 0.039161835
0.4954417 0.10388337 0.039156489
0.49631816 0.10460935 0.039687455
0.49634477 0.10548531 0.039682116
0.49637139 0.10636127 0.039676778
0.49724767 0.10708087 0.040207777
0.49727422 0.10795523 0.040202446
0.4973008 0.1088296 0.040197119
0.49732739 0.10970397 0.040191792
0.4982034 0.1104156 0.040722843
0.49822992 0.11128838 0.040717527
0.49825644 0.11216116 0.040712208
0.49828297 0.11303393 0.040706888
0.49830952 0.1139067 0.040701572
0.49748686 0.11495017 0.040159822
0.49751341 0.11582454 0.040154494
0.49754 0.11669891 0.040149167
0.49756658 0.11757328 0.04014384
0.49674416 0.11862471 0.039602049
0.49677077 0.11950066 0.03959671
0.49679741 0.12037663 0.039591372
0.49682403 0.12125258 0.039586034
0.49600184 0.12231198 0.03904419
0.47434542 0.06533549 0.025833085
0.47437325 0.06625127 0.025827505
0.47440109 0.067167044 0.025821924
0.47527987 0.068001345 0.02635349
0.47530767 0.068915531 0.026347918
0.47533545 0.069829717 0.026342347
0.47621399 0.070657656 0.026873926
0.47709244 0.071482405 0.027405517
0.47712013 0.072393402 0.027399965
0.47799844 0.073213376 0.027931586
0.47887662 0.074030168 0.028463231
0.47890422 0.074937984 0.028457699
0.47978231 0.075749993 0.028989399
0.47980988 0.076656207 0.028983878
0.48068777 0.077463448 0.029515576
0.48071527 0.078368068 0.029510062
0.48159304 0.079170525 0.030041795
0.48162049 0.080073558 0.030036293
0.48249811 0.080871239 0.030568048
0.4825255 0.081772685 0.030562555
0.48340303 0.082565576 0.031094372
0.48343039 0.083465427 0.031088889
0.48430771 0.08425355 0.031620711
0.48518494 0.085038483 0.032152545
0.48521221 0.085935153 0.03214708
0.48608929 0.086715311 0.032678943
0.4861165 0.087610379 0.032673489
0.48699343 0.088385761 0.033205386
0.48702058 0.089279242 0.03319994
0.48789743 0.090049841 0.033731893
0.48792455 0.090941727 0.033726458
0.48880121 0.09170755 0.03425841
0.48882827 0.092597842 0.034252983
0.48970476 0.093358889 0.034784969
0.48973179 0.094247594 0.034779552
0.49060813 0.095003866 0.035311561
0.4906351 0.095890976 0.035306156
0.49151132 0.096642464 0.035838194
0.49238747 0.097390763 0.036370289
0.49241436 0.098274685 0.036364902
0.49329033 0.099018209 0.036896989
0.4941662 0.099758551 0.037429094
0.49419299 0.10063929 0.037423726
0.49421975 0.10152004 0.037418358
0.49509543 0.102254 0.037950508
0.49512216 0.10313315 0.037945151
0.49599773 0.10386233 0.038477357
0.4960244 0.1047399 0.038472012
0.49689981 0.1054643 0.039004214
0.49692643 0.10634027 0.038998876
0.49695307 0.10721622 0.038993537
0.49782825 0.10793427 0.039525785
0.49785483 0.10880864 0.039520457
0.49788141 0.10968301 0.039515126
0.497908 0.11055737 0.039509799
0.49793455 0.11143174 0.039504472
0.49796113 0.11230611 0.039499145
0.49798772 0.11318047 0.039493814
0.4980143 0.11405484 0.039488487
0.49804085 0.11492921 0.03948316
0.49806744 0.11580358 0.039477833
0.49809402 0.11667794 0.039472502
0.49727255 0.11772774 0.038929485
0.49729919 0.11860371 0.038924146
0.49732581 0.11947966 0.038918808
0.49735242 0.12035563 0.03891347
0.49737906 0.12123158 0.038908131
0.49655789 0.12229094 0.038365059
0.4749257 0.065313533 0.025124379
0.47495353 0.066229314 0.025118798
0.47498137 0.067145087 0.025113218
0.47585914 0.067979433 0.025646016
0.47588691 0.068893611 0.025640445
0.47591472 0.069807798 0.025634874
0.47679225 0.070635773 0.02616768
0.47681996 0.071548365 0.026162118
0.47769737 0.072371565 0.026694952
0.47772506 0.073282562 0.026689401
0.47860229 0.074100979 0.027222265
0.47947943 0.074916221 0.027755152
0.47950703 0.075824037 0.02774962
0.48038408 0.076634482 0.028282564
0.48041162 0.077540703 0.028277041
0.48128846 0.078346379 0.028809983
0.48131597 0.079251014 0.02880447
0.48219267 0.080051914 0.02933744
0.48222011 0.080954947 0.029331937
0.48309669 0.081751078 0.029864937
0.48312408 0.082652517 0.029859444
0.48400053 0.08344385 0.030392509
0.48402789 0.084343702 0.030387027
0.48490417 0.085130274 0.030920085
0.48578036 0.085913651 0.031453159
0.4858076 0.086810313 0.031447697
0.48668364 0.087588921 0.031980801
0.48671085 0.088483997 0.031975348
0.48758674 0.089257821 0.032508481
0.48761389 0.090151303 0.032503039
0.48848966 0.090920344 0.033036239
0.48851678 0.091812231 0.033030804
0.4885439 0.09270411 0.033025369
0.48941943 0.093466789 0.033558574
0.48944649 0.094357088 0.03355315
0.4903219 0.095114991 0.03408638
0.4911972 0.095869705 0.034619633
0.49122417 0.096756808 0.034614228
0.49209931 0.097506747 0.035147507
0.49297443 0.098253496 0.035680845
0.49300128 0.099137418 0.035675459
0.49387622 0.099879391 0.036208786
0.49475104 0.10061818 0.036742136
0.4947778 0.10149892 0.036736768
0.49480456 0.10237966 0.036731403
0.4956792 0.10311207 0.03726479
0.49570593 0.10399122 0.037259433
0.49658045 0.10471886 0.03779288
0.49660712 0.1055964 0.037787534
0.49748147 0.10631927 0.038320985
0.49750808 0.10719522 0.038315646
0.49753472 0.10807119 0.038310308
0.49840885 0.10878768 0.038843792
0.49843544 0.10966204 0.038838465
0.49846199 0.1105364 0.038833138
0.49848858 0.11141078 0.038827807
0.49851516 0.11228514 0.03882248
0.49854174 0.11315951 0.038817152
0.49856833 0.11403388 0.038811825
0.49859488 0.11490824 0.038806494
0.49862146 0.11578262 0.038801167
0.49864805 0.11665697 0.03879584
0.49782759 0.11770675 0.03825159
0.4978542 0.1185827 0.038246255
0.49788085 0.11945866 0.038240917
0.49790746 0.12033463 0.038235579
0.49708724 0.12139235 0.037691277
0.49711391 0.1222699 0.037685931
0.47465691 0.06536819 0.023876116
0.47553378 0.066207357 0.024410086
0.47556162 0.06712313 0.024404505
0.47558945 0.068038911 0.024398925
0.47646618 0.068871699 0.024932966
0.47649395 0.069785878 0.024927394
0.47652173 0.070700064 0.024921823
0.47739822 0.07152649 0.025455872
0.47827458 0.07234972 0.02598994
0.47830227 0.073260717 0.025984388
0.47917852 0.074079178 0.026518485
0.47920614 0.074988589 0.026512943
0.48008224 0.075802267 0.027047075
0.48010984 0.076710083 0.027041543
0.48098582 0.077518977 0.027575729
0.48101336 0.078425199 0.027570207
0.48188916 0.079229325 0.028104391
0.48191667 0.080133945 0.028098879
0.48279232 0.080933295 0.028633092
0.48281977 0.081836335 0.028627589
0.48369527 0.082630903 0.029161831
0.48372266 0.083532348 0.029156338
0.48459807 0.084322132 0.029690642
0.48462543 0.085221976 0.029685158
0.48550063 0.086006992 0.030219458
0.48552793 0.086905248 0.030213984
0.48640302 0.087685481 0.030748313
0.48727798 0.088462539 0.031282663
0.48730519 0.089357607 0.03127721
0.4873324 0.090252675 0.031271756
0.48820716 0.091023356 0.031806141
0.48908189 0.091790847 0.032340582
0.48910901 0.092682727 0.032335147
0.48913613 0.093574613 0.032329712
0.49001062 0.094335742 0.032864157
0.49003768 0.095226042 0.032858733
0.49091202 0.09598238 0.033393208
0.49178627 0.096735545 0.033927701
0.49181321 0.097622648 0.033922296
0.49268731 0.098371029 0.034456819
0.49356139 0.099116221 0.034991395
0.49358824 0.10000014 0.034986008
0.4944621 0.10074057 0.035520587
0.49533585 0.1014778 0.036055177
0.49536264 0.10235854 0.036049809
0.4953894 0.10323928 0.036044445
0.49626297 0.10397014 0.036579072
0.4962897 0.10484929 0.036573716
0.49716318 0.10557536 0.037108406
0.49718985 0.10645292 0.037103061
0.49721652 0.10733046 0.037097715
0.49808973 0.10805018 0.037632409
0.49811637 0.10892614 0.037627075
0.49814299 0.1098021 0.037621737
0.49901602 0.11051544 0.038156472
0.4990426 0.11138982 0.038151145
0.49906918 0.11226419 0.038145818
0.49909577 0.11313855 0.038140487
0.49912232 0.11401292 0.03813516
0.49914891 0.11488727 0.038129833
0.49917549 0.11576165 0.038124505
0.49835598 0.11680978 0.037579034
0.49838263 0.11768574 0.037573695
0.49840924 0.1185617 0.037568357
0.49843585 0.11943766 0.037563019
0.4984625 0.12031362 0.03755768
0.49848911 0.12118958 0.037552342
0.49766997 0.12224886 0.037006803
0.47523817 0.065346196 0.023166174
0.47526607 0.066263564 0.023160584
0.47529396 0.067180939 0.023154994
0.47616971 0.068016954 0.023690218
0.47619754 0.068932727 0.023684638
0.47622538 0.069848508 0.023679057
0.477101 0.070678145 0.024214352
0.47712877 0.071592331 0.02420878
0.47800419 0.0724172 0.024744071
0.47887951 0.073238879 0.025279382
0.4789072 0.074149877 0.02527383
0.47978237 0.074966781 0.025809169
0.47981 0.075876191 0.025803627
0.48068506 0.076688319 0.026338991
0.48071265 0.077596128 0.026333459
0.48158756 0.078403473 0.026868889
0.48161513 0.079309687 0.026863366
0.48248985 0.080112256 0.027398793
0.48251736 0.081016891 0.027393281
0.48339194 0.081814684 0.027928738
0.48341939 0.082717717 0.027923234
0.48429385 0.083510734 0.02845872
0.48432124 0.084412172 0.028453227
0.48519558 0.085200407 0.028988773
0.48522294 0.086100258 0.028983289
0.4860971 0.086883709 0.029518833
0.4861244 0.087781966 0.029513359
0.48699841 0.088560656 0.030048931
0.48702568 0.089457318 0.030043468
0.48789954 0.090231217 0.03057907
0.48792672 0.091126293 0.030573614
0.48880047 0.091895416 0.031109245
0.48882762 0.092788897 0.031103801
0.48970124 0.09355323 0.031639494
0.48972836 0.094445117 0.031634059
0.49060178 0.095204696 0.032169748
0.49062884 0.096094988 0.03216432
0.49150214 0.096849777 0.032700039
0.49237531 0.097601384 0.033235777
0.49240229 0.098488495 0.033230372
0.49327531 0.099235319 0.033766132
0.49414831 0.099978954 0.034301952
0.4941752 0.10086288 0.034296565
0.49504799 0.10160175 0.034832381
0.49507481 0.10248408 0.034827001
0.49594745 0.10321816 0.035362847
0.49597424 0.1040989 0.035357479
0.49684674 0.10482821 0.035893355
0.49687347 0.10570735 0.035887998
0.49774587 0.10643188 0.036423929
0.49777254 0.10730942 0.036418583
0.49779922 0.10818698 0.036413234
0.49867141 0.10890514 0.036949176
0.49869803 0.1097811 0.036943838
0.49872464 0.11065706 0.0369385
0.49959663 0.11136885 0.03747448
0.49962321 0.11224322 0.037469152
0.49964979 0.11311759 0.037463825
0.49967635 0.11399195 0.037458498
0.49970293 0.11486632 0.037453167
0.49972951 0.11574069 0.03744784
0.49891102 0.11678878 0.036901135
0.49893764 0.11766474 0.036895797
0.49896428 0.1185407 0.036890458
0.49899089 0.11941665 0.036885124
0.49901754 0.12029263 0.036879785
0.49819934 0.12135027 0.036333021
0.49822602 0.12222783 0.036327675
0.49825269 0.12310537 0.036322325
0.47497246 0.065400742 0.021914218
0.47584733 0.06624157 0.022450645
0.47587523 0.067158945 0.022445055
0.47590309 0.068076313 0.022439465
0.47593099 0.06899368 0.022433873
0.47680563 0.069826551 0.022970345
0.47768024 0.070656233 0.023506872
0.47770804 0.071570411 0.023501301
0.47773582 0.072484598 0.02349573
0.47861016 0.073307909 0.024032265
0.47948444 0.074128032 0.024568817
0.47951213 0.075039037 0.024563266
0.48038623 0.075854383 0.025099849
0.48041388 0.076763794 0.025094308
0.48128787 0.077574365 0.025630914
0.48131543 0.078482173 0.025625382
0.48218933 0.079287961 0.026162054
0.48221686 0.080194183 0.026156532
0.4822444 0.081100404 0.026151009
0.48311803 0.081899829 0.026687689
0.48399156 0.082696065 0.027224388
0.48401901 0.083599105 0.027218886
0.4848924 0.084390566 0.027755614
0.48491982 0.085292004 0.02775012
0.48579311 0.086078681 0.028286904
0.48582047 0.086978525 0.02828142
0.48669356 0.087760434 0.028818207
0.48672086 0.08865869 0.028812733
0.4875938 0.089435816 0.029349549
0.48762107 0.090332486 0.029344086
0.48849389 0.091104835 0.02988093
0.48852107 0.091999903 0.029875476
0.48939374 0.09276747 0.030412348
0.48942089 0.093660951 0.030406903
0.49029347 0.094423734 0.030943833
0.49032059 0.095315628 0.030938398
0.49119297 0.096073642 0.031475332
0.49122003 0.096963935 0.031469904
0.49209225 0.097717173 0.032006867
0.49296436 0.098467223 0.032543845
0.49299133 0.099354334 0.03253844
0.49386331 0.1000996 0.033075444
0.49473527 0.10084169 0.033612505
0.49476212 0.10172562 0.033607122
0.49563387 0.10246293 0.034144178
0.49566069 0.10334525 0.034138802
0.49653229 0.10407779 0.034675889
0.49655905 0.10495853 0.034670521
0.4974305 0.10568628 0.035207637
0.49745724 0.10656542 0.03520228
0.49748397 0.10744456 0.035196923
0.49835527 0.10816594 0.03573411
0.49838194 0.10904349 0.035728764
0.49925306 0.10976011 0.036265943
0.49927968 0.11063606 0.036260605
0.49930629 0.11151202 0.036255267
0.49933293 0.11238798 0.036249928
0.49935955 0.11326394 0.03624459
0.49938619 0.1141399 0.036239251
0.4994128 0.11501586 0.036233913
0.49943942 0.11589181 0.036228579
0.49946606 0.11676778 0.03622324
0.49949268 0.11764374 0.036217902
0.49951932 0.1185197 0.036212564
0.49954593 0.11939565 0.036207225
0.49957255 0.12027162 0.036201887
0.49875537 0.12132923 0.035653897
0.49878204 0.12220678 0.035648551
0.49880871 0.12308433 0.035643201
0.47558266 0.066297673 0.021197444
0.47561058 0.067216635 0.021191845
0.47648439 0.068054318 0.021729518
0.47651225 0.068971686 0.021723928
0.47654015 0.069889054 0.021718338
0.47741374 0.070720367 0.022256058
0.47744158 0.071636148 0.022250477
0.47831506 0.072462678 0.022788256
0.47834286 0.073376864 0.022782685
0.47921616 0.074198619 0.023320457
0.48008937 0.075017191 0.023858253
0.48011705 0.075928196 0.023852702
0.48099011 0.076741986 0.024390528
0.48101774 0.077651396 0.024384987
0.48189065 0.07846041 0.024922835
0.48191825 0.079368226 0.024917303
0.48279107 0.080172457 0.02545522
0.4828186 0.081078678 0.025449697
0.48284617 0.0819849 0.025444174
0.48371872 0.082782768 0.025982097
0.48374623 0.083687395 0.025976585
0.48461866 0.084480487 0.02651453
0.48464611 0.08538352 0.026509028
0.4855184 0.086171836 0.027047008
0.48639062 0.086956955 0.027585041
0.48641798 0.087856807 0.027579557
0.48729002 0.088637158 0.028117582
0.48731732 0.089535415 0.028112108
0.48818922 0.090310983 0.028650166
0.48821646 0.091207646 0.028644701
0.48908821 0.091978446 0.02918279
0.48911542 0.092873514 0.029177336
0.48998705 0.09363953 0.029715447
0.4900142 0.094533011 0.029710002
0.4908857 0.095294245 0.03024818
0.49091282 0.096186131 0.030242745
0.49178413 0.096942589 0.030780921
0.49181119 0.097832881 0.030775495
0.49268237 0.098584563 0.031313695
0.49355343 0.099333063 0.031851918
0.4935804 0.10022017 0.031846512
0.49445131 0.10096389 0.032384764
0.4953222 0.10170442 0.032923061
0.49534908 0.10258834 0.032917675
0.49621975 0.10332409 0.033455975
0.49624658 0.10420643 0.0334506
0.4971171 0.10493741 0.03398893
0.49714389 0.10581814 0.033983562
0.49801427 0.10654435 0.034521919
0.498041 0.10742348 0.034516558
0.49806774 0.10830264 0.034511201
0.49893796 0.10902245 0.035049632
0.49896467 0.10990001 0.035044286
0.49983472 0.11061505 0.035582714
0.49986133 0.11149102 0.035577375
0.49988794 0.11236697 0.035572037
0.49991459 0.11324294 0.035566699
0.4999412 0.1141189 0.03556136
0.49996784 0.11499485 0.035556022
0.49999446 0.11587082 0.035550684
0.5000211 0.11674678 0.035545349
0.50004768 0.11762274 0.035540011
0.50007433 0.1184987 0.035534672
0.50010097 0.11937466 0.035529334
0.50012761 0.12025062 0.035523996
0.49931142 0.12130819 0.034974769
0.49933809 0.12218574 0.034969419
0.49936476 0.12306329 0.034964073
0.49939144 0.12394085 0.034958724
0.47529203 0.065433137 0.019947387
0.47532001 0.066353694 0.019941777
0.47619286 0.067194603 0.02048067
0.47622079 0.068113558 0.020475071
0.47624874 0.06903252 0.020469472
0.47627667 0.069951482 0.020463871
0.47714931 0.070784427 0.021002809
0.47802183 0.071614191 0.021541771
0.47804967 0.072529964 0.02153619
0.4789221 0.073354945 0.022075206
0.4789499 0.074269123 0.022069635
0.47982213 0.075089335 0.022608656
0.48069426 0.075906351 0.023147689
0.48072198 0.076817349 0.023142138
0.48074967 0.077728346 0.023136586
0.48162159 0.078538999 0.023675665
0.48249346 0.079346456 0.024214758
0.48252106 0.080254272 0.024209226
0.4833928 0.081056952 0.024748385
0.48342037 0.081963174 0.024742862
0.48344791 0.082869396 0.024737339
0.48431942 0.083665706 0.025276499
0.48434693 0.084570333 0.025270987
0.48521829 0.085361868 0.025810182
0.48524573 0.086264908 0.02580468
0.48611698 0.087051667 0.026343897
0.48698816 0.08783523 0.026883172
0.48701549 0.088735081 0.02687769
0.48788649 0.089513883 0.027416956
0.48791379 0.090412132 0.027411481
0.48878461 0.091186151 0.027950784
0.48881188 0.092082813 0.027945319
0.48968259 0.092852056 0.028484644
0.48970976 0.093747132 0.028479191
0.49058032 0.094511583 0.029018549
0.49060747 0.095405072 0.029013105
0.49147794 0.096164748 0.029552527
0.49150503 0.097056635 0.029547092
0.49237531 0.097811535 0.030086504
0.49240237 0.098701827 0.030081078
0.49327248 0.099451959 0.030620527
0.4941425 0.10019889 0.031159986
0.49416944 0.10108601 0.03115458
0.49503931 0.10182818 0.031694077
0.49590915 0.10256715 0.032233618
0.49593601 0.10345107 0.032228231
0.49680564 0.10418527 0.032767776
0.49683246 0.1050676 0.032762401
0.49770194 0.10579702 0.033301968
0.49772871 0.10667776 0.0332966
0.49859804 0.10740241 0.033836201
0.49862477 0.10828156 0.033830844
0.4986515 0.1091607 0.033825487
0.49952069 0.10987896 0.034365155
0.49954736 0.11075651 0.034359809
0.50041634 0.11147001 0.034899477
0.50044298 0.11234598 0.034894139
0.50046962 0.11322194 0.034888804
0.50049627 0.1140979 0.034883466
0.50052285 0.11497385 0.034878127
0.5005495 0.11584982 0.034872789
0.50057614 0.11672577 0.034867451
0.50060272 0.11760174 0.034862112
0.50062937 0.11847769 0.034856774
0.49981409 0.11953205 0.034306332
0.49984077 0.1204096 0.034300983
0.49986744 0.12128714 0.034295637
0.49989411 0.1221647 0.034290288
0.49992079 0.12304225 0.034284942
0.49910578 0.12410617 0.033734415
0.4750593 0.06640964 0.01868361
0.47593126 0.067252174 0.019223761
0.47595924 0.068172731 0.019218151
0.47598723 0.06909328 0.019212542
0.47685894 0.069929451 0.019752692
0.47688687 0.070848413 0.019747091
0.47775844 0.071679808 0.020287272
0.47778633 0.072597176 0.020281682
0.47865775 0.073423788 0.020821895
0.47952914 0.074247211 0.021362156
0.47955692 0.075161397 0.021356586
0.4804281 0.075980045 0.021896848
0.48045585 0.076892637 0.021891288
0.48132688 0.077706508 0.022431575
0.48135459 0.078617506 0.022426022
0.48222548 0.079426602 0.022966338
0.4822531 0.080336004 0.022960797
0.48312387 0.081140317 0.023501147
0.48315147 0.082048133 0.023495615
0.48402211 0.08284767 0.024036022
0.48404965 0.083753884 0.024030499
0.48492011 0.084548645 0.024570903
0.48494762 0.085453272 0.024565389
0.48581794 0.086243257 0.025105827
0.48584539 0.08714629 0.025100324
0.48671556 0.087931491 0.025640786
0.48758566 0.088713504 0.026181305
0.48761302 0.089613356 0.026175821
0.48848295 0.0903906 0.026716331
0.48851025 0.091288857 0.026710857
0.48938003 0.092061318 0.027251396
0.48940727 0.092957981 0.027245931
0.4902769 0.093725666 0.027786504
0.49030411 0.094620742 0.027781051
0.49117362 0.095383652 0.028321648
0.49120077 0.096277125 0.028316204
0.49207017 0.097035252 0.028856868
0.49209729 0.097927131 0.028851433
0.49296647 0.098680489 0.029392088
0.49299353 0.099570781 0.029386662
0.4938626 0.10031936 0.029927347
0.49473155 0.10106474 0.030468056
0.49475852 0.10195185 0.030462651
0.49562731 0.10269246 0.031003384
0.49565426 0.10357797 0.030997988
0.49652296 0.10431381 0.031538788
0.49739152 0.10504645 0.03207957
0.49741834 0.10592878 0.032074191
0.49828678 0.10665665 0.032615002
0.49831355 0.10753738 0.032609634
0.49918184 0.10826048 0.033150483
0.49920854 0.10913962 0.033145122
0.49923527 0.11001877 0.033139765
0.50010341 0.11073548 0.033680677
0.50013006 0.11161303 0.033675328
0.50015676 0.11249059 0.033669982
0.50102466 0.11320093 0.034210898
0.50105125 0.1140769 0.034205563
