# .PCD v0.7 - Point Cloud Data file format
VERSION 0.7
FIELDS x y z
SIZE 4 4 4
TYPE F F F
COUNT 1 1 1
WIDTH 1339
HEIGHT 1
VIEWPOINT 0 0 0 1 0 0 0
POINTS 1339
DATA ascii
0.41266593 0.0046208422 0.058186315
0.41269502 0.0055780257 0.058180485
0.4118073 0.0065107471 0.057714578
0.41183645 0.0074695246 0.057708737
0.41094893 0.0084070219 0.057242841
0.41006151 0.009347707 0.056776926
0.41009074 0.010309672 0.056771062
0.40920347 0.011255134 0.056305107
0.40923277 0.012218689 0.056299236
0.40834564 0.013168929 0.055833261
0.40837497 0.014134078 0.055827379
0.4049432 -0.028601117 0.053956453
0.40497267 -0.02763119 0.053950541
0.40591955 -0.026582606 0.05440557
0.40686634 -0.025537213 0.054860614
0.40781307 -0.024495002 0.055315718
0.40875965 -0.023455979 0.055770803
0.40878895 -0.022492424 0.055764932
0.40973538 -0.021458179 0.056220058
0.40976462 -0.020496216 0.056214195
0.4107109 -0.019466752 0.05666934
0.41074011 -0.018506374 0.056663487
0.41168624 -0.017481688 0.057118658
0.41171539 -0.016522909 0.057112817
0.41174453 -0.015564133 0.057106975
0.41269055 -0.014545812 0.057562225
0.41271964 -0.013588626 0.057556391
0.41274872 -0.012631441 0.057550557
0.4136945 -0.011619496 0.058005806
0.41372353 -0.010663897 0.057999983
0.41375259 -0.0097083049 0.057994161
0.41378164 -0.008752713 0.057988338
0.41381067 -0.0077971206 0.057982516
0.41383973 -0.0068415287 0.057976693
0.41386876 -0.0058859368 0.05797087
0.41389781 -0.0049303449 0.057965044
0.41392687 -0.0039747525 0.057959221
0.4139559 -0.0030191571 0.057953399
0.41398495 -0.002063565 0.057947576
0.41401398 -0.001107973 0.057941753
0.41312695 -0.00018803091 0.057474729
0.41315603 0.00076915103 0.057468899
0.41318515 0.0017263367 0.057463065
0.41321424 0.0026835261 0.057457231
0.41324332 0.003640708 0.057451401
0.41235653 0.004570202 0.056984279
0.41238567 0.0055289813 0.056978438
0.41241482 0.0064877607 0.056972597
0.41152826 0.0074236281 0.056505475
0.41064179 0.0083626816 0.056038339
0.41067103 0.0093246438 0.056032475
0.40978473 0.010268476 0.055565294
0.409814 0.011232032 0.055559423
0.40892783 0.012180639 0.055092227
0.40895718 0.01314579 0.055086344
0.4080711 0.014099176 0.054619081
0.40810049 0.015065916 0.054613192
0.40372482 -0.028788121 0.052281521
0.40467083 -0.027734725 0.052737754
0.40561676 -0.02668451 0.053194001
0.40656257 -0.025637489 0.053650286
0.40750828 -0.024593651 0.054106575
0.40845397 -0.023552995 0.054562908
0.4084833 -0.022587845 0.054557029
0.40942878 -0.021551972 0.055013377
0.40945804 -0.020588415 0.055007506
0.4104034 -0.019557316 0.055463873
0.41134864 -0.0185294 0.055920258
0.41137782 -0.017569032 0.055914406
0.41140699 -0.016608661 0.055908553
0.41235206 -0.01558712 0.056364991
0.41238117 -0.014628341 0.05635915
0.41241032 -0.013669565 0.056353305
0.41335523 -0.012654389 0.056809794
0.41338432 -0.011697208 0.056803964
0.41341344 -0.010740018 0.05679813
0.41344252 -0.0097828321 0.056792296
0.41347161 -0.0088256467 0.056786463
0.4135007 -0.0078684613 0.056780633
0.41352978 -0.0069112792 0.056774799
0.4135589 -0.0059540938 0.056768965
0.41358799 -0.0049969079 0.056763135
0.41361707 -0.0040397225 0.056757301
0.41364616 -0.0030825329 0.056751467
0.41367528 -0.002125351 0.056745633
0.41370437 -0.0011681654 0.056739803
0.41373345 -0.00021097976 0.05673397
0.41284746 0.00071210554 0.056265667
0.41287661 0.0016708812 0.056259826
0.41290575 0.0026296643 0.056253981
0.4129349 0.0035884397 0.05624814
0.41296405 0.0045472155 0.056242298
0.41207841 0.0054798606 0.055773951
0.41210759 0.0064402334 0.055768099
0.4112221 0.0073776548 0.055299737
0.41125134 0.0083396174 0.055293877
0.41036597 0.0092818178 0.054825485
0.41039526 0.010245374 0.054819614
0.40951005 0.011192352 0.054351181
0.40862489 0.012142514 0.053882714
0.40865427 0.013109258 0.053876821
0.40868366 0.014075998 0.053870931
0.40779874 0.015032532 0.053402454
0.4025104 -0.028975284 0.050601631
0.40440056 -0.026865222 0.051516578
0.40534547 -0.025814978 0.051974062
0.40629029 -0.024767917 0.052431565
0.40815023 -0.023650089 0.053352535
0.40817961 -0.022683349 0.053346641
0.40912417 -0.021645838 0.05380423
0.4100686 -0.020611517 0.054261811
0.41009787 -0.01964796 0.05425594
0.41104215 -0.018618412 0.054713558
0.41107139 -0.017656449 0.054707699
0.41201553 -0.016631687 0.055165336
0.4120447 -0.015671317 0.055159487
0.41207391 -0.014710944 0.055153634
0.41301784 -0.013692552 0.055611312
0.41304699 -0.012733773 0.055605467
0.41307613 -0.011774997 0.055599626
0.41310528 -0.010816215 0.055593785
0.4131344 -0.0098574394 0.05558794
0.41316354 -0.0088986596 0.055582099
0.41319269 -0.0079398844 0.055576257
0.41322184 -0.0069811046 0.055570412
0.41325098 -0.0060223294 0.055564571
0.41328013 -0.0050635501 0.055558726
0.41330928 -0.0041047744 0.055552885
0.41333839 -0.0031459914 0.055547044
0.41336754 -0.0021872157 0.055541199
0.41339669 -0.0012284365 0.055535357
0.41342583 -0.00026966084 0.055529516
0.41345498 0.00068911846 0.055523671
0.41348413 0.001647894 0.05551783
0.41259933 0.0025757244 0.055048294
0.41262853 0.0035360972 0.055042442
0.41265771 0.0044964664 0.05503659
0.41268691 0.005456836 0.055030737
0.41180238 0.0063926289 0.054561149
0.41183162 0.0073545915 0.054555289
0.41094723 0.0082951598 0.054085661
0.4109765 0.0092587164 0.05407979
0.41009226 0.010204066 0.053610146
0.41012159 0.011169212 0.053604264
0.40923744 0.012119336 0.053134564
0.40926683 0.013086081 0.053128675
0.40838286 0.014040982 0.05265896
0.40841231 0.015009316 0.052653059
0.39849681 -0.031376977 0.047534961
0.40035576 -0.030225623 0.048458181
0.40221456 -0.029080641 0.049381476
0.40315869 -0.028022395 0.049840145
0.40504673 -0.025915446 0.050757565
0.40599057 -0.02486675 0.051216304
0.40693432 -0.023821242 0.051675051
0.40787798 -0.022778923 0.052133817
0.40882152 -0.021739786 0.052592602
0.40976506 -0.020703828 0.053051431
0.40979439 -0.01973868 0.053045548
0.41073769 -0.018707501 0.053504385
0.41076699 -0.017743949 0.053498514
0.41171014 -0.016717549 0.053957388
0.41173938 -0.015755586 0.053951524
0.41268241 -0.014733969 0.054410417
0.41271159 -0.013773601 0.054404564
0.4127408 -0.012813231 0.054398712
0.41276997 -0.011852861 0.054392859
0.41279918 -0.010892485 0.054387007
0.41282836 -0.0099321157 0.054381154
0.41377106 -0.0089216465 0.054840114
0.41380021 -0.0079628704 0.054834273
0.41382933 -0.0070040915 0.054828431
0.41294512 -0.006090635 0.054357745
0.41297433 -0.0051302658 0.054351892
0.4130035 -0.0041698967 0.054346044
0.41303271 -0.0032095199 0.054340191
0.41306189 -0.0022491505 0.054334339
0.41309109 -0.0012887813 0.054328486
0.41312027 -0.00032841205 0.054322634
0.41314948 0.0006319572 0.054316781
0.41317865 0.0015923302 0.054310929
0.41320786 0.0025526993 0.054305077
0.41232416 0.003483675 0.053834286
0.41235343 0.004445638 0.053828422
0.41238266 0.0054076007 0.053822562
0.4124119 0.0063695656 0.053816698
0.41152847 0.0073085036 0.053345848
0.41155776 0.0082720583 0.053339977
0.41067445 0.0092157759 0.052869111
0.40979123 0.010162679 0.052398197
0.40982062 0.011129418 0.052392304
0.40893757 0.012081097 0.05192139
0.40896699 0.013049432 0.051915489
0.40808409 0.01400589 0.051444542
0.40811357 0.014975816 0.051438633
0.40814304 0.015945742 0.051432721
0.3991504 -0.030416312 0.046767246
0.40100721 -0.029268069 0.047692966
0.40474996 -0.026015989 0.049538575
0.40569291 -0.024965664 0.049998552
0.4075489 -0.023844497 0.050924424
0.40849155 -0.022802139 0.051384434
0.40852097 -0.021833805 0.051378533
0.40946347 -0.020796219 0.051838562
0.40949285 -0.01982948 0.051832668
0.41043526 -0.018796666 0.052292753
0.41046461 -0.017831519 0.052286871
0.41140682 -0.016803494 0.052746959
0.41143611 -0.015839936 0.052741084
0.41237816 -0.014816691 0.053201202
0.4124074 -0.013854728 0.053195339
0.41243663 -0.012892765 0.053189479
0.41337851 -0.011875886 0.05364963
0.41340771 -0.01091551 0.053643778
0.41343689 -0.0099551408 0.053637926
0.41346607 -0.0089947721 0.053632073
0.41349527 -0.0080344025 0.053626224
0.41352445 -0.0070740334 0.053620372
0.41355366 -0.0061136601 0.05361452
0.41358283 -0.0051532909 0.053608667
0.41361204 -0.0041929218 0.053602815
0.41364121 -0.003232545 0.053596962
0.41275826 -0.0023111659 0.053124998
0.4127875 -0.0013492029 0.053119134
0.41281676 -0.00038724003 0.053113271
0.412846 0.00057472289 0.053107411
0.41287524 0.0015366857 0.053101547
0.41290447 0.0024986486 0.053095687
0.41293371 0.0034606117 0.053089824
0.41205114 0.0043947324 0.052617781
0.41208044 0.005358289 0.05261191
0.4121097 0.0063218474 0.052606039
0.41122735 0.0072623393 0.052133955
0.41125667 0.008227488 0.052128073
0.41037437 0.0091727572 0.051655937
0.41040376 0.010139501 0.051650047
0.4095217 0.011089549 0.051177908
0.40955111 0.012057881 0.051172007
0.4086692 0.01301271 0.050699826
0.40869868 0.013982635 0.050693914
0.40872815 0.014952561 0.050688002
0.40784642 0.01591376 0.050215796
0.39977404 -0.030439908 0.046005543
0.40071639 -0.029373625 0.04646663
0.40257111 -0.028230075 0.047394868
0.40445524 -0.026116611 0.048317157
0.40539718 -0.025064657 0.048778333
0.40725127 -0.023941817 0.049706683
0.40819293 -0.022897827 0.050167907
0.40913454 -0.021857021 0.05062915
0.40916395 -0.020888686 0.050623249
0.41010541 -0.019852657 0.051084518
0.41013479 -0.018885914 0.051078629
0.41107613 -0.017854659 0.051539954
0.41110548 -0.016889513 0.051534072
0.41204664 -0.015863039 0.051995404
0.41207591 -0.014899485 0.051989529
0.4121052 -0.013935928 0.051983658
0.41304615 -0.012915828 0.052445028
0.41307539 -0.011953865 0.052439164
0.41310465 -0.010991899 0.052433304
0.41313389 -0.010029936 0.052427441
0.41316313 -0.0090679731 0.052421581
0.41319236 -0.00810601 0.052415717
0.4132216 -0.0071440474 0.052409858
0.41325083 -0.0061820843 0.052403994
0.41328007 -0.0052201212 0.05239813
0.41330931 -0.0042581586 0.05239227
0.41333854 -0.0032961918 0.052386407
0.41336778 -0.0023342289 0.052380547
0.41339704 -0.0013722661 0.052374683
0.41251522 -0.00044614408 0.051901456
0.41254452 0.00051740877 0.051895585
0.41257381 0.0014809653 0.051889714
0.41260308 0.002444522 0.051883843
0.41263238 0.0034080783 0.051877968
0.41266167 0.0043716314 0.051872097
0.41178021 0.0053089014 0.051398803
0.41180953 0.0062740515 0.05139292
0.41183889 0.0072392002 0.051387038
0.41095755 0.0081828386 0.05091368
0.41098693 0.0091495793 0.050907787
0.41010582 0.010097999 0.050434425
0.41013524 0.011066333 0.050428525
0.41016468 0.012034665 0.050422624
0.40928376 0.012989456 0.049949221
0.40840292 0.013947429 0.049475797
0.40843245 0.014918949 0.049469877
0.40846199 0.015890468 0.049463958
0.39854473 -0.031618275 0.044313241
0.40039769 -0.030463506 0.045243837
0.40133905 -0.029397186 0.045706157
0.40319175 -0.028253559 0.04663685
0.40322152 -0.027274078 0.046630882
0.40507385 -0.026140019 0.047561608
0.40601477 -0.025088025 0.048024014
0.40695566 -0.024039214 0.048486467
0.40789637 -0.022993593 0.048948914
0.40883699 -0.021951154 0.049411379
0.40886647 -0.020981226 0.04940547
0.40980697 -0.019943569 0.049867965
0.41074735 -0.018909091 0.050330479
0.41077673 -0.01794235 0.050324589
0.41171703 -0.016912652 0.050787158
0.41174635 -0.015947502 0.050781276
0.41177568 -0.014982356 0.050775394
0.41271573 -0.01395903 0.051237974
0.41274503 -0.012995473 0.051232103
0.41277432 -0.01203192 0.051226232
0.41280359 -0.01106836 0.051220361
0.41283289 -0.010104803 0.05121449
0.41286218 -0.0091412505 0.051208619
0.41289145 -0.0081776939 0.051202748
0.41292074 -0.0072141378 0.051196873
0.41295004 -0.006250585 0.051191002
0.41297933 -0.0052870284 0.051185131
0.4130086 -0.0043234718 0.05117926
0.4130379 -0.0033599115 0.051173389
0.41306719 -0.0023963586 0.051167518
0.41309649 -0.0014328019 0.051161643
0.41312575 -0.00046924542 0.051155772
0.41315505 0.00049430743 0.051149901
0.41318434 0.001457864 0.05114403
0.41230375 0.0023903186 0.050669529
0.41233307 0.0033554651 0.05066365
0.41236243 0.0043206154 0.050657768
0.41239175 0.0052857618 0.050651886
0.41151133 0.0062261787 0.05017731
0.41154072 0.0071929209 0.05017142
0.4115701 0.0081596607 0.05016553
0.41068995 0.0091064479 0.049690943
0.41071936 0.010074783 0.049685042
0.40983936 0.011026347 0.049210425
0.40986884 0.011996275 0.049204513
0.40898898 0.012952619 0.048729867
0.40901849 0.013924137 0.048723947
0.40813878 0.014885256 0.048249274
0.40816835 0.015858369 0.048243344
0.40819794 0.016831482 0.048237413
0.40008092 -0.031556658 0.0440186
0.40102133 -0.030487103 0.044482134
0.40196168 -0.029420745 0.044945687
0.40290192 -0.028357565 0.045409258
0.40475246 -0.027218636 0.046342447
0.40478218 -0.026240747 0.046336491
0.40663236 -0.025111394 0.047269698
0.40757224 -0.024062544 0.047733385
0.40851197 -0.023016885 0.048197065
0.40854147 -0.022045363 0.048191145
0.40948105 -0.021004481 0.048654854
0.41042051 -0.019966785 0.049118582
0.41044995 -0.018998448 0.049112681
0.41138929 -0.017965529 0.049576439
0.41141868 -0.016998788 0.049570546
0.41144806 -0.016032048 0.049564656
0.41238722 -0.015005495 0.050028477
0.41241658 -0.014040349 0.050022595
0.4124459 -0.013075198 0.050016716
0.41247523 -0.012110052 0.050010834
0.41250458 -0.011144898 0.050004952
0.41253391 -0.010179752 0.049999069
0.41256326 -0.0092146015 0.049993191
0.41259259 -0.0082494551 0.049987309
0.41262192 -0.0072843083 0.049981426
0.41265127 -0.0063191578 0.049975544
0.4126806 -0.0053540114 0.049969666
0.41270992 -0.0043888614 0.049963783
0.41273928 -0.0034237111 0.049957901
0.4127686 -0.0024585645 0.049952019
0.41279793 -0.0014934143 0.04994614
0.41282728 -0.00052826782 0.049940258
0.41285661 0.0004368824 0.049934376
0.41288593 0.001402029 0.049928494
0.41291529 0.0023671791 0.049922612
0.41294461 0.0033323257 0.049916733
0.41206512 0.004269517 0.049440943
0.4120945 0.0052362592 0.049435053
0.41212389 0.0062030014 0.04942916
0.41215327 0.0071697431 0.04942327
0.41127408 0.0081148976 0.048947461
0.41130352 0.0090832319 0.04894156
0.41042444 0.010033167 0.048465718
0.41045395 0.011003093 0.048459809
0.40957502 0.011957806 0.047983937
0.40960455 0.012929327 0.047978017
0.40963408 0.013900844 0.047972098
0.40875536 0.014861926 0.047496188
0.4078767 0.015826195 0.047020238
0.40790632 0.016800899 0.047014296
0.39970601 -0.034627959 0.042802949
0.40067562 -0.032566145 0.043261658
0.40161508 -0.031494964 0.043726414
0.40255445 -0.030426966 0.044191193
0.40349376 -0.029362155 0.04465599
0.40443298 -0.028300526 0.045120832
0.40537208 -0.027242081 0.045585666
0.40631109 -0.026186833 0.046050508
0.40724999 -0.025134763 0.046515383
0.40818882 -0.024085876 0.046980303
0.40912753 -0.023040177 0.047445215
0.40915707 -0.022068655 0.047439296
0.41009563 -0.021027735 0.047904238
0.41012511 -0.02005781 0.047898326
0.41106352 -0.019021664 0.048363298
0.41109294 -0.018053329 0.048357397
0.41112238 -0.017084995 0.048351496
0.41206059 -0.016055226 0.048816506
0.41208997 -0.015088483 0.048810616
0.41211936 -0.014121742 0.048804723
0.41305745 -0.013098339 0.049269788
0.4130868 -0.012133191 0.049263906
0.41311613 -0.011168038 0.049258024
0.41314545 -0.010202891 0.049252141
0.41317481 -0.0092377411 0.049246263
0.41320413 -0.0082725948 0.049240381
0.41323346 -0.007307448 0.049234498
0.41326281 -0.0063422979 0.049228616
0.41329214 -0.0053771515 0.049222738
0.4133215 -0.004412001 0.049216855
0.41335082 -0.0034468509 0.049210973
0.41338015 -0.0024817043 0.049205091
0.41250136 -0.0015541053 0.048728138
0.41253075 -0.00058736512 0.048722249
0.41256014 0.00037937507 0.048716359
0.41258952 0.0013461153 0.048710465
0.41261891 0.0023128591 0.048704576
0.41264829 0.0032795994 0.048698686
0.41267768 0.0042463392 0.048692793
0.41270706 0.0052130814 0.048686903
0.41182876 0.0061550159 0.048209876
0.4118582 0.0071233497 0.048203975
0.41188765 0.0080916816 0.048198078
0.41100955 0.0090399859 0.047721013
0.41103902 0.010009913 0.047715101
0.41016108 0.010962994 0.047238007
0.41019061 0.011934513 0.047232088
0.41022015 0.012906034 0.047226168
0.40934238 0.013865484 0.046749037
0.40846467 0.014828121 0.046271861
0.40849429 0.015802827 0.046265919
0.40761676 0.016770242 0.045788739
0.40764645 0.01774654 0.04578279
0.40124035 -0.034561485 0.042510733
0.4012703 -0.033575635 0.042504728
0.40220881 -0.032502826 0.04297071
0.40223873 -0.031518564 0.042964712
0.40317711 -0.030450527 0.043430708
0.40411538 -0.029385677 0.043896738
0.40505362 -0.028324008 0.044362813
0.4059917 -0.027265526 0.044828884
0.40692967 -0.026210239 0.04529497
0.40786758 -0.025158131 0.045761067
0.40880543 -0.024109205 0.04622722
0.40883499 -0.023136094 0.04622129
0.40977263 -0.022091947 0.046687447
0.40980217 -0.021120431 0.046681523
0.41073966 -0.020081066 0.04714771
0.41076916 -0.019111134 0.047141798
0.41170651 -0.018076546 0.047608003
0.41173595 -0.017108211 0.047602102
0.4117654 -0.016139878 0.047596201
0.41270253 -0.015111661 0.048062455
0.41273192 -0.014144921 0.048056561
0.4127613 -0.01317818 0.048050672
0.41279069 -0.01221144 0.048044778
0.41282007 -0.011244697 0.048038889
0.41284946 -0.010277956 0.048032999
0.41287884 -0.0093112122 0.048027106
0.41290823 -0.0083444715 0.048021216
0.41293761 -0.0073777316 0.048015326
0.412967 -0.0064109918 0.048009433
0.41299638 -0.0054442515 0.048003543
0.41302577 -0.0044775112 0.047997653
0.41305515 -0.0035107636 0.04799176
0.41308454 -0.0025440236 0.04798587
0.41311392 -0.0015772834 0.047979977
0.41314331 -0.00061054318 0.047974087
0.41317269 0.00035619695 0.047968198
0.41320208 0.0013229371 0.047962304
0.41323146 0.002289681 0.047956415
0.41235405 0.0032267983 0.047478184
0.41238347 0.0041951323 0.047472283
0.41241291 0.0051634642 0.047466382
0.41244233 0.0061317999 0.047460482
0.41247177 0.0071001337 0.047454581
0.41159463 0.0080468059 0.046976306
0.4116241 0.0090167318 0.046970397
0.41074711 0.0099681839 0.046492081
0.41077664 0.010939701 0.046486158
0.41080618 0.011911221 0.046480238
0.40992939 0.012869042 0.046001885
0.40905264 0.013830048 0.045523483
0.40908226 0.014804753 0.045517541
0.40820572 0.015770538 0.045039151
0.40823537 0.016746836 0.045033202
0.40735897 0.017717397 0.04455477
0.40738869 0.018695286 0.04454881
0.40092734 -0.035662752 0.041280612
0.40186501 -0.034585122 0.041747797
0.40189496 -0.033599272 0.041741788
0.40283248 -0.032526422 0.042209003
0.40376988 -0.031456754 0.042676225
0.40379974 -0.030474085 0.042670239
0.40564448 -0.029326973 0.043610778
0.40567425 -0.028347492 0.04360481
0.40661132 -0.027288971 0.04407211
0.40754831 -0.026233647 0.044539422
0.40848517 -0.0251815 0.045006763
0.40942201 -0.024132537 0.045474149
0.40945157 -0.023159426 0.045468219
0.41038823 -0.02211524 0.045935594
0.41041777 -0.021143723 0.045929674
0.4104473 -0.020172205 0.045923755
0.41138372 -0.019134387 0.046391182
0.41141319 -0.018164463 0.046385273
0.41234949 -0.017131427 0.04685273
0.41237894 -0.016163094 0.046846829
0.41240838 -0.015194763 0.046840928
0.4124378 -0.01422643 0.046835028
0.41246724 -0.013258096 0.046829127
0.41249666 -0.012289762 0.046823226
0.4125261 -0.011321425 0.046817325
0.41255555 -0.010353091 0.046811424
0.4134914 -0.0093343901 0.047278956
0.41352078 -0.0083676493 0.047273066
0.41355017 -0.0074009094 0.047267176
0.41357955 -0.0064341691 0.047261283
0.41360894 -0.0054674293 0.047255393
0.41363832 -0.004500689 0.047249503
0.41276157 -0.0035747541 0.046770118
0.41279098 -0.0026064201 0.046764217
0.41282043 -0.0016380864 0.046758316
0.41284987 -0.00066975254 0.046752416
0.41287929 0.00029858126 0.046746515
0.41290873 0.0012669114 0.046740614
0.41293815 0.0022352489 0.046734713
0.41296759 0.0032035827 0.046728812
0.41299704 0.0041719167 0.046722911
0.41302645 0.0051402487 0.04671701
0.41215023 0.0060836985 0.04623751
0.41217971 0.0070536258 0.046231601
0.41220921 0.0080235517 0.046225689
0.41133317 0.0089733703 0.045746151
0.41136271 0.0099448916 0.045740228
0.41139224 0.010916409 0.045734309
0.41051638 0.0118726 0.045254741
0.41054597 0.012845713 0.045248814
0.40967023 0.013806679 0.044769179
0.40879464 0.014770834 0.044289552
0.40882432 0.01574713 0.044283602
0.40794885 0.016716063 0.043803956
0.40797859 0.017693954 0.043797996
0.40710327 0.018667663 0.043318313
0.40713304 0.019647144 0.043312345
0.401553 -0.035686426 0.04051644
0.40248966 -0.034608755 0.040984847
0.4034262 -0.033534277 0.041453283
0.40345612 -0.032550022 0.041447286
0.40439254 -0.031480316 0.041915756
0.4044224 -0.030497646 0.041909765
0.40626511 -0.029350458 0.042852763
0.40629488 -0.028370975 0.042846791
0.40723094 -0.027312417 0.043315329
0.40816692 -0.026257053 0.04378387
0.40910277 -0.025204869 0.044252444
0.41003859 -0.024155866 0.044721063
0.41006818 -0.023182755 0.044715136
0.41009775 -0.022209644 0.044709206
0.41103333 -0.021167016 0.045177825
0.41106287 -0.020195497 0.045171905
0.4110924 -0.019223973 0.045165986
0.41202778 -0.018187718 0.045634657
0.41205725 -0.017217791 0.045628745
0.41208676 -0.016247863 0.045622837
0.41211623 -0.01527794 0.045616925
0.41305137 -0.014249646 0.046085637
0.41308081 -0.013281312 0.046079736
0.41311023 -0.012312979 0.046073835
0.41313967 -0.011344641 0.046067934
0.41316909 -0.010376307 0.046062034
0.41319853 -0.0094079729 0.046056133
0.41322798 -0.0084396396 0.046050236
0.41325739 -0.007471309 0.046044335
0.41328683 -0.0065029752 0.046038434
0.41331625 -0.0055346414 0.046032533
0.41334569 -0.0045663076 0.046026632
0.41337514 -0.0035979701 0.046020731
0.41340455 -0.0026296363 0.04601483
0.413434 -0.0016613025 0.04600893
0.41346341 -0.00069296866 0.046003029
0.41349286 0.00027536514 0.045997128
0.4135223 0.0012436953 0.045991227
0.41264689 0.00218074 0.045510538
0.41267636 0.0031506638 0.045504626
0.41270584 0.0041205911 0.045498714
0.41273534 0.005090517 0.045492806
0.41276482 0.0060604443 0.045486894
0.4118897 0.0070070415 0.045006141
0.41191924 0.0079785585 0.045000222
0.41194877 0.0089500779 0.044994298
0.41107383 0.0099030472 0.04451352
0.4111034 0.010876158 0.044507589
0.41113299 0.011849269 0.044501659
0.4102582 0.012808608 0.044020802
0.40938357 0.013771131 0.043539949
0.40941325 0.014747427 0.043533999
0.40853876 0.015714727 0.043053132
0.40856847 0.016692618 0.043047175
0.40769413 0.017664697 0.042566266
0.4077239 0.018644178 0.042560294
0.40684965 0.019621035 0.042079329
0.40597555 0.020601077 0.041598383
0.40308434 -0.035618249 0.040227927
0.40311432 -0.034632392 0.040221922
0.40404987 -0.033557873 0.040691581
0.40407977 -0.032573618 0.040685583
0.40501517 -0.031503875 0.041155282
0.40595046 -0.030437317 0.041624993
0.40688571 -0.02937394 0.042094756
0.40782082 -0.028313758 0.042564511
0.40875584 -0.027256755 0.043034282
0.40878549 -0.026280459 0.043028332
0.40972036 -0.025228238 0.043498136
0.40974998 -0.024253532 0.043492194
0.41068476 -0.023206087 0.04396205
0.41071433 -0.022232976 0.043956123
0.4116489 -0.021190308 0.044425987
0.41167843 -0.02021879 0.044420067
0.41170797 -0.019247266 0.044414148
0.4117375 -0.018275747 0.044408228
0.41267183 -0.017241044 0.044878136
0.41270131 -0.016271118 0.044872224
0.41273078 -0.015301194 0.044866312
0.41276026 -0.014331266 0.044860404
0.41278976 -0.013361342 0.044854492
0.41281924 -0.012391414 0.044848584
0.41284871 -0.011421484 0.044842672
0.41287819 -0.01045156 0.044836763
0.41290769 -0.0094816322 0.044830851
0.41293716 -0.0085117053 0.044824939
0.41296664 -0.0075417813 0.044819031
0.41299611 -0.006571854 0.044813119
0.41302559 -0.00560193 0.044807211
0.41305509 -0.0046320027 0.044801299
0.41308457 -0.0036620714 0.044795386
0.41311404 -0.0026921476 0.044789478
0.41314352 -0.0017222201 0.044783566
0.41317302 -0.00075229642 0.044777658
0.41320249 0.00021763108 0.044771746
0.41323197 0.0011875585 0.044765837
0.41326144 0.002157486 0.044759925
0.41329092 0.0031274098 0.044754013
0.41332042 0.0040973374 0.044748105
0.4124462 0.0050407094 0.044266142
0.41247573 0.0060122302 0.044260222
0.41250527 0.0069837496 0.044254303
0.4125348 0.0079552671 0.044248383
0.41166085 0.0089066029 0.043766364
0.41169041 0.0098797167 0.043760438
0.41172001 0.010852828 0.043754507
0.41084617 0.011810533 0.043272432
0.4108758 0.012785239 0.04326649
0.41000217 0.013747724 0.042784411
0.40912864 0.014713392 0.042302314
0.40915838 0.015691282 0.042296354
0.40828499 0.016661732 0.041814227
0.40831476 0.017641213 0.041808259
0.40744147 0.018616438 0.041326072
0.40656832 0.01959485 0.0408439
0.40659821 0.020577516 0.040837914
0.40277433 -0.036721222 0.038994115
0.40370902 -0.035641886 0.039464977
0.4046436 -0.034565736 0.039935868
0.40467352 -0.033581473 0.039929871
0.40560794 -0.032510102 0.040400788
0.40563783 -0.031527434 0.040394802
0.4065721 -0.030460838 0.040865749
0.40750635 -0.029397424 0.041336741
0.40844044 -0.028337203 0.041807726
0.40937445 -0.027280161 0.042278733
0.40940413 -0.026303867 0.042272784
0.41033795 -0.025251606 0.042743817
0.41036758 -0.024276901 0.042737879
0.41130134 -0.023229416 0.043208968
0.41133094 -0.022256305 0.043203037
0.4113605 -0.021283191 0.04319711
0.41229403 -0.020242082 0.043668211
0.41232356 -0.019270558 0.043662291
0.41235307 -0.018299039 0.043656372
0.4123826 -0.017327523 0.043650452
0.41241214 -0.016356003 0.043644533
0.41244167 -0.015384484 0.043638609
0.4124712 -0.014412967 0.04363269
0.41340432 -0.013384596 0.044103872
0.41343382 -0.01241467 0.04409796
0.41346329 -0.011444738 0.044092052
0.41349277 -0.010474814 0.04408614
0.41352224 -0.0095048873 0.044080228
0.41355175 -0.0085349595 0.044074319
0.41358122 -0.0075650355 0.044068407
0.4136107 -0.0065951082 0.044062499
0.41364017 -0.0056251842 0.044056587
0.41366965 -0.0046552569 0.044050675
0.41369915 -0.0036853256 0.044044767
0.41372862 -0.002715402 0.044038855
0.4137581 -0.0017454745 0.044032946
0.41378757 -0.00077555072 0.044027034
0.41291416 0.00015982027 0.043543886
0.41294369 0.0011313414 0.043537967
0.4129732 0.0021028626 0.043532047
0.41300273 0.0030743799 0.043526128
0.41303226 0.0040458972 0.043520208
0.4130618 0.0050174166 0.043514285
0.41218871 0.0059639378 0.04303107
0.41221827 0.0069370507 0.043025143
0.41224787 0.0079101613 0.043019213
0.41227743 0.0088832723 0.043013282
0.41140452 0.0098377559 0.042529993
0.41143414 0.010812459 0.042524055
0.41146377 0.011787164 0.042518113
0.41059113 0.01274802 0.042034812
0.41062078 0.013724317 0.042028863
0.40974826 0.014689947 0.041545533
0.40887585 0.015658764 0.04106218
0.40890563 0.016638247 0.041056212
0.4089354 0.01761773 0.041050244
0.40806311 0.018592916 0.040566828
0.40719098 0.019571289 0.04008342
0.40722084 0.020553958 0.040077429
0.40634885 0.021537108 0.039593991
0.4034 -0.036744896 0.038229939
0.40433368 -0.03566552 0.038702041
0.40526724 -0.034589332 0.039174162
0.40529716 -0.033605069 0.039168164
0.4062306 -0.032533664 0.039640315
0.40626046 -0.031550992 0.039634328
0.40719372 -0.03048436 0.040106509
0.40812698 -0.029420907 0.040578734
0.40906006 -0.028360648 0.041050956
0.40999305 -0.027303569 0.041523188
0.41002271 -0.026327273 0.041517239
0.41095555 -0.025274975 0.041989509
0.4109852 -0.02430027 0.041983567
0.41191795 -0.023252748 0.042455893
0.41194752 -0.022279637 0.042449962
0.41197708 -0.021306522 0.042444032
0.41200668 -0.020333409 0.042438101
0.41203624 -0.019360295 0.04243217
0.41296867 -0.018322332 0.042904526
0.4129982 -0.017350815 0.042898607
0.4130277 -0.016379293 0.042892687
0.41305724 -0.015407776 0.042886768
0.41308677 -0.014436259 0.042880848
0.41311631 -0.013464738 0.042874925
0.41314584 -0.01249322 0.042869005
0.41317537 -0.011521696 0.042863086
0.41320491 -0.010550179 0.042857166
0.41323441 -0.0095786611 0.042851247
0.41326395 -0.0086071435 0.042845324
0.41329348 -0.0076356223 0.042839404
0.41332301 -0.0066641048 0.042833485
0.41335255 -0.0056925877 0.042827565
0.41338208 -0.0047210664 0.042821646
0.41341162 -0.0037495452 0.042815726
0.41344112 -0.0027780279 0.042809803
0.41347066 -0.0018065068 0.042803884
0.41350019 -0.00083498936 0.042797964
0.41352972 0.00013652808 0.042792045
0.41355926 0.0011080492 0.042786125
0.41358879 0.0020795704 0.042780202
0.41271654 0.003021274 0.042295784
0.41274613 0.0039943852 0.042289853
0.4127757 0.0049674944 0.042283926
0.41280529 0.0059406073 0.042277995
0.41193324 0.0068902732 0.041793503
0.41196287 0.0078649782 0.041787561
0.41199249 0.0088396808 0.041781623
0.41202211 0.0098143872 0.041775681
0.41205174 0.010789091 0.041769743
0.41118005 0.011748313 0.041285217
0.4112097 0.012724614 0.041279268
0.41033816 0.013688614 0.040794719
0.41036788 0.014666502 0.040788759
0.40949646 0.015635282 0.040304177
0.4086251 0.016607245 0.039819546
0.40865493 0.017588321 0.039813567
0.40778375 0.018565061 0.039328936
0.40781361 0.019547731 0.039322946
0.40694261 0.02052925 0.038838286
0.40697253 0.02151351 0.038832288
0.40700242 0.022497771 0.038826291
0.40492839 -0.036675014 0.037945103
0.40495834 -0.035689157 0.037939098
0.40498832 -0.034703299 0.037933089
0.40592083 -0.033628669 0.038406454
0.40685323 -0.032557223 0.038879834
0.40688309 -0.031574555 0.038873844
0.40781537 -0.030507881 0.039347261
0.40874761 -0.029444391 0.03982072
0.40967968 -0.028384093 0.040294174
0.40970939 -0.027406197 0.040288214
0.41064131 -0.026350681 0.040761694
0.41157317 -0.025298344 0.04123519
0.4116028 -0.024323639 0.041229252
0.41163242 -0.023348935 0.04122331
0.4125641 -0.022302967 0.04169688
0.41259369 -0.021329852 0.041690949
0.41262326 -0.020356741 0.041685019
0.41265285 -0.019383626 0.041679088
0.41268241 -0.018410515 0.041673157
0.41271201 -0.017437404 0.04166723
0.41274157 -0.016464293 0.0416613
0.41367283 -0.015431069 0.042134918
0.41370237 -0.014459551 0.042128995
0.41283032 -0.01354496 0.041643508
0.41376141 -0.012516513 0.042117156
0.41379094 -0.011544988 0.042111237
0.41382048 -0.010573471 0.042105317
0.41385001 -0.0096019534 0.042099398
0.41387954 -0.0086304359 0.042093474
0.41390908 -0.0076589147 0.042087555
0.41393858 -0.0066873971 0.042081635
0.41396812 -0.0057158801 0.042075716
0.41309652 -0.0047869561 0.041590139
0.41312608 -0.0038138377 0.041584212
0.41315567 -0.0028407266 0.041578282
0.41318524 -0.0018676156 0.041572351
0.41321483 -0.00089450454 0.04156642
0.4132444 7.8606528e-05 0.04156049
0.41327399 0.0010517176 0.041554563
0.41330355 0.0020248324 0.041548632
0.41333315 0.0029979434 0.041542701
0.41246197 0.0039427904 0.041057002
0.41249159 0.004917495 0.041051064
0.41252121 0.0058921999 0.041045126
0.41255084 0.0068669044 0.041039184
0.41258046 0.0078416094 0.041033246
0.41170964 0.0087960148 0.04054752
0.41173929 0.0097723128 0.040541571
0.41176897 0.01074861 0.040535621
0.41179866 0.011724906 0.040529672
0.41092804 0.012687278 0.040043894
0.41095778 0.013665169 0.040037934
0.41008732 0.014632315 0.03955213
0.41011709 0.015611798 0.039546158
0.40924674 0.016583724 0.039060295
0.40927655 0.0175648 0.039054319
0.40840641 0.018541502 0.038568452
0.40753633 0.019521393 0.038082574
0.40756625 0.020505652 0.038076576
0.40759617 0.021489913 0.038070578
0.40762609 0.022474173 0.03806458
0.40675625 0.023462025 0.037578646
0.40465134 -0.036792245 0.036701594
0.40558299 -0.035712793 0.037176158
0.40651456 -0.034636527 0.037650749
0.40654448 -0.033652265 0.037644751
0.4065744 -0.032668009 0.037638754
0.40750575 -0.031598113 0.038113374
0.40753561 -0.030615443 0.038107388
0.40936822 -0.029467873 0.039062716
0.40939799 -0.028488392 0.039056744
0.41032901 -0.027429642 0.039531436
0.41125992 -0.026374087 0.04000615
0.4112896 -0.025397789 0.0400002
0.41131929 -0.024421494 0.039994251
0.41225001 -0.023372304 0.040469002
0.41227964 -0.022397598 0.04046306
0.41230926 -0.021422897 0.040457122
0.41233888 -0.020448193 0.040451184
0.41326943 -0.019406956 0.040926013
0.41329899 -0.018433845 0.040920082
0.41332859 -0.017460734 0.040914152
0.41335815 -0.016487623 0.040908221
0.41338775 -0.015514513 0.04090229
0.41341731 -0.014541402 0.040896364
0.4134469 -0.01356829 0.040890433
0.41347647 -0.012595179 0.040884502
0.41350606 -0.011622064 0.040878572
0.41353562 -0.010648953 0.040872641
0.41356522 -0.0096758418 0.040866714
0.41359478 -0.0087027308 0.040860783
0.41362438 -0.0077296197 0.040854853
0.41365394 -0.0067565087 0.040848922
0.41368353 -0.0057833977 0.040842991
0.4137131 -0.0048102867 0.040837064
0.41374269 -0.0038371682 0.040831134
0.41377226 -0.002864057 0.040825203
0.41290179 -0.0019288029 0.04033833
0.41293141 -0.00095409818 0.040332392
0.41296104 2.0602831e-05 0.04032645
0.41299066 0.00099530758 0.040320512
0.41302031 0.0019700122 0.040314574
0.41304994 0.002944717 0.040308632
0.41307956 0.0039194217 0.040302694
0.41310918 0.0048941267 0.040296752
0.41223919 0.0058437185 0.039809823
0.41226888 0.0068200151 0.039803874
0.41229856 0.0077963118 0.039797924
0.41232821 0.0087726079 0.039791975
0.4123579 0.0097489068 0.039786026
0.41148823 0.010708053 0.039299034
0.41151795 0.011685943 0.039293077
0.41154766 0.012663833 0.039287116
0.41067818 0.013629351 0.038800091
0.41070795 0.014608833 0.038794123
0.40983856 0.015579127 0.038307037
0.40986836 0.016560202 0.038301058
0.40899917 0.017535277 0.037813969
0.40902904 0.018517941 0.037807982
0.40815997 0.019497795 0.037320867
0.40818989 0.020482054 0.037314869
0.40821981 0.021466315 0.037308872
0.40735096 0.022452535 0.036821716
0.40738094 0.02343839 0.036815707
0.40530705 -0.035828467 0.035931401
0.40623763 -0.034750573 0.036407206
0.40626761 -0.033764724 0.036401201
0.40719804 -0.032691609 0.03687704
0.40722796 -0.031707346 0.036871042
0.40815827 -0.030639002 0.037346907
0.40908846 -0.029573848 0.037822794
0.41001862 -0.028511874 0.03829873
0.4100484 -0.027532393 0.038292762
0.41097835 -0.026475199 0.038768701
0.41100806 -0.02549731 0.038762741
0.41193789 -0.0244449 0.039238703
0.41196758 -0.023468602 0.039232753
0.41289723 -0.022420967 0.039708745
0.41292685 -0.021446267 0.039702807
0.41295648 -0.020471562 0.039696865
0.41298613 -0.019496853 0.039690927
0.41301575 -0.018522149 0.039684989
0.41304538 -0.017547444 0.039679047
0.413075 -0.016572738 0.039673109
0.41310462 -0.015598038 0.039667167
0.41313425 -0.014623333 0.039661229
0.41316387 -0.013648628 0.039655291
0.41319349 -0.012673924 0.039649349
0.41322312 -0.011699216 0.039643411
0.41325277 -0.01072451 0.039637469
0.41328239 -0.0097498093 0.039631531
0.41331202 -0.0087751048 0.039625593
0.41334164 -0.0078004003 0.039619651
0.41337126 -0.0068256953 0.039613713
0.41340089 -0.0058509945 0.039607771
0.41343051 -0.0048762895 0.039601833
0.41346014 -0.003901581 0.039595895
0.41348976 -0.0029268763 0.039589953
0.41351938 -0.0019521717 0.039584015
0.41265008 -0.0010137698 0.03909592
0.41267976 -3.7471367e-05 0.03908997
0.41270944 0.00093882327 0.039084021
0.41273913 0.0019151217 0.039078072
0.41276878 0.0028914202 0.039072122
0.41279846 0.0038677147 0.039066173
0.41282815 0.0048440131 0.039060224
0.4128578 0.0058203116 0.039054275
0.41198894 0.006773049 0.038566094
0.41201866 0.0077509372 0.038560133
0.4120484 0.0087288273 0.038554177
0.41207811 0.0097067198 0.038548216
0.41210783 0.010684608 0.038542259
0.41123927 0.011646901 0.038054012
0.41126904 0.012626385 0.038048044
0.41129881 0.013605868 0.038042076
0.41043037 0.01457453 0.037553765
0.41046017 0.015555605 0.037547786
0.40959194 0.01652905 0.037059478
0.4096218 0.017511716 0.037053492
0.40875372 0.018489936 0.036565155
0.40878364 0.019474197 0.036559157
0.40881357 0.020458456 0.036553159
0.40884346 0.021442717 0.036547162
0.40797561 0.0224289 0.036058772
0.4080056 0.023414753 0.036052763
0.40803555 0.024400605 0.036046755
0.40686229 -0.03477421 0.035644263
0.40689227 -0.033788361 0.035638254
0.40692222 -0.032802504 0.035632249
0.40785161 -0.031730942 0.036109328
0.40788153 -0.03074668 0.036103331
0.40881076 -0.0296799 0.036580443
0.40973991 -0.028616302 0.037057571
0.41066903 -0.027555875 0.037534751
0.4106988 -0.026576394 0.037528783
0.41162768 -0.025520755 0.038005959
0.41165742 -0.024542868 0.037999999
0.41258618 -0.02349201 0.038477205
0.41261587 -0.022515716 0.038471255
0.41264552 -0.021539416 0.038465306
0.4126752 -0.020563122 0.038459357
0.41270489 -0.01958682 0.038453408
0.41273454 -0.018610522 0.038447458
0.41276422 -0.017634228 0.038441509
0.4127939 -0.016657928 0.03843556
0.41282359 -0.015681634 0.03842961
0.41285324 -0.014705336 0.038423661
0.41378146 -0.013671997 0.038900971
0.41291261 -0.012752743 0.038411763
0.41294226 -0.011776445 0.038405813
0.41297194 -0.010800146 0.038399864
0.41300163 -0.0098238513 0.038393915
0.41303131 -0.0088475524 0.038387965
0.41306096 -0.0078712581 0.038382016
0.41309065 -0.0068949596 0.038376067
0.41312033 -0.0059186649 0.038370118
0.41315001 -0.0049423664 0.038364168
0.41317967 -0.0039660647 0.038358219
0.41320935 -0.0029897697 0.03835227
0.41323903 -0.0020134714 0.03834632
0.41326869 -0.0010371767 0.038340371
0.41329837 -6.0878359e-05 0.038334422
0.41332805 0.00091541628 0.038328473
0.41245994 0.0018601547 0.037839107
0.41248968 0.002838043 0.037833147
0.4125194 0.003815935 0.037827186
0.41254911 0.0047938232 0.03782123
0.41257885 0.0057717152 0.037815269
0.41260856 0.0067496039 0.037809312
0.41174081 0.0077054882 0.037319876
0.41177058 0.0086849704 0.037313908
0.41180035 0.0096644545 0.03730794
0.41183013 0.010643936 0.037301973
0.4118599 0.011623418 0.037296001
0.41188967 0.012602902 0.037290033
0.41102219 0.013569934 0.0368005
0.41105199 0.014551008 0.036794521
0.41018471 0.01552282 0.036304992
0.4102146 0.016505489 0.036299001
0.41024446 0.017488157 0.036293015
0.40937737 0.018466337 0.035803437
0.40940729 0.019450599 0.03579744
0.40943721 0.020434858 0.035791442
0.40946713 0.021419119 0.035785444
0.4086003 0.022405263 0.035295825
0.40863025 0.023391118 0.03528982
0.40866023 0.02437697 0.035283811
0.40779358 0.025369486 0.034794156
0.40658841 -0.034888376 0.034397036
0.40661842 -0.033900924 0.034391016
0.40754688 -0.032826141 0.03486931
0.40757686 -0.031840291 0.034863304
0.40850517 -0.030770278 0.035341632
0.40943342 -0.029703461 0.035819974
0.40946329 -0.028720791 0.035813984
0.41039136 -0.02765874 0.036292356
0.4113194 -0.026599877 0.036770772
0.41134918 -0.025620395 0.036764801
0.41227704 -0.024566311 0.037243221
0.41230676 -0.023588425 0.037237264
0.41233647 -0.022610536 0.037231304
0.41236621 -0.021632647 0.037225343
0.41329381 -0.020586528 0.03770382
0.41332346 -0.019610226 0.03769787
0.41335315 -0.018633928 0.037691921
0.41338283 -0.017657634 0.037685972
0.41341251 -0.016681336 0.037680022
0.41344216 -0.01570504 0.037674073
0.41347185 -0.014728742 0.037668124
0.41350153 -0.013752447 0.037662175
0.41353121 -0.012776149 0.037656225
0.41356087 -0.011799851 0.037650276
0.41269317 -0.010875857 0.037159797
0.41272289 -0.009897965 0.037153836
0.4127526 -0.0089200772 0.037147876
0.41278234 -0.0079421885 0.037141919
0.41281205 -0.0069643003 0.037135959
0.41284177 -0.0059864083 0.037130002
0.41287151 -0.0050085196 0.037124041
0.41290122 -0.0040306277 0.037118081
0.41293094 -0.0030527394 0.037112124
0.41296068 -0.0020748475 0.037106164
0.41299039 -0.001096959 0.037100207
0.4130201 -0.00011907073 0.037094247
0.41304985 0.0008588176 0.037088286
0.41307956 0.0018367097 0.037082329
0.41221258 0.0027845935 0.036591709
0.41224235 0.0037640755 0.036585741
0.4122721 0.0047435574 0.036579773
0.41230187 0.005723041 0.036573805
0.41233164 0.0067025232 0.036567837
0.41236141 0.0076820049 0.036561865
0.41239119 0.0086614871 0.036555897
0.41242096 0.0096409712 0.03654993
0.41155437 0.010603186 0.036059197
0.41158417 0.011584261 0.036053218
0.411614 0.012565337 0.036047239
0.4116438 0.013546413 0.036041263
0.41077751 0.014516593 0.035550509
0.41080737 0.01549926 0.035544518
0.41083723 0.01648193 0.035538532
0.41086709 0.017464597 0.035532542
0.41000104 0.018442741 0.035041738
0.41003093 0.019427001 0.035035741
0.41006085 0.02041126 0.035029743
0.40919498 0.021395776 0.034538895
0.40922496 0.022381628 0.03453289
0.40925491 0.023367481 0.034526881
0.40928489 0.024353333 0.034520876
0.40841925 0.025345812 0.034029983
0.40721408 -0.03491205 0.033632856
0.40724409 -0.033924598 0.03362684
0.4072741 -0.032937154 0.033620823
0.40820152 -0.031863924 0.034100357
0.4082315 -0.030878069 0.034094352
0.40915877 -0.02980962 0.034573916
0.41008592 -0.028744351 0.035053503
0.41011581 -0.027761681 0.035047513
0.41104284 -0.026701186 0.035527125
0.41196981 -0.025643878 0.036006793
0.41199958 -0.024664396 0.036000822
0.41202936 -0.023684915 0.035994854
0.41295609 -0.022633981 0.036474526
0.41298583 -0.021656092 0.036468565
0.41301554 -0.0206782 0.036462609
0.41304526 -0.019700307 0.036456648
0.413075 -0.018722421 0.036450692
0.41310471 -0.017744528 0.036444731
0.41313443 -0.016766639 0.036438771
0.41316417 -0.015788751 0.036432814
0.41319388 -0.014810863 0.036426853
0.41322359 -0.013832971 0.036420897
0.41325334 -0.012855083 0.036414936
0.41328305 -0.01187719 0.036408976
0.41331276 -0.010899303 0.036403019
0.41334251 -0.0099214101 0.036397059
0.41247594 -0.0089926776 0.035905324
0.41250572 -0.0080131954 0.035899356
0.41253549 -0.0070337132 0.035893388
0.41256523 -0.0060542314 0.035887416
0.412595 -0.0050747492 0.035881449
0.41262478 -0.0040952638 0.035875481
0.41265455 -0.0031157818 0.035869513
0.41268432 -0.0021362999 0.035863545
0.41271409 -0.0011568178 0.035857573
0.41274387 -0.00017733578 0.035851605
0.41277364 0.00080214621 0.035845637
0.41280341 0.0017816281 0.035839669
0.41283318 0.0027611102 0.035833698
0.41286296 0.0037405922 0.03582773
0.41289273 0.0047200741 0.035821762
0.41202688 0.00567429 0.035329841
0.41205671 0.0066553657 0.035323862
0.41208655 0.0076364395 0.035317883
0.41211635 0.0086175129 0.035311904
0.41214618 0.0095985904 0.035305925
0.41217598 0.010579664 0.035299946
0.41220582 0.01156074 0.03529397
0.41134042 0.012527699 0.034802001
0.41137028 0.013510366 0.034796011
0.41140014 0.014493033 0.034790024
0.41143 0.015475701 0.034784038
0.41145989 0.01645837 0.034778047
0.41148975 0.017441038 0.034772061
0.41062468 0.018419143 0.034280024
0.4106546 0.019403404 0.034274027
0.41068453 0.020387663 0.034268029
0.40981963 0.021372139 0.033775952
0.40984961 0.022357991 0.033769947
0.40987957 0.023343846 0.033763938
0.40901491 0.024334691 0.033271823
0.40904492 0.025322137 0.033265807
0.40818033 0.026317762 0.032773636
0.4060165 -0.036107566 0.031901188
0.40694314 -0.035026327 0.032381903
0.40786976 -0.033948272 0.032862674
0.40789977 -0.032960828 0.032856658
0.40792978 -0.031973388 0.032850638
0.40885612 -0.030901704 0.03333142
0.4088861 -0.029915856 0.033325411
0.40981233 -0.028848955 0.033806212
0.41073844 -0.027785242 0.034287043
0.4107683 -0.026802571 0.034281053
0.41169429 -0.025743635 0.034761909
0.41172409 -0.02476256 0.03475593
0.41264999 -0.023708398 0.035236843
0.41267976 -0.022728916 0.035230875
0.41270953 -0.021749433 0.035224907
0.41273931 -0.020769952 0.035218939
0.41276908 -0.019790467 0.035212968
0.41279885 -0.018810984 0.035207
0.41282862 -0.017831502 0.035201032
0.4128584 -0.016852019 0.035195064
0.41288814 -0.015872538 0.035189096
0.41291791 -0.014893056 0.035183124
0.41294768 -0.013913575 0.035177156
0.41297746 -0.012934092 0.035171188
0.41300723 -0.011954607 0.03516522
0.413037 -0.010975124 0.035159249
0.41306677 -0.0099956421 0.035153281
0.41309655 -0.0090161609 0.035147313
0.41312632 -0.0080366787 0.035141345
0.41315609 -0.0070571965 0.035135377
0.41318586 -0.0060777147 0.035129406
0.41232049 -0.0051410613 0.034636363
0.41235033 -0.0041599819 0.034630384
0.41238013 -0.0031789064 0.034624405
0.41240996 -0.0021978307 0.03461843
0.41243979 -0.0012167589 0.034612451
0.4124696 -0.00023568318 0.034606472
0.41249943 0.00074539246 0.034600493
0.41252923 0.0017264681 0.034594513
0.41255906 0.0027075438 0.034588538
0.41258889 0.0036886195 0.034582559
0.4126187 0.0046696914 0.03457658
0.41264853 0.005650769 0.034570601
0.41178384 0.0066081323 0.034077458
0.41181371 0.0075907982 0.034071468
0.41184357 0.008573465 0.034065481
0.41187343 0.0095561352 0.034059495
0.41190332 0.010538802 0.034053504
0.41193318 0.01152147 0.034047518
0.41196305 0.012504139 0.034041528
0.41199291 0.013486806 0.034035541
0.4120228 0.014469474 0.034029555
0.41205266 0.015452141 0.034023564
0.41208252 0.016434811 0.034017578
0.4112184 0.017411286 0.033524316
0.41124833 0.018395545 0.033518318
0.41127825 0.019379806 0.03351232
0.41041434 0.020362649 0.033019029
0.41044429 0.021348504 0.03301302
0.41047427 0.022334356 0.033007015
0.41050422 0.023320209 0.033001006
0.4105342 0.024306063 0.032994997
0.40967059 0.025298463 0.032501642
0.40880701 0.026294051 0.032008231
0.40794358 0.027292822 0.031514842
0.4066442 -0.036131315 0.031134544
0.40756983 -0.035050042 0.031616498
0.4075999 -0.034061003 0.03161047
0.40852544 -0.032984503 0.032092478
0.40855545 -0.031997062 0.032086462
0.40858546 -0.031009611 0.032080445
0.40951076 -0.029939491 0.032562461
0.41043597 -0.028872553 0.033044502
0.4104659 -0.027888289 0.033038504
0.41139096 -0.02682613 0.033520576
0.41142082 -0.025843462 0.033514589
0.41145068 -0.024860796 0.033508599
0.41237554 -0.023805009 0.033990711
0.41240537 -0.022823934 0.033984732
0.4124352 -0.021842858 0.033978753
0.41335991 -0.020793434 0.034460928
0.41338968 -0.019813949 0.034454957
0.41341946 -0.018834468 0.034448989
0.41344923 -0.017854985 0.034443021
0.413479 -0.016875504 0.034437053
0.41261411 -0.015956407 0.033942882
0.41264394 -0.014975332 0.033936903
0.41267374 -0.013994256 0.033930924
0.41270357 -0.013013184 0.033924948
0.41273341 -0.012032105 0.033918969
0.41276321 -0.011051029 0.03391299
0.41279304 -0.010069953 0.033907011
0.41282284 -0.0090888776 0.033901032
0.41285267 -0.0081078056 0.033895057
0.41288251 -0.0071267304 0.033889078
0.41201818 -0.0061901095 0.033394825
0.41204807 -0.0052074436 0.033388838
0.41207793 -0.0042247707 0.033382848
0.4121078 -0.0032421052 0.033376861
0.41213766 -0.0022594361 0.033370875
0.41216752 -0.0012767704 0.033364885
0.41219741 -0.00029410108 0.033358898
0.41222727 0.0006885645 0.033352908
0.41225713 0.0016712338 0.033346921
0.412287 0.0026538994 0.033340935
0.41231689 0.0036365686 0.033334944
0.41234675 0.0046192342 0.033328958
0.41237661 0.0056019053 0.033322968
0.41240647 0.0065845726 0.033316981
0.41243634 0.0075672385 0.033310991
0.41246623 0.0085499054 0.033305004
0.41249609 0.0095325755 0.033299018
0.41252595 0.010515243 0.033293027
0.41255581 0.01149791 0.033287041
0.41258571 0.012480579 0.033281051
0.41261557 0.013463247 0.033275064
0.41175231 0.014434904 0.032780599
0.41178223 0.015419165 0.032774601
0.41181216 0.016403425 0.032768603
0.41184208 0.017387688 0.032762606
0.411872 0.018371947 0.032756608
0.41100904 0.019353162 0.032262087
0.41103899 0.020339012 0.032256078
0.41106898 0.021324867 0.032250069
0.41109893 0.022310719 0.032244064
0.41023621 0.023299899 0.031749498
0.41026625 0.024287343 0.031743482
0.41029626 0.025274789 0.031737465
0.40943369 0.026270337 0.031242827
0.40767878 0.027278766 0.030259596
0.40592408 0.028293567 0.029276332
0.4050619 0.029301856 0.028781619
0.40330753 0.030327804 0.02779828
0.40244564 0.031344056 0.027303545
0.40069157 0.032381155 0.026320118
0.40634716 -0.037239559 0.029884743
0.40637732 -0.036247335 0.029878696
0.40730199 -0.035164427 0.030361868
0.40822658 -0.034084715 0.030845067
0.40825662 -0.03309568 0.030839039
0.40918112 -0.032020736 0.031322293
0.40921113 -0.031033285 0.031316273
0.41013542 -0.029963128 0.031799529
0.4101654 -0.028977279 0.031793524
0.41108954 -0.027911887 0.032276802
0.41111946 -0.026927624 0.032270804
0.41204345 -0.025867021 0.032754116
0.41207331 -0.024884356 0.032748129
0.41210321 -0.023901686 0.032742139
0.41213307 -0.022919022 0.032736152
0.41216293 -0.021936355 0.032730166
0.41308665 -0.020885304 0.03321353
0.41311646 -0.019904224 0.033207551
0.41314629 -0.018923152 0.033201575
0.41317612 -0.017942077 0.033195596
0.41231227 -0.017023012 0.032700222
0.41234213 -0.016040348 0.032694235
0.41237202 -0.015057677 0.032688249
0.41240188 -0.014075012 0.032682259
0.41243175 -0.013092346 0.032676272
0.41246161 -0.012109674 0.032670282
0.4124915 -0.011127004 0.032664295
0.41252136 -0.010144339 0.032658309
0.41255122 -0.0091616735 0.032652318
0.41258109 -0.0081790034 0.032646332
0.41261095 -0.0071963384 0.032640342
0.41264084 -0.0062136687 0.032634355
0.4126707 -0.0052310033 0.032628365
0.41270056 -0.0042483304 0.032622378
0.41273043 -0.0032656647 0.032616392
0.41276032 -0.0022829955 0.032610402
0.4118973 -0.0013368581 0.03211486
0.41192722 -0.00035259893 0.032108862
0.41195714 0.00063166028 0.032102864
0.41198704 0.0016159232 0.032096867
