# .PCD v0.7 - Point Cloud Data file format
VERSION 0.7
FIELDS x y z
SIZE 4 4 4
TYPE F F F
COUNT 1 1 1
WIDTH 1318
HEIGHT 1
VIEWPOINT 0 0 0 1 0 0 0
POINTS 1318
DATA ascii
0.41074708 0.064266376 0.01188289
0.40815723 0.065483227 0.010346948
0.40382078 0.066851959 0.0077910889
0.39861143 0.068309359 0.0047251876
0.41147214 -0.019241499 0.013143613
0.41150263 -0.018238125 0.013137499
0.41153312 -0.017234754 0.013131385
0.41156363 -0.016231382 0.01312527
0.41159412 -0.01522801 0.013119156
0.41162461 -0.014224638 0.013113041
0.41165513 -0.013221263 0.013106927
0.41168562 -0.01221789 0.013100813
0.41171613 -0.011214519 0.013094699
0.41262278 -0.010161225 0.013599042
0.41265324 -0.0091594467 0.013592937
0.41268367 -0.0081576686 0.013586833
0.41271412 -0.0071558901 0.013580728
0.41274458 -0.0061541083 0.013574624
0.41277501 -0.0051523261 0.013568519
0.4136813 -0.0041101831 0.014072898
0.4137117 -0.0031099985 0.014066803
0.4137421 -0.0021098102 0.014060709
0.41377249 -0.0011096254 0.014054613
0.41380289 -0.00010943713 0.014048519
0.41383329 0.00089075125 0.014042424
0.41386369 0.0018909359 0.014036329
0.41389409 0.0028911242 0.014030234
0.41392449 0.003891309 0.014024139
0.41395491 0.0048914989 0.014018045
0.41398531 0.005891684 0.014011949
0.41314042 0.0068690265 0.013495265
0.41317087 0.0078708045 0.01348916
0.4132013 0.0088725872 0.013483055
0.41323176 0.0098743653 0.01347695
0.41326222 0.010876143 0.013470846
0.41329268 0.011877925 0.013464741
0.4133231 0.012879704 0.013458637
0.41335356 0.013881484 0.013452532
0.41338402 0.014883262 0.013446428
0.41341445 0.015885044 0.013440323
0.41344491 0.016886823 0.013434218
0.41260055 0.017883277 0.012917385
0.41263106 0.018886648 0.01291127
0.41266155 0.01989002 0.012905156
0.41269204 0.020893393 0.012899042
0.41272256 0.021896765 0.012892928
0.41275305 0.022900138 0.012886813
0.41278353 0.02390351 0.012880699
0.41281405 0.024906883 0.012874585
0.41284454 0.025910253 0.012868471
0.41287503 0.026913626 0.012862356
0.41290554 0.027916998 0.012856242
0.41293603 0.028920371 0.012850127
0.41296652 0.029923743 0.012844013
0.41299704 0.030927116 0.012837899
0.41302752 0.031930488 0.012831785
0.41305801 0.032933861 0.012825671
0.41308853 0.033937231 0.012819557
0.41311902 0.034940604 0.012813442
0.41314951 0.035943978 0.012807327
0.41318002 0.036947347 0.012801213
0.41321051 0.037950721 0.012795099
0.413241 0.038954094 0.012788985
0.41327152 0.039957467 0.012782871
0.41242838 0.040992141 0.01226583
0.41245893 0.041997109 0.012259706
0.41248947 0.043002073 0.012253582
0.41252002 0.044007037 0.012247458
0.41255057 0.045012001 0.012241334
0.41258112 0.046016969 0.01223521
0.41261166 0.047021933 0.012229086
0.41264221 0.048026897 0.012222962
0.41267273 0.049031861 0.012216838
0.41270328 0.050036825 0.012210715
0.41273382 0.051041793 0.01220459
0.41276437 0.052046757 0.012198466
0.41279492 0.053051721 0.012192342
0.41282547 0.054056685 0.012186218
0.41198307 0.055115253 0.011669038
0.41201365 0.056121811 0.011662904
0.41204426 0.057128366 0.01165677
0.41207483 0.058134925 0.011650637
0.41210544 0.059141483 0.011644503
0.41126332 0.060209606 0.011127264
0.41129395 0.061217755 0.011121121
0.41132459 0.062225908 0.011114978
0.41048267 0.063300401 0.0105977
0.41051337 0.064310141 0.010591547
0.40967152 0.065389417 0.010074208
0.40534008 0.06675636 0.0075121927
0.40013671 0.068211943 0.0044389064
0.39493394 0.069686636 0.0013655041
0.41123238 -0.019329848 0.011855537
0.41126293 -0.018324882 0.011849413
0.41216889 -0.01725881 0.01235488
0.41219941 -0.016255438 0.012348766
0.4122299 -0.015252067 0.012342651
0.41226038 -0.014248694 0.012336537
0.4122909 -0.013245319 0.012330423
0.41232139 -0.012241947 0.012324308
0.41322708 -0.011187022 0.012829876
0.41325754 -0.010185243 0.012823771
0.413288 -0.0091834646 0.012817666
0.41331843 -0.0081816865 0.012811561
0.41334888 -0.007179908 0.012805457
0.41337934 -0.0061781262 0.012799352
0.41340977 -0.005176344 0.012793248
0.41344023 -0.0041745659 0.012787144
0.41347069 -0.0031727874 0.012781039
0.41350114 -0.0021710054 0.012774934
0.41353157 -0.0011692272 0.012768829
0.41356203 -0.00016744883 0.012762725
0.41359249 0.00083433319 0.012756621
0.41362292 0.0018361115 0.012750516
0.41365337 0.0028378898 0.012744411
0.41368383 0.0038396681 0.012738307
0.41371426 0.0048414501 0.012732202
0.41374472 0.0058432287 0.012726097
0.41377518 0.0068450086 0.012719993
0.41380563 0.0078467866 0.012713889
0.41296184 0.00882887 0.012195908
0.41299233 0.0098322425 0.012189794
0.41302285 0.010835612 0.01218368
0.41305333 0.011838987 0.012177566
0.41308382 0.012842358 0.012171452
0.41311434 0.01384573 0.012165337
0.41314483 0.014849102 0.012159223
0.41317531 0.015852476 0.012153109
0.41320583 0.016855847 0.012146994
0.41323632 0.017859221 0.01214088
0.41326681 0.018862592 0.012134766
0.41329733 0.019865964 0.012128651
0.41332781 0.020869337 0.012122537
0.4133583 0.021872709 0.012116423
0.41251531 0.02287868 0.01159833
0.41254586 0.023883644 0.011592206
0.41257641 0.02488861 0.011586081
0.41260695 0.025893575 0.011579958
0.4126375 0.026898541 0.011573833
0.41266805 0.027903505 0.01156771
0.4126986 0.028908469 0.011561586
0.41272914 0.029913435 0.011555462
0.41275969 0.030918399 0.011549338
0.41279024 0.031923365 0.011543213
0.41282079 0.032928329 0.01153709
0.41285133 0.033933293 0.011530966
0.41288188 0.034938261 0.011524842
0.4129124 0.035943225 0.011518718
0.41294295 0.036948189 0.011512594
0.41297349 0.037953153 0.01150647
0.41300404 0.038958117 0.011500346
0.41303459 0.039963085 0.011494222
0.41306514 0.040968049 0.011488098
0.41309568 0.041973013 0.011481974
0.41312623 0.042977978 0.01147585
0.41315678 0.043982945 0.011469726
0.41318733 0.044987909 0.011463602
0.41321787 0.045992874 0.011457478
0.41324842 0.046997838 0.011451354
0.41327897 0.048002802 0.01144523
0.41243726 0.049051777 0.010926874
0.41246787 0.050058331 0.010920741
0.41249847 0.05106489 0.010914607
0.41252905 0.052071448 0.010908473
0.41255966 0.053078007 0.01090234
0.41259024 0.054084562 0.010896206
0.41262084 0.05509112 0.010890072
0.41265145 0.056097679 0.010883939
0.41181016 0.057160985 0.010365496
0.41184083 0.058169134 0.010359352
0.41187146 0.059177283 0.010353209
0.4119021 0.060185436 0.010347066
0.41193274 0.061193585 0.010340923
0.41109177 0.062266447 0.0098224217
0.41112247 0.063276187 0.0098162685
0.4102816 0.064353839 0.0092977062
0.41031232 0.065365173 0.0092915436
0.40598592 0.066731922 0.0067233667
0.40166 0.068114601 0.0041550924
0.39733458 0.069513202 0.0015867156
0.41186914 -0.019353941 0.01107781
0.41189969 -0.018348975 0.011071687
0.41193023 -0.017344009 0.011065562
0.41283515 -0.016279494 0.011572273
0.41286564 -0.015276122 0.011566158
0.41289616 -0.01427275 0.011560044
0.41292664 -0.013269374 0.011553929
0.41295713 -0.012266003 0.011547815
0.41298765 -0.011262631 0.011541701
0.4138923 -0.010209261 0.012048505
0.41392273 -0.0092074824 0.0120424
0.41395319 -0.0082057044 0.012036297
0.41398364 -0.0072039259 0.012030192
0.41401407 -0.0062021441 0.012024087
0.41404453 -0.0052003618 0.012017982
0.41407499 -0.0041985838 0.012011878
0.41410545 -0.0031968052 0.012005773
0.41413587 -0.0021950232 0.011999669
0.41416633 -0.0011932449 0.011993564
0.41419679 -0.00019146661 0.01198746
0.41422722 0.00081031543 0.011981355
0.41425768 0.0018120938 0.01197525
0.41341463 0.0027845807 0.011456101
0.41344512 0.003787949 0.011449987
0.4134756 0.0047913245 0.011443873
0.41350612 0.0057946965 0.011437759
0.41353661 0.0067980685 0.011431644
0.4135671 0.0078014405 0.01142553
0.41359761 0.008804814 0.011419415
0.4136281 0.0098081864 0.011413301
0.41365859 0.010811556 0.011407187
0.41368911 0.011814932 0.011401073
0.41371959 0.012818302 0.011394959
0.41287717 0.013809903 0.010875719
0.41290772 0.014814866 0.010869595
0.41293827 0.015819833 0.010863471
0.41296881 0.016824797 0.010857347
0.41299936 0.017829761 0.010851223
0.41302988 0.018834727 0.0108451
0.41306043 0.019839693 0.010838975
0.41309097 0.020844657 0.010832851
0.41312152 0.021849621 0.010826727
0.41315207 0.022854587 0.010820603
0.41318262 0.023859551 0.01081448
0.41321316 0.024864517 0.010808355
0.41324371 0.025869481 0.010802232
0.41327426 0.026874445 0.010796107
0.41330481 0.027879411 0.010789983
0.41333535 0.028884375 0.01078386
0.4133659 0.029889341 0.010777735
0.41339645 0.030894306 0.010771612
0.413427 0.03189927 0.010765487
0.41345754 0.032904234 0.010759364
0.41348809 0.033909202 0.01075324
0.41351864 0.034914166 0.010747115
0.41354918 0.03591913 0.010740992
0.41357973 0.036924094 0.010734867
0.41361028 0.037929058 0.010728744
0.41276911 0.038962066 0.010209252
0.41279969 0.039968625 0.010203118
0.41283029 0.040975183 0.010196985
0.4128609 0.041981742 0.010190851
0.41289148 0.042988297 0.010184717
0.41292208 0.043994855 0.010178584
0.41295266 0.045001414 0.01017245
0.41298327 0.046007972 0.010166316
0.41301385 0.047014527 0.010160183
0.41304445 0.048021086 0.010154049
0.41307506 0.049027644 0.010147915
0.41310564 0.050034199 0.010141782
0.41313624 0.051040757 0.010135648
0.41316682 0.052047316 0.010129514
0.41319743 0.053053875 0.01012338
0.41235703 0.054112364 0.0096037332
0.41238767 0.055120513 0.0095975902
0.41241831 0.056128666 0.0095914463
0.41244897 0.057136815 0.0095853033
0.41247961 0.058144964 0.0095791593
0.41163951 0.059213009 0.0090594543
0.41167018 0.060222752 0.0090533011
0.41170087 0.061232496 0.0090471487
0.41086093 0.062306914 0.008527372
0.41089165 0.063318253 0.0085212095
0.41092241 0.064329587 0.0085150469
0.41008267 0.065410376 0.0079952637
0.40663177 0.066707484 0.0059345462
0.40231091 0.068089969 0.0033601054
0.39799049 0.069488384 0.00078557362
0.39367059 0.070902728 -0.0017890611
0.41163239 -0.0194424 0.0097860405
0.41253647 -0.01837307 0.010293948
0.41256702 -0.017368104 0.010287825
0.41347092 -0.01630355 0.010795768
0.41350141 -0.015300178 0.010789653
0.41353193 -0.014296806 0.010783539
0.41356242 -0.013293431 0.010777425
0.4135929 -0.012290059 0.010771311
0.41362342 -0.011286687 0.010765197
0.41365391 -0.010283315 0.010759083
0.4136844 -0.0092799431 0.010752968
0.41371492 -0.0082765706 0.010746853
0.4137454 -0.0072732028 0.010740739
0.41377589 -0.0062698307 0.010734625
0.41380641 -0.0052664513 0.010728511
0.4138369 -0.004263083 0.010722397
0.41386738 -0.003259711 0.010716283
0.4138979 -0.002256339 0.010710168
0.41392839 -0.001252967 0.010704054
0.41395888 -0.00024959512 0.010697939
0.41398939 0.00075378054 0.010691825
0.41401988 0.0017571525 0.010685711
0.41405037 0.0027605244 0.010679597
0.41408089 0.0037638927 0.010673483
0.41411138 0.0047672684 0.010667368
0.41326958 0.0057460885 0.010146973
0.41330013 0.0067510521 0.010140849
0.41333067 0.0077560176 0.010134725
0.41336122 0.0087609831 0.010128601
0.41339177 0.0097659472 0.010122477
0.41342229 0.010770913 0.010116354
0.41345283 0.011775878 0.010110229
0.41348338 0.012780844 0.010104105
0.41351393 0.013785807 0.010097981
0.41354448 0.014790772 0.010091857
0.41357502 0.015795739 0.010085734
0.41360557 0.016800703 0.010079609
0.41363612 0.017805666 0.010073486
0.41279498 0.018806785 0.0095529603
0.41282558 0.019813342 0.0095468266
0.41285619 0.020819901 0.0095406929
0.41288677 0.021826457 0.0095345592
0.41291738 0.022833016 0.0095284255
0.41294795 0.023839572 0.0095222918
0.41297856 0.024846131 0.0095161581
0.41300917 0.025852688 0.0095100245
0.41303974 0.026859244 0.0095038908
0.41307035 0.027865803 0.0094977571
0.41310093 0.02887236 0.0094916234
0.41313154 0.029878918 0.0094854897
0.41316211 0.030885475 0.009479356
0.41319272 0.031892031 0.0094732223
0.41322333 0.03289859 0.0094670886
0.4132539 0.033905149 0.0094609549
0.41328451 0.034911707 0.0094548212
0.41331509 0.035918262 0.0094486875
0.41334569 0.03692482 0.0094425539
0.4133763 0.037931379 0.0094364202
0.41340688 0.038937934 0.0094302865
0.41343749 0.039944492 0.0094241528
0.41346806 0.040951051 0.0094180191
0.41349867 0.041957609 0.0094118854
0.41352928 0.042964164 0.0094057517
0.41355985 0.043970723 0.009399618
0.41359046 0.044977281 0.0093934843
0.41275069 0.046022993 0.0088726813
0.41278133 0.047031142 0.0088665383
0.41281196 0.048039291 0.0088603953
0.4128426 0.04904744 0.0088542514
0.41287324 0.050055593 0.0088481084
0.4129039 0.051063742 0.0088419644
0.41293454 0.052071892 0.0088358214
0.41296518 0.053080041 0.0088296784
0.41299582 0.05408819 0.0088235345
0.41215652 0.055149831 0.0083026346
0.41218722 0.056159575 0.0082964823
0.41221792 0.057169314 0.008290329
0.41224861 0.058179058 0.0082841758
0.41227931 0.059188802 0.0082780225
0.41144025 0.060259998 0.0077570328
0.41147098 0.061271332 0.0077508697
0.41150174 0.062282667 0.0077447072
0.41153246 0.063294001 0.0077385441
0.41069371 0.064373165 0.0072175437
0.41072449 0.065386087 0.0072113709
0.40727764 0.066683047 0.0051457142
0.40296179 0.068065345 0.0025651185
0.39951575 0.069389373 0.00049930252
0.39520085 0.070801929 -0.0020814834
0.4061316 -0.02093509 0.0054063299
0.41139767 -0.019530941 0.0084918095
0.41317323 -0.018397164 0.0095162224
0.41320378 -0.017392198 0.009510098
0.41323432 -0.016387237 0.0095039746
0.41326487 -0.01538227 0.0094978502
0.41416767 -0.014320862 0.010007046
0.41419816 -0.013317486 0.010000932
0.41422868 -0.012314115 0.0099948179
0.41425917 -0.011310742 0.0099887038
0.41428965 -0.010307371 0.0099825896
0.41432017 -0.0093039982 0.0099764746
0.41435066 -0.0083006267 0.0099703604
0.41438115 -0.0072972584 0.0099642463
0.41441166 -0.0062938863 0.0099581322
0.41444215 -0.0052905069 0.009952018
0.41447264 -0.0042871386 0.0099459039
0.41450316 -0.0032837668 0.0099397898
0.41453364 -0.0022803948 0.0099336747
0.41456413 -0.0012770229 0.0099275606
0.41459465 -0.00027365095 0.0099214464
0.4137536 0.00069717184 0.0093998667
0.41378415 0.0017021337 0.0093937423
0.41381469 0.0027070993 0.0093876189
0.41384524 0.0037120651 0.0093814945
0.41387579 0.0047170306 0.009375371
0.41390634 0.0057219942 0.0093692467
0.41393688 0.0067269583 0.0093631232
0.41396743 0.0077319238 0.0093569988
0.41399798 0.0087368898 0.0093508745
0.41402853 0.009741853 0.009344751
0.41405907 0.010746819 0.0093386266
0.41408962 0.011751784 0.0093325032
0.41324919 0.012743308 0.0088107968
0.4132798 0.013749864 0.0088046631
0.41331041 0.014756421 0.0087985294
0.41334099 0.015762981 0.0087923957
0.41337159 0.016769538 0.008786262
0.41340217 0.017776094 0.0087801283
0.41343278 0.018782653 0.0087739946
0.41346335 0.01978921 0.0087678609
0.41349396 0.020795768 0.0087617273
0.41352457 0.021802325 0.0087555936
0.41268468 0.022811368 0.0082337866
0.41271532 0.023819517 0.0082276436
0.41274595 0.024827668 0.0082214996
0.41277659 0.025835818 0.0082153566
0.41280726 0.026843967 0.0082092136
0.41283789 0.027852118 0.0082030697
0.41286853 0.028860267 0.0081969267
0.41289917 0.029868418 0.0081907827
0.41292983 0.030876568 0.0081846397
0.41296047 0.031884719 0.0081784958
0.41299111 0.032892868 0.0081723528
0.41302174 0.033901021 0.0081662098
0.41305238 0.03490917 0.0081600659
0.41308305 0.035917319 0.0081539229
0.41311368 0.036925469 0.0081477789
0.41314432 0.037933622 0.0081416359
0.41317496 0.038941771 0.0081354929
0.41320559 0.03994992 0.008129349
0.41323626 0.040958069 0.008123206
0.4132669 0.041966219 0.008117062
0.41329753 0.042974371 0.008110919
0.41332817 0.043982521 0.008104776
0.41335884 0.04499067 0.0080986321
0.41338947 0.045998823 0.0080924891
0.41342011 0.047006972 0.0080863452
0.41345075 0.048015121 0.0080802022
0.41348138 0.049023271 0.0080740582
0.41264287 0.050076906 0.0075519742
0.41267356 0.051086649 0.0075458209
0.41270426 0.052096393 0.0075396681
0.41273496 0.053106137 0.0075335149
0.41276565 0.054115877 0.0075273616
0.41192734 0.055179074 0.0070051928
0.4119581 0.056190409 0.0069990298
0.41198882 0.057201743 0.0069928672
0.41201958 0.058213077 0.0069867042
0.41205031 0.059224416 0.0069805416
0.41208106 0.060235754 0.0069743786
0.41124317 0.061310094 0.0064521683
0.41127396 0.062323019 0.0064459955
0.41130474 0.063335948 0.0064398232
0.41133553 0.064348876 0.0064336504
0.41049787 0.065431178 0.0059113912
0.40705508 0.066729575 0.0038408032
0.4036127 0.068040714 0.0017701315
0.40017068 0.069364592 -0.00030061195
0.39672908 0.070701212 -0.0023714388
0.40677643 -0.020959489 0.0046187369
0.41203645 -0.01955511 0.0077116103
0.41380998 -0.018421259 0.0087384898
0.41384053 -0.017416293 0.0087323664
0.41299975 -0.016470995 0.0082097081
0.41390163 -0.015406365 0.0087201186
0.41393217 -0.0144014 0.0087139942
0.41396272 -0.01339643 0.0087078707
0.41399327 -0.012391469 0.0087017464
0.41402382 -0.011386503 0.008695622
0.41405436 -0.010381537 0.0086894985
0.41495594 -0.0093280552 0.0091999704
0.41498643 -0.0083246827 0.0091938563
0.41501692 -0.0073213144 0.0091877421
0.41504744 -0.0063179429 0.009181628
0.41507792 -0.0053145634 0.0091755129
0.41423765 -0.0043517468 0.0086527541
0.4142682 -0.003346785 0.0086466307
0.41429874 -0.0023418192 0.0086405063
0.41432929 -0.0013368536 0.0086343829
0.41435984 -0.00033189173 0.0086282585
0.41439039 0.00067307765 0.008622135
0.41442093 0.0016780396 0.0086160107
0.41445148 0.0026830051 0.0086098863
0.41448203 0.0036879708 0.0086037628
0.41364223 0.0046667163 0.0080809006
0.41367283 0.0056732716 0.008074767
0.41370341 0.0066798292 0.0080686333
0.41373402 0.007686385 0.0080624996
0.4137646 0.0086929444 0.0080563659
0.4137952 0.0096995011 0.0080502322
0.41382581 0.010706059 0.0080440985
0.41385639 0.011712618 0.0080379648
0.41388699 0.012719176 0.0080318311
0.41391757 0.013725732 0.0080256974
0.41394818 0.014732288 0.0080195637
0.41397879 0.015738849 0.0080134301
0.41313961 0.016738296 0.0074904482
0.41317025 0.017746445 0.0074843052
0.41320089 0.018754596 0.0074781617
0.41323155 0.019762745 0.0074720182
0.41326219 0.020770896 0.0074658748
0.41329283 0.021779045 0.0074597313
0.41332346 0.022787197 0.0074535878
0.4133541 0.023795346 0.0074474448
0.41338477 0.024803497 0.0074413014
0.4134154 0.025811646 0.0074351579
0.41344604 0.026819797 0.0074290144
0.41347668 0.027827946 0.007422871
0.41350731 0.028836098 0.007416728
0.41353798 0.029844247 0.0074105845
0.41356862 0.030852398 0.007404441
0.41359925 0.031860549 0.0073982975
0.41362989 0.032868698 0.0073921541
0.41366053 0.033876847 0.0073860106
0.41369119 0.034884997 0.0073798676
0.41372183 0.03589315 0.0073737241
0.41375247 0.036901299 0.0073675807
0.4137831 0.037909448 0.0073614372
0.41381377 0.038917601 0.0073552937
0.41297576 0.03995527 0.006832073
0.41300645 0.040965013 0.0068259202
0.41303715 0.041974757 0.0068197669
0.41306785 0.042984501 0.0068136137
0.41309851 0.043994244 0.0068074604
0.41312921 0.045003984 0.0068013077
0.41315991 0.046013728 0.0067951544
0.4131906 0.047023471 0.0067890012
0.41235298 0.048075479 0.0062656673
0.41238374 0.049086813 0.0062595042
0.41241446 0.050098147 0.0062533412
0.41244522 0.051109485 0.0062471787
0.41247594 0.05212082 0.0062410156
0.41250667 0.053132154 0.0062348531
0.41253743 0.054143492 0.00622869
0.41256815 0.055154826 0.0062225275
0.41259891 0.056166165 0.0062163644
0.41176182 0.057234094 0.0056929593
0.41179261 0.058247022 0.005686787
0.41182339 0.059259947 0.0056806146
0.41185421 0.06027288 0.0056744418
0.41188499 0.061285809 0.0056682695
0.4110482 0.062363293 0.0051448117
0.41107902 0.063377813 0.0051386296
0.41110986 0.064392336 0.0051324475
0.41027328 0.065476194 0.004608945
0.40683457 0.06677603 0.0025334139
0.40426359 0.068016082 0.00097514456
0.40082562 0.069339812 -0.0011005322
0.39738804 0.070676282 -0.0031762866
0.41093421 -0.019708248 0.005895915
0.41357633 -0.018508242 0.0074430164
0.41360691 -0.017501684 0.0074368822
0.41363752 -0.016495127 0.007430749
0.41366813 -0.015488571 0.0074246153
0.41456896 -0.014425494 0.0079362681
0.41459951 -0.013420524 0.0079301437
0.41463006 -0.012415562 0.0079240203
0.4146606 -0.011410597 0.0079178959
0.41469115 -0.010405631 0.0079117725
0.41472167 -0.0094006686 0.0079056481
0.41475222 -0.0083957035 0.0078995237
0.41478276 -0.0073907375 0.0078934003
0.41481331 -0.0063857757 0.0078872759
0.41484386 -0.0053808065 0.0078811524
0.4148744 -0.004375841 0.0078750281
0.41490495 -0.003370879 0.0078689046
0.4149355 -0.0023659132 0.0078627802
0.41409644 -0.0013967643 0.0073387437
0.41412702 -0.00039020873 0.00733261
0.41415763 0.00061635056 0.0073264763
0.41418824 0.0016229098 0.0073203426
0.41421881 0.0026294654 0.0073142089
0.41424942 0.0036360247 0.0073080752
0.41428 0.0046425839 0.0073019415
0.4143106 0.0056491396 0.0072958078
0.41434118 0.0066556968 0.0072896741
0.41437179 0.0076622525 0.0072835404
0.41353324 0.0086489245 0.0067594028
0.41356391 0.0096570738 0.0067532593
0.41359454 0.010665223 0.0067471159
0.41362518 0.011673376 0.0067409724
0.41365582 0.012681525 0.0067348289
0.41368645 0.013689674 0.0067286855
0.41371712 0.014697824 0.0067225425
0.41374776 0.015705977 0.006716399
0.41377839 0.016714126 0.0067102555
0.41380903 0.017722275 0.006704112
0.41383967 0.018730426 0.0066979686
0.41387033 0.019738575 0.0066918251
0.41303241 0.020745948 0.0061675557
0.41306311 0.021755692 0.0061614024
0.41309381 0.022765435 0.0061552492
0.4131245 0.023775177 0.0061490964
0.4131552 0.024784921 0.0061429432
0.41318586 0.025794663 0.0061367899
0.41321656 0.026804404 0.0061306371
0.41324726 0.027814148 0.0061244839
0.41327795 0.028823892 0.0061183306
0.41330865 0.029833633 0.0061121779
0.41333935 0.030843377 0.0061060246
0.41337001 0.031853121 0.0060998714
0.41340071 0.032862861 0.0060937186
0.41343141 0.033872604 0.0060875653
0.4134621 0.034882348 0.0060814121
0.4134928 0.035892092 0.0060752593
0.4135235 0.036901835 0.006069106
0.41355416 0.037911575 0.0060629528
0.41358486 0.038921319 0.0060568
0.41274786 0.039960548 0.0055323099
0.41277862 0.040971883 0.0055261469
0.41280934 0.041983217 0.0055199843
0.4128401 0.042994555 0.0055138213
0.41287082 0.044005889 0.0055076587
0.41290158 0.045017224 0.0055014957
0.41293231 0.046028558 0.0054953331
0.41296306 0.047039896 0.0054891701
0.41299379 0.048051231 0.0054830075
0.41302454 0.049062565 0.0054768445
0.41305527 0.050073903 0.0054706819
0.413086 0.051085237 0.0054645189
0.41224968 0.052145168 0.0049399347
0.4122805 0.053158097 0.0049337624
0.41231129 0.054171022 0.00492759
0.41234207 0.055183951 0.0049214172
0.41237286 0.056196883 0.0049152449
0.41240364 0.057209808 0.0049090725
0.41243443 0.058222737 0.0049028997
0.4115985 0.059295408 0.0043782322
0.41162935 0.060309928 0.0043720501
0.41166019 0.061324451 0.0043658679
0.41082445 0.062403493 0.0038411671
0.41085532 0.063419603 0.0038349752
0.41088623 0.06443572 0.0038287833
0.41005063 0.065521136 0.0033040119
0.40748245 0.066751517 0.0017421327
0.4049145 0.067991458 0.00018016338
0.40148056 0.069315031 -0.0019004467
0.398047 0.070651345 -0.0039811283
0.41070554 -0.019797016 0.0045942841
0.41334468 -0.018595302 0.0061450754
0.41337532 -0.017587153 0.006138932
0.41427529 -0.01651926 0.0066517834
0.4143059 -0.015512704 0.0066456497
0.4143365 -0.014506145 0.006639516
0.41436708 -0.013499586 0.0066333823
0.41439769 -0.012493026 0.0066272486
0.41442826 -0.011486471 0.0066211149
0.41445887 -0.010479915 0.0066149812
0.41448948 -0.0094733564 0.0066088475
0.41452006 -0.0084668007 0.0066027138
0.41455066 -0.0074602412 0.0065965801
0.41458124 -0.0064536855 0.0065904465
0.41461185 -0.0054471227 0.0065843128
0.41464242 -0.004440567 0.0065781791
0.41467303 -0.0034340115 0.0065720454
0.41470364 -0.0024274522 0.0065659117
0.41473421 -0.0014208967 0.006559778
0.41476482 -0.00041434114 0.0065536443
0.4147954 0.00059221813 0.0065475106
0.41395754 0.0015677001 0.0060222074
0.41398817 0.0025758529 0.0060160644
0.41401884 0.0035840021 0.006009921
0.41404948 0.0045921514 0.0060037775
0.41408011 0.0056003025 0.005997634
0.41411075 0.0066084517 0.0059914906
0.41414139 0.007616601 0.0059853471
0.41417205 0.0086247539 0.0059792041
0.41420269 0.0096329032 0.0059730606
0.41423333 0.010641052 0.0059669171
0.41426396 0.011649205 0.0059607737
0.4142946 0.012657355 0.0059546302
0.41345739 0.013653541 0.0054291952
0.41348806 0.014663282 0.005423042
0.41351876 0.015673026 0.0054168892
0.41354945 0.01668277 0.005410736
0.41358015 0.01769251 0.0054045827
0.41361085 0.018702256 0.0053984299
0.41364154 0.019711995 0.0053922767
0.41367221 0.020721739 0.0053861234
0.41283536 0.02173226 0.0048605748
0.41286612 0.022743596 0.0048544123
0.41289684 0.02375493 0.0048482493
0.4129276 0.024766266 0.0048420867
0.41295832 0.025777603 0.0048359237
0.41298905 0.026788937 0.0048297611
0.41301981 0.027800273 0.0048235981
0.41305053 0.028811609 0.0048174355
0.41308129 0.029822944 0.0048112725
0.41311201 0.03083428 0.0048051099
0.41314277 0.031845614 0.0047989469
0.4131735 0.032856952 0.0047927843
0.41320425 0.033868287 0.0047866213
0.41323498 0.034879621 0.0047804588
0.41326573 0.035890959 0.0047742957
0.41329646 0.036902294 0.0047681327
0.41332722 0.037913628 0.0047619701
0.41335794 0.038924966 0.0047558071
0.41338867 0.0399363 0.0047496445
0.41341943 0.040947635 0.0047434815
0.41345015 0.041958969 0.004737319
0.41348091 0.042970307 0.0047311559
0.41351163 0.043981642 0.0047249934
0.41267601 0.045030385 0.0041992436
0.41270679 0.046043314 0.0041930713
0.41273758 0.047056243 0.0041868989
0.41276836 0.048069168 0.0041807261
0.41279915 0.0490821 0.0041745538
0.41282994 0.050095025 0.0041683814
0.41286072 0.051107954 0.0041622086
0.41289151 0.052120883 0.0041560363
0.41292229 0.053133812 0.0041498635
0.41208714 0.054198481 0.0036240171
0.41211799 0.055213001 0.003617835
0.41214883 0.056227524 0.0036116526
0.41217965 0.057242043 0.0036054705
0.41134474 0.058314674 0.0030795697
0.41137564 0.059330788 0.0030733778
0.41140652 0.060346905 0.0030671856
0.41143739 0.061363015 0.0030609937
0.4114683 0.062379129 0.0030548018
0.41063362 0.063461319 0.0025288165
0.41066456 0.064479031 0.0025226148
0.40983006 0.065565996 0.0019966324
0.40813032 0.066726997 0.00095083995
0.40556541 0.067966826 -0.00061482936
0.40300083 0.069216207 -0.0021805249
0.40784246 -0.021098839 0.0017357748
0.41047889 -0.019885862 0.0032901925
0.41311505 -0.018682441 0.0048446679
0.4140141 -0.017611325 0.0053587393
0.41404474 -0.016603172 0.0053525958
0.4140754 -0.015595022 0.0053464524
0.41497427 -0.014530277 0.0058605564
0.41500485 -0.013523718 0.0058544227
0.41503546 -0.012517159 0.005848289
0.41506606 -0.011510603 0.0058421553
0.41509664 -0.010504047 0.0058360216
0.41512725 -0.0094974879 0.0058298879
0.41515782 -0.0084909331 0.0058237542
0.41518843 -0.0074843736 0.0058176205
0.41521904 -0.0064778179 0.0058114869
0.41524962 -0.0054712547 0.0058053532
0.41528022 -0.0044646994 0.0057992195
0.4153108 -0.0034581437 0.0057930858
0.41447374 -0.0024890711 0.0052665882
0.41450441 -0.001480918 0.0052604447
0.41453505 -0.00047276888 0.0052543012
0.41456568 0.00053538033 0.0052481582
0.41459632 0.0015435296 0.0052420148
0.41462696 0.0025516825 0.0052358713
0.41465762 0.0035598318 0.0052297278
0.41382095 0.0045416462 0.0047031469
0.41385165 0.005551389 0.0046969936
0.41388234 0.0065611317 0.0046908408
0.41391304 0.007570873 0.0046846876
0.41394371 0.0085806176 0.0046785343
0.4139744 0.0095903603 0.0046723816
0.4140051 0.010600101 0.0046662283
0.4140358 0.011609847 0.0046600751
0.41406649 0.012619589 0.0046539223
0.41323024 0.013617328 0.0041272235
0.413261 0.014628664 0.0041210609
0.41329172 0.015640002 0.0041148979
0.41332248 0.016651336 0.0041087354
0.4133532 0.01766267 0.0041025723
0.41338396 0.018674009 0.0040964093
0.41341469 0.019685343 0.0040902467
0.41344541 0.020696677 0.0040840837
0.41347617 0.021708013 0.0040779212
0.4135069 0.02271935 0.0040717581
0.41353765 0.023730684 0.0040655956
0.41356838 0.02474202 0.0040594325
0.41273284 0.025760464 0.0035326285
0.41276363 0.026773393 0.003526456
0.41279441 0.027786322 0.0035202834
0.4128252 0.028799249 0.003514111
0.41285598 0.029812178 0.0035079385
0.41288677 0.030825106 0.0035017659
0.41291755 0.031838033 0.0034955936
0.41294837 0.032850962 0.003489421
0.41297916 0.033863891 0.0034832484
0.41300994 0.03487682 0.0034770758
0.41304073 0.035889748 0.0034709035
0.41307151 0.036902674 0.0034647309
0.4131023 0.037915602 0.0034585583
0.41313308 0.038928531 0.003452386
0.41316387 0.03994146 0.0034462134
0.41319466 0.040954389 0.0034400409
0.41322544 0.041967317 0.0034338683
0.41325623 0.042980246 0.0034276959
0.41328704 0.043993171 0.0034215234
0.41331783 0.0450061 0.0034153508
0.41334862 0.046019029 0.0034091785
0.4133794 0.047031958 0.0034030059
0.41254497 0.048087031 0.0028759842
0.41257578 0.049101554 0.0028698021
0.41260663 0.050116073 0.0028636197
0.41263747 0.051130597 0.0028574376
0.41266829 0.052145116 0.0028512552
0.41269913 0.053159639 0.0028450731
0.41186503 0.054225862 0.0023179834
0.41189593 0.055241976 0.0023117915
0.41192681 0.05625809 0.0023055996
0.41195768 0.0572742 0.0022994077
0.41198859 0.058290314 0.0022932158
0.41201946 0.059306428 0.0022870239
0.41118565 0.060383804 0.0017598344
0.41121659 0.061401512 0.0017536327
0.41124752 0.062419217 0.0017474311
0.41127846 0.063436925 0.0017412294
0.41044495 0.064522259 0.0012140233
0.41047591 0.065541558 0.001207812
0.40791383 0.066773303 -0.00036147094
0.40621629 0.067942202 -0.0014098106
0.40365475 0.069191463 -0.0029792062
0.4067533 -0.021255657 -9.5896408e-05
0.40938675 -0.02003938 0.0014621696
0.41288739 -0.018769655 0.0035417678
0.41378555 -0.017696906 0.0040570828
0.41468355 -0.016627342 0.004572391
0.41471419 -0.015619193 0.004566248
0.41474482 -0.014611044 0.0045601046
0.41477549 -0.013602891 0.0045539611
0.41480613 -0.012594742 0.0045478176
0.41483676 -0.011586593 0.0045416742
0.4148674 -0.010578443 0.0045355307
0.41489804 -0.0095702941 0.0045293877
0.4149287 -0.0085621411 0.0045232442
0.41495934 -0.0075539919 0.0045171008
0.41498998 -0.0065458426 0.0045109573
0.41502061 -0.0055376897 0.0045048138
0.41505125 -0.0045295404 0.0044986703
0.41508192 -0.003521391 0.0044925273
0.41511256 -0.0025132417 0.0044863839
0.41514319 -0.0015050889 0.0044802404
0.41517383 -0.00049693964 0.0044740969
0.41433799 0.00047846578 0.0039463271
0.41436869 0.0014882087 0.0039401739
0.41439939 0.0024979515 0.0039340211
0.41443005 0.0035076945 0.0039278679
0.41446075 0.0045174374 0.0039217146
0.41362515 0.0055023967 0.0033938605
0.41365588 0.0065137334 0.0033876977
0.41368663 0.0075250682 0.0033815349
0.41371736 0.0085364049 0.0033753722
0.41374809 0.0095477393 0.0033692094
0.41377884 0.010559074 0.0033630466
0.41380957 0.011570413 0.0033568838
0.41384032 0.012581747 0.003350721
0.41387105 0.013593081 0.0033445582
0.41390181 0.014604417 0.0033383954
0.41393253 0.015615755 0.0033322326
0.41396329 0.01662709 0.0033260698
0.41399401 0.017638424 0.003319907
0.41315913 0.018645683 0.002791943
0.41318992 0.01965861 0.0027857707
0.4132207 0.020671539 0.0027795981
0.41325149 0.021684468 0.0027734255
0.41328231 0.022697397 0.0027672532
0.41331309 0.023710323 0.0027610806
0.41334388 0.024723252 0.0027549081
0.41337466 0.025736179 0.0027487355
0.41340545 0.026749108 0.0027425631
0.41343623 0.027762037 0.0027363906
0.41346702 0.028774964 0.002730218
0.41349781 0.029787892 0.0027240457
0.41352859 0.030800821 0.0027178731
0.41355938 0.031813748 0.0027117005
0.41359016 0.032826677 0.0027055279
0.41362095 0.033839606 0.0026993556
0.41365176 0.034852535 0.002693183
0.41368255 0.035865463 0.0026870104
0.41371334 0.036878388 0.0026808381
0.41374412 0.037891317 0.0026746655
0.41377491 0.038904246 0.002668493
0.41380569 0.039917175 0.0026623204
0.41383648 0.040930104 0.002656148
0.41300276 0.041975584 0.0021279512
0.4130336 0.042990107 0.0021217689
0.41306442 0.044004627 0.0021155868
0.41309527 0.045019146 0.0021094047
0.41312611 0.046033669 0.0021032223
0.41315696 0.047048189 0.0020970402
0.41232356 0.048104819 0.0015687754
0.41235444 0.049120933 0.0015625835
0.41238534 0.050137047 0.0015563916
0.41241622 0.051153161 0.0015501997
0.41244709 0.052169275 0.0015440078
0.412478 0.053185388 0.0015378159
0.41250888 0.054201499 0.001531624
0.41253975 0.055217613 0.001525432
0.41170678 0.056288581 0.00099704799
0.41173771 0.057306286 0.00099084631
0.41176865 0.058323991 0.00098464475
0.41179955 0.059341699 0.00097844307
0.41183048 0.060359407 0.00097224145
0.41186142 0.061377112 0.00096603984
0.41102883 0.062459223 0.00043761986
0.4110598 0.063478522 0.00043140852
0.41109079 0.064497821 0.00042519718
0.41025838 0.065586306 -0.00010326163
0.40856272 0.066748746 -0.001153997
0.40686721 0.06791757 -0.0022048033
0.40517193 0.069092758 -0.0032556164
0.40390384 -0.022573939 -0.0029715693
0.40653467 -0.021346398 -0.0014098451
0.40916514 -0.020128416 0.00015191121
0.41266179 -0.018856946 0.0022364273
0.41355893 -0.017782567 0.0027529397
0.41445604 -0.016711373 0.0032694978
0.41448674 -0.015701629 0.0032633448
0.41451743 -0.014691886 0.0032571917
0.4145481 -0.01368214 0.0032510385
0.41544491 -0.012618912 0.0037676189
0.41547555 -0.011610763 0.0037614754
0.41550618 -0.010602614 0.0037553322
0.41467088 -0.0096431719 0.0032264262
0.41470158 -0.0086334292 0.0032202729
0.41473225 -0.007623686 0.0032141199
0.41476294 -0.0066139433 0.0032079669
0.41479364 -0.0056041968 0.0032018137
0.41482434 -0.0045944573 0.0031956607
0.41485503 -0.0035847146 0.0031895076
0.41488573 -0.0025749716 0.0031833544
0.4149164 -0.0015652288 0.0031772014
0.41494709 -0.00055548589 0.0031710484
0.41497779 0.00045425695 0.0031648951
0.414143 0.0014328093 0.0026358464
0.41417372 0.0024441422 0.0026296836
0.41420448 0.0034554787 0.0026235208
0.4142352 0.0044668154 0.002617358
0.41426596 0.0054781497 0.0026111952
0.41429669 0.0064894864 0.0026050324
0.41432744 0.0075008213 0.0025988696
0.41435817 0.0085121579 0.0025927068
0.41438892 0.0095234923 0.002586544
0.41355464 0.010517973 0.0020574245
0.41358545 0.011530902 0.0020512519
0.41361624 0.012543829 0.0020450796
0.41364703 0.013556757 0.002038907
0.41367781 0.014569684 0.0020327345
0.4137086 0.015582614 0.0020265619
0.41373938 0.016595542 0.0020203895
0.41377017 0.017608469 0.002014217
0.41380095 0.018621398 0.0020080444
0.41383174 0.019634325 0.0020018721
0.41386253 0.020647254 0.0019956995
0.41389331 0.021660183 0.0019895269
0.41305968 0.022675367 0.0014602813
0.41309053 0.023689887 0.0014540991
0.41312137 0.024704408 0.0014479168
0.41315222 0.025718927 0.0014417346
0.41318303 0.026733449 0.0014355524
0.41321388 0.02774797 0.0014293703
0.41324472 0.028762491 0.001423188
0.41327554 0.029777011 0.0014170058
0.41330639 0.030791532 0.0014108235
0.41333723 0.031806052 0.0014046413
0.41336805 0.032820575 0.0013984592
0.41339889 0.033835094 0.001392277
0.41342974 0.034849614 0.0013860947
0.41346058 0.035864137 0.0013799125
0.4134914 0.036878657 0.0013737303
0.41352224 0.03789318 0.0013675481
0.41355309 0.038907699 0.0013613659
0.4135839 0.039922219 0.0013551837
0.41361475 0.040936738 0.0013490014
0.4127821 0.041983776 0.00081956165
0.41281298 0.04299989 0.00081336976
0.41284385 0.044016004 0.0008071778
0.41287476 0.045032118 0.0008009859
0.41290563 0.046048231 0.000794794
0.41293651 0.047064345 0.00078860205
0.41296741 0.048080456 0.00078241015
0.41299829 0.049096569 0.00077621825
0.41302916 0.050112683 0.00077002635
0.41219693 0.05117565 0.00024045745
0.41222787 0.052193355 0.00023425583
0.4122588 0.053211063 0.00022805421
0.41228974 0.054228768 0.00022185259
0.41232067 0.055246472 0.00021565097
0.41235161 0.056264181 0.00020944934
0.41151977 0.057338294 -0.00032014967
0.41155076 0.058357589 -0.00032636101
0.41158172 0.059376888 -0.00033257232
0.41161272 0.060396191 -0.00033878366
0.41164371 0.061415486 -0.000344995
0.41167468 0.062434785 -0.00035120631
0.41084319 0.063520044 -0.000880879
0.41087422 0.064540938 -0.00088710006
0.41004285 0.065630972 -0.0014168019
0.40921161 0.066724196 -0.0019465231
0.40751809 0.067892939 -0.0029997961
0.40582484 0.069068052 -0.0040530697
0.40455574 -0.022598606 -0.0037677896
0.40718356 -0.021370949 -0.0022023653
0.40981099 -0.020152854 -0.00063690916
0.41243821 -0.018944312 0.00092863152
0.4133344 -0.017868301 0.0014463618
0.41423047 -0.016795481 0.0019641174
0.41426122 -0.015784144 0.0019579546
0.41429195 -0.014772811 0.0019517917
0.4143227 -0.013761471 0.0019456289
0.41435343 -0.012750134 0.0019394661
0.41524929 -0.011686866 0.0024573118
0.41527998 -0.010677123 0.0024511588
0.41531068 -0.0096673807 0.0024450056
0.41534135 -0.0086576371 0.0024388526
0.41537204 -0.0076478943 0.0024326995
0.41453788 -0.0066821263 0.0019024893
0.41456863 -0.0056707859 0.0018963265
0.41459936 -0.0046594492 0.0018901636
0.41463009 -0.0036481165 0.001884001
0.41466084 -0.00263678 0.001877838
0.41469157 -0.0016254472 0.0018716753
0.41472232 -0.00061411061 0.0018655125
0.41475305 0.00039722593 0.0018593497
0.41478381 0.0014085624 0.0018531869
0.41481453 0.0024198953 0.0018470241
0.41398096 0.0034031889 0.0013167392
0.41401175 0.0044161188 0.0013105667
0.41404253 0.0054290458 0.0013043942
0.41407332 0.0064419741 0.0012982216
0.4141041 0.0074549024 0.0012920492
0.41413489 0.0084678307 0.0012858766
0.41416568 0.0094807586 0.0012797042
0.41419646 0.010493687 0.0012735316
0.41422725 0.011506617 0.0012673591
0.41339415 0.012505835 0.00073698291
0.413425 0.013520354 0.00073080073
0.41345581 0.014534875 0.0007246185
0.41348666 0.015549399 0.00071843626
0.4135175 0.016563918 0.00071225408
0.41354832 0.01757844 0.00070607185
0.41357917 0.018592959 0.00069988967
0.41361001 0.019607479 0.00069370744
0.41364083 0.020622002 0.00068752526
0.41367167 0.021636521 0.00068134302
0.41283911 0.022653261 0.00015085431
0.41286999 0.023669373 0.00014466239
0.41290087 0.024685487 0.00013847048
0.41293177 0.025701599 0.00013227857
0.41296265 0.026717713 0.00012608664
0.41299352 0.027733827 0.00011989473
0.41302443 0.028749941 0.00011370281
0.4130553 0.029766053 0.0001075109
0.41308618 0.030782167 0.00010131898
0.41311708 0.031798281 9.5127056e-05
0.41314796 0.032814395 8.8935143e-05
0.41317883 0.033830509 8.274323e-05
0.41320974 0.034846622 7.655131e-05
0.41324061 0.035862736 7.0359391e-05
0.41327149 0.036878847 6.4167478e-05
0.41330239 0.03789496 5.7975558e-05
0.41333327 0.038911074 5.1783642e-05
0.41336414 0.039927188 4.5591725e-05
0.41339505 0.040943302 3.9399809e-05
0.41342592 0.041959416 3.3207893e-05
0.4134568 0.04297553 2.7015973e-05
0.4134877 0.043991644 2.0824056e-05
0.41265619 0.045045014 -0.00050991989
0.41268712 0.046062719 -0.00051612151
0.41271806 0.047080427 -0.00052232313
0.41274899 0.048098132 -0.00052852475
0.41277993 0.049115837 -0.00053472637
0.41281086 0.050133545 -0.00054092798
0.4128418 0.05115125 -0.0005471296
0.41287273 0.052168954 -0.00055333122
0.41204169 0.05323666 -0.0010841248
0.41207269 0.054255959 -0.0010903361
0.41210365 0.055275258 -0.0010965475
0.41213465 0.056294557 -0.0011027587
0.41216561 0.057313856 -0.00110897
0.41219661 0.058333151 -0.0011151814
0.41222757 0.05935245 -0.0011213927
0.41139695 0.060432896 -0.0016522696
0.41142797 0.061453786 -0.0016584906
0.411459 0.062474679 -0.0016647117
0.41149005 0.063495569 -0.0016709327
0.41065964 0.06458398 -0.0022018582
0.41069072 0.06560646 -0.002208089
0.40986049 0.066699646 -0.0027390434
0.408169 0.067868315 -0.0037947772
0.40696788 -0.021461811 -0.0035200403
0.40959242 -0.020242002 -0.0019508676
0.41135222 -0.019094875 -0.00090681051
0.41311187 -0.017954115 0.00013731733
0.41400701 -0.016879659 0.00065629644
0.41403779 -0.015866732 0.00065012393
0.41406858 -0.014853806 0.00064395141
0.41496351 -0.013785718 0.0011629636
0.41499424 -0.012774381 0.0011568008
0.415025 -0.011763048 0.001150638
0.41505572 -0.010751712 0.0011444752
0.41508648 -0.009740375 0.0011383124
0.4151172 -0.0087290425 0.0011321496
0.41514796 -0.0077177058 0.0011259868
0.41517869 -0.0067063733 0.001119824
0.41520944 -0.0056950329 0.0011136611
0.41524017 -0.0046836962 0.0011074983
0.41527092 -0.0036723635 0.0011013355
0.41530165 -0.002661027 0.0010951727
0.41533238 -0.0016496942 0.0010890099
0.41449961 -0.00067280955 0.00055753632
0.4145304 0.00034012066 0.0005513638
0.41456118 0.0013530471 0.00054519129
0.41459197 0.0023659773 0.00053901877
0.41462275 0.0033789037 0.00053284632
0.41465357 0.0043918341 0.0005266738
0.41468436 0.0054047606 0.00052050129
0.41385195 0.0063943849 -1.1055764e-05
0.41388279 0.0074089067 -1.7237982e-05
0.41391364 0.008423429 -2.3420202e-05
0.41394448 0.0094379494 -2.960241e-05
0.4139753 0.010452469 -3.5784618e-05
0.41400614 0.011466991 -4.1966836e-05
0.41317409 0.012467763 -0.00057359179
0.41320497 0.013483877 -0.00057978375
0.41323587 0.014499989 -0.00058597565
0.41326675 0.015516105 -0.00059216755
0.41329762 0.016532218 -0.0005983595
0.41332853 0.01754833 -0.0006045514
0.4133594 0.018564444 -0.0006107433
0.41339028 0.019580558 -0.00061693526
0.41342118 0.020596672 -0.00062312715
0.41345206 0.021612786 -0.00062931905
0.41348293 0.0226289 -0.00063551101
0.41351384 0.023645012 -0.00064170291
0.41354471 0.024661126 -0.00064789481
0.41357559 0.025677238 -0.0006540867
0.41360649 0.026693352 -0.00066027866
0.41363737 0.027709465 -0.00066647056
0.41366825 0.028725579 -0.00067266246
0.41369915 0.029741691 -0.00067885441
0.41373003 0.030757805 -0.00068504631
0.4137609 0.031773921 -0.00069123821
0.41379181 0.032790031 -0.00069743017
0.41382268 0.033806145 -0.00070362206
0.41385356 0.034822259 -0.00070981396
0.41388446 0.035838373 -0.00071600592
0.41305357 0.036878966 -0.0012478997
0.41308451 0.03789667 -0.0012541014
0.41311544 0.038914375 -0.001260303
0.41314638 0.039932083 -0.0012665046
0.41317731 0.040949788 -0.0012727062
0.41320822 0.041967496 -0.0012789079
0.41323915 0.042985201 -0.0012851094
0.41327009 0.044002909 -0.0012913111
0.41330102 0.045020614 -0.0012975128
0.41333196 0.046038318 -0.0013037144
0.41336289 0.047056027 -0.001309916
0.41339383 0.048073731 -0.0013161176
0.41256362 0.049135026 -0.0018481114
0.41259462 0.050154325 -0.0018543227
0.41262558 0.051173624 -0.0018605341
0.41265658 0.052192923 -0.0018667454
0.41268754 0.053212222 -0.0018729566
0.41271853 0.054231517 -0.001879168
0.41274953 0.05525082 -0.0018853793
0.41278049 0.056270119 -0.0018915907
0.41195074 0.057345744 -0.002423666
0.41198176 0.058366638 -0.002429887
0.41201279 0.059387527 -0.0024361082
0.41204381 0.060408421 -0.0024423292
0.41121429 0.061492011 -0.0029744587
0.41124538 0.062514491 -0.0029806895
0.41127646 0.063536979 -0.0029869203
0.41130751 0.064559467 -0.0029931511
0.41047823 0.065651014 -0.0035253235
0.40937585 -0.020331228 -0.003267281
0.41199705 -0.019119276 -0.0016943975
0.41289139 -0.018040001 -0.0011741881
0.41378555 -0.016963918 -0.00065398536
0.41467962 -0.015891017 -0.00013376898
0.4147104 -0.014878091 -0.00013994146
0.41474119 -0.013865157 -0.00014611401
0.41477197 -0.012852231 -0.00015228651
0.41480276 -0.0118393 -0.00015845902
0.41483355 -0.010826374 -0.00016463152
0.41486433 -0.0098134475 -0.00017080402
0.41489512 -0.0088005178 -0.00017697654
0.4149259 -0.0077875908 -0.00018314904
0.41495669 -0.0067746644 -0.00018932152
0.41498747 -0.0057617305 -0.00019549407
0.41501829 -0.004748804 -0.00020166657
0.41504908 -0.0037358778 -0.00020783907
0.41507986 -0.0027229476 -0.00021401158
0.41511065 -0.0017100211 -0.00022018408
0.41514143 -0.0006970946 -0.00022635657
0.41517222 0.00031583561 -0.0002325291
0.41520301 0.001328762 -0.00023870158
0.41437143 0.0023119794 -0.00077144738
0.41440228 0.0033264996 -0.00077762955
0.41443309 0.0043410235 -0.00078381179
0.41446394 0.0053555416 -0.00078999402
0.41449478 0.006370062 -0.0007961762
0.41366351 0.0073628337 -0.001328986
0.41369438 0.008378949 -0.0013351779
0.41372529 0.0093950629 -0.0013413698
0.41375616 0.010411175 -0.0013475617
0.41378704 0.011427291 -0.0013537536
0.41381794 0.012443403 -0.0013599456
0.41384882 0.013459517 -0.0013661375
0.41387969 0.014475628 -0.0013723294
0.4139106 0.015491744 -0.0013785213
0.41307974 0.016500443 -0.0019114544
0.41311067 0.017518148 -0.001917656
0.41314161 0.018535854 -0.0019238576
0.41317254 0.019553559 -0.0019300593
0.41320348 0.020571267 -0.0019362608
0.41323441 0.021588972 -0.0019424625
0.41326535 0.022606678 -0.0019486641
0.41329628 0.023624385 -0.0019548656
0.41332719 0.024642091 -0.0019610673
0.41335812 0.025659796 -0.001967269
0.41338906 0.026677502 -0.0019734707
0.41341999 0.027695209 -0.0019796721
0.41345093 0.028712915 -0.0019858738
0.41348186 0.029730622 -0.0019920755
0.4135128 0.030748328 -0.0019982771
0.41354373 0.031766035 -0.0020044788
0.41357467 0.032783739 -0.0020106803
0.4136056 0.033801448 -0.0020168819
0.41363654 0.034819152 -0.0020230836
0.41366747 0.035836857 -0.0020292853
0.41369841 0.036854565 -0.0020354867
0.41372934 0.03787227 -0.0020416884
0.41376027 0.038889978 -0.0020478901
0.41379121 0.039907683 -0.0020540918
0.41382214 0.040925387 -0.0020602932
0.41385308 0.041943096 -0.0020664949
0.41302359 0.042994797 -0.0025996638
0.41305456 0.044014093 -0.002605875
0.41308555 0.045033395 -0.0026120865
0.41311654 0.046052691 -0.0026182977
0.41314751 0.04707199 -0.0026245092
0.4131785 0.048091289 -0.0026307204
0.41320947 0.049110588 -0.0026369318
0.41324046 0.050129887 -0.0026431431
0.41327143 0.051149186 -0.0026493545
0.41244245 0.052216809 -0.0031826145
0.41247347 0.053237703 -0.0031888357
0.41250449 0.054258596 -0.0031950567
0.41253552 0.055279486 -0.0032012777
0.41256654 0.056300379 -0.0032074987
0.4125976 0.057321269 -0.0032137197
0.41176891 0.058400042 -0.0037470479
0.4118 0.059422527 -0.0037532786
0.41183108 0.060445011 -0.0037595092
0.41186216 0.061467495 -0.00376574
0.41189322 0.062489979 -0.0037719707
0.41177955 -0.01920687 -0.0030095989
0.41267285 -0.018125968 -0.0024881978
0.41356608 -0.017048249 -0.0019667395
0.4144592 -0.015973721 -0.0014452995
0.41449004 -0.014959201 -0.0014514817
0.41452089 -0.013944673 -0.001457664
0.41455171 -0.012930153 -0.0014638462
0.41458255 -0.011915633 -0.0014700284
0.4146134 -0.010901113 -0.0014762107
0.41550615 -0.0098377327 -0.00095470267
0.41553694 -0.0088248029 -0.00096087519
0.41556773 -0.0078118765 -0.0009670477
0.41559851 -0.00679895 -0.00097322022
0.4156293 -0.0057860161 -0.00097939279
0.41566008 -0.0047730897 -0.00098556525
0.4156909 -0.003760163 -0.0009917377
0.41486007 -0.0027849483 -0.0015256683
0.41489092 -0.0017704283 -0.0015318505
0.41492176 -0.00075590814 -0.0015380327
0.41495258 0.00025861574 -0.0015442149
0.41498342 0.0012731359 -0.0015503971
0.41415292 0.002257905 -0.0020843858
0.4141838 0.0032740186 -0.0020905777
0.41421467 0.0042901323 -0.0020967699
0.41424558 0.0053062462 -0.0021029618
0.41427645 0.0063223601 -0.0021091537
0.41430733 0.0073384722 -0.0021153456
0.41433823 0.0083545875 -0.0021215375
0.41350806 0.0093520982 -0.0026556416
0.41353899 0.010369804 -0.0026618433
0.41356993 0.011387511 -0.002668045
0.41360086 0.012405217 -0.0026742464
0.4136318 0.013422922 -0.0026804481
0.41366273 0.014440628 -0.0026866498
0.41369364 0.015458337 -0.0026928515
0.41372457 0.016476043 -0.0026990529
0.41375551 0.017493749 -0.0027052546
0.41378644 0.018511454 -0.0027114563
0.41381738 0.01952916 -0.0027176579
0.41384831 0.020546867 -0.0027238594
0.41387925 0.021564573 -0.0027300611
0.41304979 0.022584381 -0.0032642635
0.41308078 0.02360368 -0.0032704747
0.41311178 0.024622979 -0.0032766862
0.41314274 0.025642278 -0.0032828974
0.41317374 0.026661577 -0.0032891086
0.4132047 0.027680876 -0.0032953201
0.41323569 0.028700173 -0.0033015313
0.41326669 0.029719472 -0.0033077428
0.41329765 0.030738771 -0.003313954
0.41332865 0.03175807 -0.0033201654
0.41335961 0.032777369 -0.0033263767
0.41339061 0.033796668 -0.0033325881
0.41342157 0.034815967 -0.0033387993
0.41345257 0.035835266 -0.0033450106
0.41348356 0.036854565 -0.003351222
0.41351452 0.037873864 -0.0033574332
0.41354552 0.038893163 -0.0033636447
0.41357648 0.039912462 -0.0033698559
0.41360748 0.040931761 -0.0033760674
0.41363847 0.041951057 -0.0033822786
0.41366944 0.042970359 -0.0033884901
0.41370043 0.043989655 -0.0033947013
0.41287208 0.045046095 -0.003929127
0.41290313 0.046066985 -0.0039353478
0.41293415 0.047087878 -0.003941569
0.41296518 0.048108768 -0.0039477898
0.4129962 0.049129661 -0.003954011
0.41245636 -0.018212007 -0.0038046306
0.41334862 -0.017132664 -0.0032819866
0.41424081 -0.016056497 -0.0027592909
0.41427171 -0.015040387 -0.0027654828
0.41430259 -0.014024266 -0.0027716749
0.41433346 -0.013008156 -0.0027778668
0.41436437 -0.011992042 -0.0027840587
0.41439524 -0.010975928 -0.0027902506
0.41528705 -0.009910916 -0.0022675132
0.41531789 -0.0088963956 -0.0022736955
