ply
format ascii 1.0
comment FreeCAD generated
element vertex 1375
property float x
property float y
property float z
end_header
-11.0060 -13.3452 52.6290 
-11.0210 -11.7088 52.6090 
-11.0520 -8.43610 52.5690 
-6.71799 13.2611 54.7470 
-6.73300 14.8885 54.7270 
-4.93600 16.6787 55.6820 
-4.95099 18.3025 55.6620 
-3.51501 -19.0499 54.9050 
-5.33899 -17.6640 53.9090 
-5.35400 -16.0366 53.8890 
-5.36899 -14.4092 53.8700 
-5.38400 -12.7818 53.8500 
-8.11200 -11.4898 52.3660 
-8.12701 -9.85710 52.3460 
-8.14200 -8.22430 52.3260 
-8.15701 -6.59160 52.3070 
-8.17200 -4.95880 52.2870 
-8.18701 -3.32600 52.2670 
-8.20200 -1.69330 52.2470 
-8.21701 -0.0604992 52.2270 
-8.23199 1.57220 52.2080 
-8.24701 3.20500 52.1880 
-8.26199 4.83780 52.1680 
-8.27701 6.47050 52.1480 
-5.57800 8.37430 53.5940 
-5.59299 10.0017 53.5740 
-5.60800 11.6291 53.5540 
-5.62299 13.2565 53.5340 
-3.82901 15.0503 54.4920 
-3.84399 16.6741 54.4720 
-3.85901 18.2979 54.4520 
-3.87399 19.9218 54.4330 
0.316986 -21.9291 55.2020 
0.302002 -20.3107 55.1830 
0.286987 -18.6922 55.1630 
-2.43799 -17.4307 53.6750 
-2.45200 -15.8069 53.6560 
-4.27399 -14.4138 52.6570 
-4.28900 -12.7864 52.6370 
-4.30399 -11.1590 52.6180 
-4.31900 -9.53160 52.5980 
-4.33401 -7.90420 52.5780 
-4.34900 -6.27680 52.5590 
-4.36401 -4.64940 52.5390 
-7.08899 -3.33070 51.0500 
-7.10400 -1.69790 51.0310 
-7.11899 -0.0650997 51.0110 
-7.13400 1.56760 50.9910 
-7.14899 3.20040 50.9710 
-7.16400 4.83320 50.9510 
-4.46899 6.74230 52.4010 
-4.48401 8.36970 52.3810 
-4.49899 9.99710 52.3610 
-4.51401 11.6245 52.3420 
-4.52899 13.2519 52.3220 
-2.73700 15.0457 53.2820 
-2.75201 16.6695 53.2620 
-2.76700 18.2934 53.2430 
-2.78201 19.9172 53.2230 
-2.79700 21.5410 53.2030 
-5.78000 -26.1939 50.1110 
1.42001 -23.5522 54.0160 
1.40500 -21.9337 53.9970 
1.39099 -20.3153 53.9770 
-1.32999 -19.0591 52.4850 
-1.34500 -17.4353 52.4660 
-1.35999 -15.8115 52.4460 
-3.17899 -14.4184 51.4450 
-3.19400 -12.7910 51.4250 
-3.20901 -11.1636 51.4050 
-3.22400 -9.53620 51.3850 
-3.23901 -7.90880 51.3660 
-3.25400 -6.28140 51.3460 
-3.26901 -4.65400 51.3260 
-3.28400 -3.02660 51.3070 
-3.29901 -1.39930 51.2870 
-6.01999 -0.0697994 49.7940 
-6.03601 1.56300 49.7740 
-6.05099 3.19580 49.7550 
-3.35901 5.11030 51.2080 
-3.37399 6.73770 51.1880 
-3.38901 8.36510 51.1690 
-3.40399 9.99250 51.1490 
-3.41901 11.6199 51.1290 
-3.43399 13.2473 51.1090 
-3.44901 14.8747 51.0900 
-1.65900 16.6649 52.0520 
-1.67401 18.2888 52.0330 
-1.68900 19.9126 52.0130 
-3.50900 21.3843 51.0110 
-1.97900 -25.8148 50.3700 
-0.192993 -23.9352 51.3340 
-0.208008 -22.3113 51.3150 
-0.222992 -20.6875 51.2950 
-0.238007 -19.0637 51.2750 
-0.252991 -17.4399 51.2560 
-2.06900 -16.0504 50.2520 
-2.08401 -14.4230 50.2320 
-2.09900 -12.7956 50.2120 
-2.11401 -11.1682 50.1930 
-2.12900 -9.54080 50.1730 
-2.14401 -7.91350 50.1530 
-2.15900 -6.28610 50.1330 
-2.17401 -4.65870 50.1140 
-2.18900 -3.03130 50.0940 
-2.20401 -1.40390 50.0740 
-2.21899 0.223499 50.0550 
-2.23401 1.85090 50.0350 
-2.24899 3.47830 50.0150 
-2.26401 5.10570 49.9950 
-2.27899 6.73310 49.9760 
-2.29401 8.36050 49.9560 
-2.30899 9.98790 49.9360 
-2.32401 11.6153 49.9170 
-2.33899 13.2427 49.8970 
-2.35400 14.8701 49.8770 
-2.36899 16.4975 49.8570 
-2.38400 18.1249 49.8380 
-2.39899 19.7523 49.8180 
-5.11801 21.1515 48.3200 
-5.36700 -28.0954 46.7110 
-0.885010 -25.8194 49.1580 
0.898987 -23.9397 50.1240 
0.884003 -22.3159 50.1050 
0.868988 -20.6921 50.0850 
-0.945007 -19.3098 49.0790 
-0.959991 -17.6824 49.0590 
-0.975006 -16.0550 49.0390 
-0.989990 -14.4276 49.0200 
-1.00500 -12.8002 49.0000 
-1.01999 -11.1728 48.9800 
-1.03500 -9.54540 48.9600 
-1.04999 -7.91810 48.9410 
-1.06500 -6.29070 48.9210 
-1.07999 -4.66330 48.9010 
-1.09500 -3.03590 48.8810 
-1.10999 -1.40850 48.8620 
-1.12500 0.218901 48.8420 
-1.14001 1.84630 48.8220 
-1.15500 3.47370 48.8030 
-1.17001 5.10110 48.7830 
-1.18500 6.72850 48.7630 
-1.20001 8.35590 48.7430 
-1.21500 9.98330 48.7240 
-3.92899 11.3503 47.2230 
-3.94400 12.9831 47.2030 
-1.26001 14.8655 48.6650 
-1.27499 16.4929 48.6450 
-1.29001 18.1203 48.6250 
-1.30499 19.7477 48.6050 
-4.01901 21.1469 47.1040 
-4.03400 22.7797 47.0840 
-2.48499 -26.2078 46.4610 
0.195007 -24.1966 47.9250 
0.179993 -22.5692 47.9060 
0.165009 -20.9418 47.8860 
0.149994 -19.3144 47.8660 
0.135010 -17.6870 47.8460 
0.119995 -16.0596 47.8270 
0.105011 -14.4322 47.8070 
0.0899963 -12.8048 47.7870 
0.0750122 -11.1775 47.7680 
0.0599976 -9.55010 47.7480 
0.0450134 -7.92270 47.7280 
0.0299988 -6.29530 47.7080 
0.0150146 -4.66790 47.6890 
0.00000 -3.04050 47.6690 
-0.0150146 -1.41310 47.6490 
-0.0299988 0.214300 47.6290 
-0.0450134 1.84170 47.6100 
-0.0599976 3.46910 47.5900 
-0.0750122 5.09650 47.5700 
-0.0899963 6.72390 47.5510 
-0.105011 8.35130 47.5310 
-2.81601 9.71300 46.0260 
-2.83099 11.3457 46.0060 
-2.84601 12.9785 45.9860 
-2.86099 14.6112 45.9670 
-0.179993 16.4883 47.4320 
-2.89099 17.8768 45.9270 
-2.90601 19.5095 45.9070 
-2.92099 21.1423 45.8870 
-2.93600 22.7750 45.8680 
-4.74899 24.2628 44.8573 
-3.18100 -26.4683 44.2528 
-1.40100 -24.5797 45.2250 
-1.41699 -22.9469 45.2050 
-1.43201 -21.3141 45.1850 
-1.44699 -19.6814 45.1650 
-1.46201 -18.0486 45.1460 
-1.47699 -16.4159 45.1260 
-1.49200 -14.7831 45.1060 
-1.50699 -13.1503 45.0860 
1.17001 -11.1821 46.5550 
1.15500 -9.55470 46.5350 
1.14001 -7.92730 46.5160 
1.12500 -6.29990 46.4960 
1.10999 -4.67250 46.4760 
1.09500 -3.04510 46.4560 
1.07999 -1.41770 46.4370 
1.06500 0.209700 46.4170 
1.04999 1.83710 46.3970 
1.03500 3.46450 46.3770 
1.01999 5.09190 46.3580 
1.00500 6.71930 46.3380 
-1.70200 8.07560 44.8291 
-1.71701 9.70830 44.8093 
-1.73199 11.3411 44.7895 
-1.74799 12.9738 44.7698 
-1.76300 14.6066 44.7500 
-1.77802 16.2394 44.7302 
-1.79300 17.8721 44.7104 
-1.80801 19.5049 44.6906 
-1.82300 21.1377 44.6708 
-1.83801 22.7704 44.6510 
-1.85300 24.4032 44.6312 
-3.66299 25.8945 43.6182 
-6.37100 27.3241 42.1084 
-2.07999 -26.4729 43.0336 
-2.09500 -24.8366 43.0137 
-2.10999 -23.2002 42.9939 
-2.12500 -21.5639 42.9741 
-0.347992 -19.6860 43.9489 
-0.363007 -18.0532 43.9292 
-0.377991 -16.4205 43.9094 
-0.393005 -14.7877 43.8896 
-0.407990 -13.1550 43.8698 
-0.424011 -11.5222 43.8500 
-0.438995 -9.88940 43.8302 
-0.454010 -8.25670 43.8104 
-0.468994 -6.62390 43.7906 
-0.484009 -4.99120 43.7709 
-0.498993 -3.35840 43.7511 
-0.514008 -1.72560 43.7313 
-0.528992 -0.0928993 43.7115 
-0.544006 1.53990 43.6917 
-0.558990 3.17270 43.6719 
-0.574005 4.80540 43.6521 
-0.588989 6.43820 43.6323 
-0.604004 8.07090 43.6126 
-0.618988 9.70370 43.5928 
-0.634003 11.3365 43.5730 
-0.648987 12.9692 43.5532 
-0.664001 14.6020 43.5334 
-0.678986 16.2347 43.5136 
-0.694000 17.8675 43.4938 
-0.709015 19.5003 43.4741 
-0.723999 21.1330 43.4543 
-0.739990 22.7658 43.4345 
-2.54700 24.2536 42.4188 
-2.56201 25.8899 42.3990 
-2.57700 27.5262 42.3792 
-5.28201 28.9612 40.8653 
-3.64801 -28.5031 40.3384 
-3.66299 -26.8614 40.3185 
-0.993988 -24.8412 41.7945 
-1.00900 -23.2049 41.7747 
-1.02399 -21.5685 41.7548 
-1.03900 -19.9322 41.7350 
0.734985 -18.0579 42.7126 
0.720001 -16.4251 42.6928 
0.704987 -14.7923 42.6730 
0.690002 -13.1596 42.6532 
0.674988 -11.5268 42.6335 
0.660004 -9.89410 42.6137 
0.644989 -8.26130 42.5939 
0.630005 -6.62850 42.5741 
0.614990 -4.99580 42.5543 
0.600006 -3.36300 42.5345 
0.584991 -1.73020 42.5147 
0.569000 -0.0974998 42.4949 
0.553986 1.53530 42.4752 
0.539001 3.16800 42.4554 
0.523987 4.80080 42.4356 
0.509003 6.43360 42.4158 
-1.29599 7.88550 41.3979 
-1.31100 9.52190 41.3781 
-1.32599 11.1582 41.3582 
-1.34100 12.7946 41.3384 
0.433990 14.5974 42.3169 
0.419006 16.2301 42.2971 
0.403992 17.8629 42.2773 
0.389008 19.4957 42.2575 
-1.41599 20.9762 41.2393 
-1.43100 22.6126 41.2194 
-1.44699 24.2489 41.1996 
-1.46201 25.8853 41.1798 
-1.47699 27.5216 41.1599 
-4.17700 28.9565 39.6421 
-4.19299 30.5982 39.6222 
-4.32999 -28.7672 38.1154 
-2.55899 -26.8660 39.0953 
-2.57401 -25.2243 39.0754 
-2.58899 -23.5826 39.0555 
0.0759888 -21.5732 40.5356 
0.0610046 -19.9368 40.5158 
0.0459900 -18.3005 40.4960 
0.0310059 -16.6642 40.4761 
0.0159912 -15.0278 40.4563 
0.00100708 -13.3915 40.4365 
1.77301 -11.5314 41.4169 
-0.0289917 -10.1188 40.3968 
1.74301 -8.26590 41.3773 
1.72800 -6.63320 41.3575 
1.71301 -5.00040 41.3378 
1.69800 -3.36760 41.3180 
-0.105011 -1.93710 40.2977 
-0.119995 -0.300800 40.2778 
-0.135010 1.33560 40.2580 
-0.149994 2.97190 40.2382 
-0.165009 4.60820 40.2183 
-0.179993 6.24460 40.1985 
-0.195007 7.88090 40.1787 
-0.209991 9.51730 40.1589 
-0.225006 11.1536 40.1390 
-0.239990 12.7899 40.1192 
-0.255005 14.4263 40.0994 
-0.269989 16.0626 40.0795 
-0.285004 17.6989 40.0597 
-0.300995 19.3353 40.0399 
-0.316010 20.9716 40.0201 
-0.330994 22.6080 40.0002 
-0.346008 24.2443 39.9804 
-0.360992 25.8806 39.9606 
-0.376007 27.5170 39.9407 
-3.07300 28.9519 38.4189 
-3.08801 30.5936 38.3990 
-5.89999 -29.1611 35.3857 
-3.23901 -27.1266 36.8695 
-3.25400 -25.4813 36.8496 
-1.48499 -23.5873 37.8323 
-1.50000 -21.9456 37.8124 
-1.51501 -20.3039 37.7925 
1.14700 -18.3051 39.2767 
1.13199 -16.6688 39.2569 
1.11700 -15.0324 39.2371 
1.10199 -13.3961 39.2173 
1.08701 -11.7598 39.1974 
1.07199 -10.1234 39.1776 
1.05701 -8.48710 39.1578 
1.04099 -6.85080 39.1379 
1.02600 -5.21440 39.1181 
1.01099 -3.57810 39.0983 
0.996002 -1.94170 39.0784 
0.980988 -0.305401 39.0586 
0.966003 1.33090 39.0388 
0.950989 2.96730 39.0190 
0.936005 4.60360 38.9991 
0.920990 6.23990 38.9793 
0.906006 7.87630 38.9595 
0.890991 9.51260 38.9396 
0.876007 11.1490 38.9198 
0.860992 12.7853 38.9000 
0.845001 14.4216 38.8801 
0.829987 16.0580 38.8603 
0.815002 17.6943 38.8405 
0.799988 19.3307 38.8207 
0.785004 20.9670 38.8008 
0.769989 22.6033 38.7810 
0.755005 24.2397 38.7612 
0.739990 25.8760 38.7413 
-1.95401 27.3055 37.2155 
-1.96899 28.9472 37.1956 
-1.98401 30.5889 37.1757 
-4.79001 -29.1658 34.1558 
-4.80499 -27.5151 34.1358 
-2.14700 -25.4860 35.6237 
-2.16199 -23.8407 35.6038 
-0.394989 -21.9502 36.5892 
-0.411011 -20.3085 36.5693 
-0.425995 -18.6668 36.5494 
-0.441010 -17.0251 36.5295 
-0.455994 -15.3834 36.5096 
2.20200 -13.4007 37.9980 
2.18701 -11.7644 37.9782 
2.17200 -10.1281 37.9584 
2.15701 -8.49170 37.9386 
2.14200 -6.85540 37.9187 
2.12701 -5.21910 37.8989 
2.11200 -3.58270 37.8791 
2.09698 -1.94640 37.8592 
2.08200 -0.309999 37.8394 
2.06699 1.32630 37.8196 
2.05200 2.96260 37.7997 
-0.636993 4.31700 36.2709 
-0.653015 5.95870 36.2510 
-0.667999 7.60040 36.2311 
-0.683014 9.24210 36.2112 
1.97601 11.1443 37.7006 
1.96100 12.7807 37.6808 
1.94601 14.4170 37.6609 
1.93100 16.0533 37.6411 
1.91599 17.6897 37.6213 
1.90100 19.3260 37.6014 
1.88599 20.9624 37.5816 
1.87100 22.5987 37.5618 
1.85599 24.2350 37.5419 
-0.834015 25.6592 36.0122 
-0.848999 27.3009 35.9923 
-0.864014 28.9426 35.9724 
-0.880005 30.5843 35.9525 
-5.35300 31.9081 33.4157 
-5.45901 -29.4299 31.9181 
-3.69501 -27.5198 32.9060 
-3.70999 -25.8691 32.8859 
-1.05600 -23.8453 34.3779 
-1.07101 -22.2001 34.3580 
0.694000 -20.3132 35.3461 
0.678986 -18.6714 35.3262 
0.664001 -17.0298 35.3063 
0.648010 -15.3881 35.2864 
0.632996 -13.7463 35.2665 
3.28799 -11.7690 36.7590 
0.602997 -10.4629 35.2267 
3.25800 -8.49640 36.7193 
3.24301 -6.86000 36.6995 
3.22800 -5.22370 36.6797 
0.542999 -3.89610 35.1471 
0.527008 -2.25440 35.1272 
0.511993 -0.612700 35.1073 
0.497009 1.02900 35.0874 
0.481995 2.67070 35.0675 
0.467010 4.31240 35.0476 
0.451996 5.95410 35.0277 
0.437012 7.59580 35.0078 
0.420990 9.23750 34.9879 
0.406006 10.8792 34.9680 
0.390991 12.5209 34.9482 
0.376007 14.1626 34.9283 
0.360992 15.8043 34.9084 
3.01700 17.6850 36.4020 
3.00201 19.3214 36.3822 
0.316010 20.7294 34.8487 
0.299988 22.3711 34.8288 
0.285004 24.0128 34.8089 
0.269989 25.6545 34.7890 
0.255005 27.2962 34.7691 
0.239990 28.9379 34.7492 
0.225006 30.5796 34.7293 
-4.24200 31.9034 32.1858 
-4.25800 33.5541 32.1658 
-4.34698 -29.4346 30.6856 
-2.58499 -27.5245 31.6761 
-2.60001 -25.8738 31.6561 
0.0509949 -23.8500 33.1520 
0.0360107 -22.2047 33.1321 
1.79800 -20.3178 34.1228 
1.78299 -18.6761 34.1029 
1.76801 -17.0344 34.0831 
1.75299 -15.3927 34.0632 
1.73801 -13.7510 34.0433 
4.38901 -11.7737 35.5398 
1.70700 -10.4676 34.0035 
4.35901 -8.50100 35.5001 
4.34399 -6.86470 35.4803 
4.32901 -5.22830 35.4604 
1.64700 -3.90080 33.9239 
1.63199 -2.25910 33.9040 
1.61700 -0.617399 33.8841 
4.26801 1.31700 35.3811 
4.25299 2.95340 35.3613 
1.57101 4.30770 33.8244 
1.55600 5.94940 33.8045 
1.54099 7.59110 33.7846 
1.52600 9.23290 33.7647 
4.17801 11.1351 35.2622 
4.16299 12.7714 35.2423 
4.14801 14.4077 35.2225 
4.13300 16.0441 35.2027 
4.11700 17.6804 35.1828 
4.10199 19.3168 35.1630 
4.08701 20.9531 35.1432 
4.07199 22.5894 35.1233 
4.05701 24.2258 35.1035 
1.37500 25.6499 33.5658 
1.35901 27.2916 33.5459 
1.34399 28.9333 33.5260 
1.32901 30.5750 33.5061 
-3.13199 31.8988 30.9560 
-3.14700 33.5494 30.9360 
-3.23401 -29.4393 29.4530 
-1.47400 -27.5291 30.4462 
-1.48901 -25.8785 30.4262 
1.15799 -23.8546 31.9261 
1.14301 -22.2094 31.9062 
1.12799 -20.5641 31.8863 
2.88699 -18.6807 32.8797 
2.87201 -17.0390 32.8598 
2.85699 -15.3973 32.8399 
2.84201 -13.7556 32.8200 
2.82700 -12.1139 32.8001 
2.81201 -10.4722 32.7803 
2.79700 -8.83050 32.7604 
2.78101 -7.18880 32.7405 
2.76599 -5.54710 32.7206 
2.75101 -3.90540 32.7007 
2.73599 -2.26370 32.6808 
2.72101 -0.622000 32.6609 
2.70599 1.01970 32.6410 
2.69101 2.66140 32.6211 
2.67599 4.30310 32.6012 
2.66000 5.94480 32.5813 
2.64499 7.58650 32.5614 
2.63000 9.22820 32.5415 
2.61499 10.8699 32.5216 
2.60001 12.5116 32.5017 
2.58499 14.1533 32.4818 
2.57001 15.7950 32.4619 
2.55499 17.4367 32.4420 
2.53900 19.0784 32.4221 
2.52399 20.7201 32.4022 
2.50900 22.3618 32.3823 
2.49399 24.0035 32.3624 
2.47900 25.6452 32.3426 
2.46399 27.2869 32.3227 
2.44901 28.9286 32.3028 
2.43399 30.5704 32.2829 
-2.02200 31.8941 29.7261 
-2.03699 33.5447 29.7061 
-4.78000 -29.8333 26.6968 
-2.13599 -27.7897 28.2004 
-0.378998 -25.8831 29.1963 
-0.394012 -24.2325 29.1763 
2.24899 -22.2140 30.6803 
2.23401 -20.5687 30.6604 
2.21899 -18.9235 30.6404 
2.20401 -17.2782 30.6205 
2.18900 -15.6329 30.6006 
3.94601 -13.7603 31.5968 
3.93100 -12.1186 31.5769 
3.91599 -10.4769 31.5570 
3.90100 -8.83520 31.5371 
3.88599 -7.19350 31.5172 
2.09799 -5.76120 30.4809 
2.08301 -4.11590 30.4610 
2.06699 -2.47070 30.4411 
2.05200 -0.825399 30.4211 
2.03699 0.819901 30.4012 
2.02200 2.46520 30.3813 
2.00699 4.11050 30.3613 
1.99200 5.75570 30.3414 
1.97699 7.40100 30.3214 
1.96100 9.04630 30.3015 
1.94601 10.6916 30.2816 
1.93100 12.3369 30.2616 
1.91599 13.9821 30.2417 
3.67401 15.7904 31.2387 
3.65900 17.4321 31.2188 
3.64401 19.0738 31.1989 
3.62900 20.7155 31.1790 
3.61301 22.3572 31.1591 
3.59799 23.9989 31.1392 
3.58301 25.6406 31.1193 
3.56799 27.2823 31.0995 
3.55301 28.9240 31.0796 
3.53799 30.5657 31.0597 
-0.911011 31.8894 28.4962 
-0.927002 33.5401 28.4762 
-2.71600 35.0707 27.4387 
-3.66299 -29.8380 25.4602 
-1.02399 -27.7944 26.9679 
0.730988 -25.8878 27.9664 
0.716003 -24.2372 27.9464 
0.700989 -22.5865 27.9264 
0.686005 -20.9359 27.9064 
0.670013 -19.2852 27.8864 
0.654999 -17.6346 27.8664 
3.29599 -15.6376 29.3747 
3.28000 -13.9923 29.3548 
3.26501 -12.3470 29.3348 
3.25000 -10.7017 29.3149 
3.23499 -9.05640 29.2949 
3.22000 -7.41120 29.2750 
3.20499 -5.76590 29.2551 
3.18900 -4.12060 29.2351 
3.17401 -2.47530 29.2152 
0.502991 -1.12810 27.6664 
0.488007 0.522499 27.6464 
0.472992 2.17310 27.6264 
0.458008 3.82380 27.6064 
0.441986 5.47440 27.5864 
0.427002 7.12510 27.5664 
0.411987 8.77570 27.5464 
0.397003 10.4264 27.5264 
0.381012 12.0770 27.5064 
3.02301 13.9775 29.0158 
3.00699 15.6228 28.9959 
2.99200 17.2680 28.9759 
2.97699 18.9133 28.9560 
2.96201 20.5586 28.9360 
2.94699 22.2039 28.9161 
2.93201 23.8492 28.8962 
2.91599 25.4944 28.8762 
4.67200 27.2776 29.8762 
4.65701 28.9194 29.8563 
2.87100 30.4303 28.8164 
0.199005 31.8847 27.2663 
-1.58801 33.4118 26.2262 
-1.60300 35.0660 26.2061 
-4.27499 36.5455 24.6557 
-2.54700 -29.8427 24.2237 
0.0889893 -27.7991 25.7353 
0.0740051 -26.1449 25.7153 
1.82599 -24.2419 26.7166 
1.81100 -22.5912 26.6966 
1.79599 -20.9406 26.6766 
1.78101 -19.2899 26.6566 
1.76599 -17.6393 26.6366 
1.75000 -15.9886 26.6165 
1.73499 -14.3380 26.5965 
1.72000 -12.6873 26.5765 
1.70499 -11.0367 26.5565 
1.69000 -9.38600 26.5365 
1.67401 -7.73540 26.5165 
1.65900 -6.08480 26.4965 
1.64401 -4.43410 26.4765 
1.62900 -2.78350 26.4565 
1.61301 -1.13280 26.4365 
1.59799 0.517799 26.4165 
1.58301 2.16850 26.3965 
1.56799 3.81910 26.3765 
1.55301 5.46980 26.3565 
1.53699 7.12040 26.3365 
1.52200 8.77100 26.3165 
1.50699 10.4217 26.2965 
1.49200 12.0723 26.2765 
1.47699 13.7230 26.2565 
1.46100 15.3736 26.2365 
4.09900 17.2634 27.7500 
4.08401 18.9087 27.7301 
4.06900 20.5539 27.7102 
4.05399 22.1992 27.6902 
4.03799 23.8445 27.6703 
4.02301 25.4898 27.6504 
4.00800 27.1351 27.6304 
3.99301 28.7803 27.6105 
1.32401 30.2294 26.0564 
-0.459991 31.7529 25.0137 
-0.475006 33.4071 24.9936 
-0.489990 35.0613 24.9736 
-3.15900 36.5408 23.4192 
-3.17401 38.2004 23.3991 
-3.18100 -31.7701 21.9835 
-1.43100 -29.8474 22.9871 
1.20200 -27.8038 24.5028 
1.18701 -26.1496 24.4827 
1.17099 -24.4954 24.4627 
1.15601 -22.8411 24.4427 
1.14099 -21.1869 24.4226 
1.12601 -19.5327 24.4026 
1.11099 -17.8785 24.3825 
1.09500 -16.2243 24.3625 
1.07999 -14.5700 24.3424 
1.06500 -12.9158 24.3224 
1.04999 -11.2616 24.3023 
1.03400 -9.60740 24.2823 
1.01901 -7.95310 24.2622 
1.00400 -6.29890 24.2422 
0.989014 -4.64470 24.2221 
0.972992 -2.99050 24.2021 
0.958008 -1.33630 24.1821 
0.942993 0.318001 24.1620 
0.928009 1.97220 24.1420 
0.911987 3.62640 24.1219 
0.897003 5.28060 24.1019 
2.64801 7.11570 25.1066 
2.63300 8.76640 25.0866 
2.61700 10.4170 25.0666 
2.60199 12.0677 25.0466 
2.58701 13.7183 25.0266 
2.57199 15.3690 25.0066 
2.55701 17.0196 24.9866 
2.54099 18.6702 24.9666 
2.52600 20.3209 24.9466 
2.51099 21.9715 24.9266 
2.49600 23.6222 24.9066 
2.48001 25.2728 24.8866 
2.46500 26.9235 24.8666 
2.45001 28.5741 24.8466 
2.43500 30.2248 24.8266 
0.653015 31.7482 23.7811 
0.638000 33.4024 23.7611 
0.622986 35.0566 23.7410 
-2.04199 36.5361 22.1827 
-2.05801 38.1957 22.1626 
-2.07300 39.8553 22.1424 
-4.69101 -33.8381 19.2248 
-2.06201 -31.7748 20.7442 
-2.07700 -30.1116 20.7241 
-0.329010 -28.1925 21.7305 
2.29901 -26.1543 23.2502 
2.28400 -24.5000 23.2302 
2.26901 -22.8458 23.2101 
2.25400 -21.1916 23.1901 
2.23901 -19.5374 23.1700 
2.22299 -17.8832 23.1500 
2.20801 -16.2289 23.1299 
2.19299 -14.5747 23.1099 
2.17801 -12.9205 23.0898 
2.16199 -11.2663 23.0698 
2.14700 -9.61200 23.0497 
2.13199 -7.95780 23.0297 
2.11700 -6.30360 23.0096 
2.10101 -4.64940 22.9896 
2.08600 -2.99520 22.9696 
2.07101 -1.34090 22.9495 
2.05600 0.313299 22.9295 
2.04001 1.96750 22.9094 
2.02499 3.62170 22.8894 
2.01001 5.27590 22.8693 
1.99500 6.93020 22.8493 
1.97900 8.58440 22.8292 
1.96399 10.2386 22.8092 
1.94901 11.8928 22.7891 
1.93399 13.5471 22.7691 
1.91800 15.2013 22.7490 
1.90302 16.8555 22.7290 
1.88800 18.5097 22.7089 
1.87299 20.1639 22.6889 
1.85699 21.8182 22.6689 
1.84201 23.4724 22.6488 
1.82700 25.1266 22.6288 
1.81201 26.7808 22.6087 
1.79599 28.4351 22.5887 
1.78101 30.0893 22.5686 
1.76599 31.7435 22.5486 
1.75101 33.3977 22.5285 
-0.911011 34.8718 20.9662 
-0.925995 36.5314 20.9461 
-0.941010 38.1910 20.9260 
-0.957001 39.8506 20.9059 
-0.971985 41.5102 20.8858 
-5.29800 -37.4537 16.9931 
-5.31299 -35.7816 16.9728 
-3.56799 -33.8428 17.9816 
-3.58301 -32.1743 17.9614 
-0.958008 -30.1164 19.4849 
-0.973999 -28.4532 19.4647 
0.772003 -26.5376 20.4738 
0.756012 -24.8780 20.4537 
0.740997 -23.2184 20.4336 
0.726013 -21.5588 20.4135 
0.709991 -19.8992 20.3934 
0.695007 -18.2397 20.3733 
3.32101 -16.2336 21.8974 
3.30600 -14.5794 21.8773 
3.29001 -12.9252 21.8573 
3.27499 -11.2710 21.8372 
3.26001 -9.61670 21.8172 
3.24500 -7.96250 21.7971 
3.22900 -6.30830 21.7771 
3.21399 -4.65410 21.7570 
3.19901 -2.99980 21.7370 
3.18399 -1.34560 21.7170 
3.16800 0.308599 21.6969 
3.15302 1.96280 21.6769 
3.13800 3.61700 21.6568 
3.12299 5.27130 21.6368 
3.10699 6.92550 21.6167 
3.09201 8.57970 21.5967 
3.07700 10.2339 21.5766 
3.06201 11.8881 21.5566 
3.04599 13.5424 21.5365 
3.03101 15.1966 21.5165 
3.01599 16.8508 21.4964 
3.00101 18.5050 21.4764 
2.98499 20.1593 21.4564 
2.97000 21.8135 21.4363 
2.95499 23.4677 21.4163 
2.94000 25.1219 21.3962 
2.92401 26.7761 21.3762 
2.90900 28.4304 21.3561 
2.89401 30.0846 21.3361 
0.235992 31.5479 19.7699 
0.221008 33.2075 19.7498 
0.205994 34.8671 19.7297 
0.190002 36.5267 19.7096 
0.174988 38.1863 19.6895 
0.160004 39.8459 19.6694 
-1.61700 41.3997 18.6182 
-1.63300 43.0628 18.5981 
-4.15701 -39.1306 15.7675 
-4.17300 -37.4585 15.7472 
-4.18799 -35.7864 15.7269 
-4.20401 -34.1143 15.7067 
-2.46100 -32.1790 16.7182 
-2.47601 -30.5105 16.6980 
-2.49200 -28.8419 16.6778 
1.88800 -26.5423 19.2373 
1.87299 -24.8827 19.2172 
1.85699 -23.2231 19.1971 
1.84201 -21.5635 19.1770 
1.82700 -19.9039 19.1568 
1.81100 -18.2444 19.1367 
1.79599 -16.5848 19.1166 
1.78101 -14.9252 19.0965 
1.76599 -13.2656 19.0764 
1.75000 -11.6060 19.0563 
1.73499 -9.94640 19.0362 
1.72000 -8.28680 19.0161 
1.70401 -6.62730 18.9960 
1.68900 -4.96770 18.9758 
1.67401 -3.30810 18.9557 
1.65900 -1.64850 18.9356 
1.64301 0.0111008 18.9155 
1.62799 1.67070 18.8954 
1.61301 3.33030 18.8753 
1.59698 4.98990 18.8552 
1.58200 6.64940 18.8351 
1.56699 8.30900 18.8149 
1.55099 9.96860 18.7948 
1.53601 11.6282 18.7747 
1.52100 13.2878 18.7546 
4.14401 15.1919 20.2840 
4.12900 16.8461 20.2639 
1.47501 18.2665 18.6943 
1.45999 19.9261 18.6742 
1.44400 21.5857 18.6541 
1.42899 23.2453 18.6339 
1.41400 24.9049 18.6138 
4.03699 26.7715 20.1436 
4.02200 28.4257 20.1236 
4.00699 30.0799 20.1035 
1.35300 31.5432 18.5334 
1.33701 33.2028 18.5133 
1.32199 34.8624 18.4932 
1.30701 36.5220 18.4731 
-0.467987 38.0686 17.4193 
-0.483002 39.7318 17.3992 
-0.498993 41.3950 17.3790 
-0.514008 43.0581 17.3589 
-3.03299 -39.1353 14.5216 
-3.04800 -37.4632 14.5013 
-3.06299 -35.7911 14.4811 
-3.07901 -34.1190 14.4608 
-3.09399 -32.4469 14.4405 
-3.10999 -30.7748 14.4203 
-1.36899 -28.8466 15.4346 
1.24899 -26.7994 16.9662 
1.23300 -25.1363 16.9460 
1.21799 -23.4731 16.9259 
1.20300 -21.8099 16.9057 
2.94299 -19.9086 17.9203 
2.92801 -18.2491 17.9002 
2.91299 -16.5895 17.8801 
2.89700 -14.9299 17.8600 
2.88199 -13.2703 17.8399 
2.86700 -11.6107 17.8197 
2.85101 -9.95110 17.7996 
2.83600 -8.29150 17.7795 
2.82101 -6.63190 17.7594 
2.80499 -4.97240 17.7393 
2.79001 -3.31280 17.7192 
2.77499 -1.65320 17.6991 
2.76001 0.00639915 17.6790 
2.74399 1.66600 17.6589 
2.72900 3.32560 17.6387 
2.71399 4.98520 17.6186 
2.69800 6.64470 17.5985 
2.68301 8.30430 17.5784 
2.66800 9.96390 17.5583 
2.65302 11.6235 17.5382 
2.63699 13.2831 17.5181 
2.62201 14.9427 17.4980 
2.60699 16.6023 17.4778 
2.59100 18.2619 17.4577 
2.57599 19.9214 17.4376 
2.56100 21.5810 17.4175 
2.54599 23.2406 17.3974 
2.53000 24.9002 17.3773 
2.51501 26.5598 17.3572 
2.50000 28.2194 17.3371 
2.48401 29.8790 17.3170 
2.46899 31.5385 17.2968 
2.45401 33.1981 17.2767 
2.43799 34.8577 17.2566 
0.665985 36.4008 16.2003 
0.651001 38.0639 16.1801 
0.635986 39.7271 16.1600 
0.619995 41.3903 16.1398 
0.605011 43.0534 16.1197 
-4.52200 -41.2337 11.7407 
-1.90799 -39.1400 13.2757 
-1.92300 -37.4679 13.2555 
-1.93900 -35.7958 13.2352 
-1.95401 -34.1237 13.2149 
-1.97000 -32.4516 13.1947 
-1.98499 -30.7795 13.1744 
-2.00000 -29.1074 13.1541 
-0.261993 -27.1828 14.1711 
-0.278015 -25.5143 14.1509 
2.33701 -23.4778 15.6866 
2.32101 -21.8146 15.6665 
2.30600 -20.1515 15.6463 
2.29099 -18.4883 15.6262 
2.27499 -16.8252 15.6060 
2.26001 -15.1620 15.5859 
2.24500 -13.4988 15.5657 
2.22900 -11.8357 15.5456 
2.21399 -10.1725 15.5254 
2.19901 -8.50930 15.5052 
2.18301 -6.84620 15.4851 
2.16800 -5.18300 15.4649 
2.15302 -3.51990 15.4448 
2.13800 -1.85670 15.4246 
2.12201 -0.193501 15.4045 
2.10699 1.46960 15.3843 
2.09201 3.13280 15.3642 
2.07599 4.79600 15.3440 
2.06100 6.45910 15.3239 
2.04599 8.12230 15.3037 
2.03000 9.78550 15.2835 
2.01501 11.4486 15.2634 
2.00000 13.1118 15.2432 
1.98401 14.7749 15.2231 
1.96899 16.4381 15.2029 
1.95401 18.1013 15.1828 
1.93799 19.7644 15.1626 
3.67700 21.5763 16.1810 
3.66199 23.2359 16.1609 
3.64700 24.8955 16.1408 
3.63101 26.5551 16.1206 
3.61600 28.2147 16.1005 
3.60101 29.8743 16.0804 
3.58499 31.5338 16.0603 
3.57001 33.1934 16.0402 
1.79999 34.7329 14.9812 
1.78500 36.3961 14.9611 
1.76999 38.0592 14.9409 
1.75400 39.7224 14.9207 
3.49399 41.4914 15.9396 
3.47800 43.1510 15.9195 
-3.39401 -41.2385 10.4908 
-0.782990 -39.1448 12.0298 
-0.798004 -37.4727 12.0096 
-0.813995 -35.8006 11.9893 
-0.829010 -34.1284 11.9691 
-0.845001 -32.4563 11.9488 
-0.859985 -30.7842 11.9285 
-0.876007 -29.1121 11.9083 
-0.890991 -27.4400 11.8880 
0.845001 -25.5190 12.9077 
0.829010 -23.8505 12.8875 
0.813995 -22.1820 12.8673 
0.798004 -20.5134 12.8471 
0.782990 -18.8449 12.8268 
0.768005 -17.1764 12.8066 
0.752014 -15.5079 12.7864 
0.737000 -13.8393 12.7662 
0.721985 -12.1708 12.7459 
3.33301 -10.1772 14.2862 
3.31799 -8.51410 14.2660 
3.30200 -6.85090 14.2459 
3.28699 -5.18770 14.2257 
3.27200 -3.52460 14.2056 
3.25601 -1.86140 14.1854 
3.24100 -0.198200 14.1653 
3.22601 1.46490 14.1451 
0.583008 2.84600 12.5640 
0.567993 4.51450 12.5437 
0.552002 6.18300 12.5235 
0.536987 7.85150 12.5033 
0.522003 9.52010 12.4831 
0.506012 11.1886 12.4629 
0.490997 12.8571 12.4426 
3.10300 14.7702 13.9839 
3.08801 16.4334 13.9637 
3.07199 18.0966 13.9436 
3.05701 19.7597 13.9234 
3.04199 21.4229 13.9033 
3.02600 23.0860 13.8831 
3.01099 24.7492 13.8629 
2.99600 26.4124 13.8428 
2.98001 28.0755 13.8226 
2.96500 29.7387 13.8025 
2.95001 31.4019 13.7823 
2.93399 33.0650 13.7622 
2.91901 34.7282 13.7420 
2.90399 36.3913 13.7219 
2.88800 38.0545 13.7017 
2.87299 39.7177 13.6815 
2.85800 41.3808 13.6614 
4.59500 43.1462 14.6830 
-2.26501 -41.2432 9.24090 
0.342010 -39.1495 10.7840 
0.325989 -37.4774 10.7637 
0.311005 -35.8053 10.7435 
0.295990 -34.1332 10.7232 
0.279999 -32.4611 10.7029 
0.265015 -30.7890 10.6827 
0.248993 -29.1169 10.6624 
0.234009 -27.4448 10.6421 
0.217987 -25.7727 10.6219 
0.203003 -24.1005 10.6016 
0.187988 -22.4284 10.5814 
0.171997 -20.7563 10.5611 
0.157013 -19.0842 10.5408 
1.89001 -17.1811 11.5634 
1.87500 -15.5126 11.5432 
1.85901 -13.8441 11.5230 
1.84399 -12.1755 11.5027 
1.82901 -10.5070 11.4825 
1.81299 -8.83850 11.4623 
1.79800 -7.16990 11.4421 
1.78201 -5.50140 11.4219 
1.76700 -3.83290 11.4016 
1.75201 -2.16440 11.3814 
1.73599 -0.495800 11.3612 
1.72101 1.17270 11.3410 
1.70599 2.84120 11.3208 
1.69000 4.50980 11.3006 
1.67499 6.17830 11.2803 
1.65900 7.84680 11.2601 
1.64401 9.51530 11.2399 
1.62900 11.1839 11.2197 
1.61301 12.8524 11.1995 
1.59799 14.5209 11.1792 
1.58301 16.1895 11.1590 
1.56699 17.8580 11.1388 
1.55200 19.5265 11.1186 
1.53601 21.1950 11.0984 
1.52100 22.8636 11.0781 
1.50601 24.5321 11.0579 
1.48999 26.2006 11.0377 
1.47501 27.8692 11.0175 
1.45999 29.5377 10.9973 
1.44400 31.2062 10.9770 
1.42899 32.8747 10.9568 
1.41299 34.5433 10.9366 
1.39801 36.2118 10.9164 
1.38300 37.8803 10.8961 
3.99200 39.7130 12.4423 
3.97699 41.3761 12.4222 
3.96100 43.0393 12.4020 
-1.15201 -39.5705 7.97080 
-1.16800 -37.8930 7.95040 
-1.18301 -36.2156 7.93010 
1.42001 -34.1379 9.47730 
1.40500 -32.4658 9.45710 
1.38901 -30.7937 9.43680 
1.37399 -29.1216 9.41650 
1.35901 -27.4495 9.39630 
1.34299 -25.7774 9.37600 
1.32800 -24.1053 9.35580 
1.31201 -22.4332 9.33550 
1.29700 -20.7611 9.31520 
1.28201 -19.0890 9.29500 
1.26599 -17.4169 9.27470 
1.25101 -15.7448 9.25440 
1.23499 -14.0727 9.23420 
1.22000 -12.4005 9.21390 
1.20499 -10.7284 9.19360 
1.18900 -9.05630 9.17340 
1.17401 -7.38420 9.15310 
2.90500 -5.50610 10.1787 
2.88901 -3.83760 10.1584 
1.12799 -2.36790 9.09230 
1.11200 -0.695801 9.07210 
1.09698 0.976299 9.05180 
1.08099 2.64840 9.03150 
1.06601 4.32050 9.01130 
1.04999 5.99260 8.99100 
1.03500 7.66470 8.97070 
1.01999 9.33680 8.95050 
1.00400 11.0089 8.93020 
0.989014 12.6810 8.91000 
0.972992 14.3531 8.88970 
0.958008 16.0252 8.86940 
0.942993 17.6973 8.84920 
0.927002 19.3694 8.82890 
2.65900 21.1903 9.85510 
2.64301 22.8588 9.83490 
2.62799 24.5274 9.81470 
2.61301 26.1959 9.79450 
2.59698 27.8644 9.77430 
2.58200 29.5330 9.75400 
2.56699 31.2015 9.73380 
2.55099 32.8700 9.71360 
2.53601 34.5385 9.69340 
2.51999 36.2071 9.67320 
2.50500 37.8756 9.65290 
2.48999 39.5441 9.63270 
2.47400 41.2127 9.61250 
5.07999 43.0346 11.1628 
2.44400 44.5497 9.57210 
-1.76700 -39.8528 5.67330 
-0.0390015 -37.8978 6.70060 
-0.0549927 -36.2203 6.68020 
-0.0700073 -34.5429 6.65990 
-0.0859985 -32.8654 6.63960 
-0.101013 -31.1879 6.61930 
-0.117004 -29.5104 6.59890 
-0.131989 -27.8330 6.57860 
-0.147003 -26.1555 6.55830 
2.45300 -24.1100 8.10990 
2.43701 -22.4379 8.08960 
2.42200 -20.7658 8.06940 
2.40601 -19.0937 8.04910 
2.39099 -17.4216 8.02880 
2.37601 -15.7495 8.00860 
2.35999 -14.0774 7.98830 
2.34500 -12.4053 7.96800 
2.32901 -10.7332 7.94780 
2.31400 -9.06110 7.92750 
2.29901 -7.38900 7.90720 
2.28299 -5.71690 7.88700 
2.26801 -4.04480 7.86670 
2.25201 -2.37270 7.84650 
-0.378998 -0.993401 6.25330 
-0.394989 0.684000 6.23300 
-0.410004 2.36150 6.21270 
-0.425995 4.03900 6.19240 
-0.441010 5.71640 6.17200 
-0.457001 7.39390 6.15170 
-0.471985 9.07140 6.13140 
-0.488007 10.7488 6.11100 
-0.502991 12.4263 6.09070 
2.09799 14.3484 7.64380 
2.08301 16.0205 7.62360 
2.06699 17.6926 7.60330 
2.05200 19.3647 7.58300 
2.03699 21.0368 7.56280 
2.02100 22.7089 7.54250 
2.00601 24.3810 7.52220 
1.98999 26.0531 7.50200 
1.97501 27.7252 7.48170 
1.95999 29.3973 7.46140 
1.94400 31.0695 7.44120 
1.92899 32.7416 7.42090 
1.91299 34.4137 7.40070 
1.89801 36.0858 7.38040 
1.88300 37.7579 7.36010 
1.86700 39.4300 7.33990 
1.85199 41.1021 7.31960 
3.58099 42.8765 8.34910 
1.82101 44.4463 7.27910 
-0.635986 -39.8576 4.42080 
-0.652008 -38.1765 4.40040 
1.07401 -36.2251 5.43040 
1.05801 -34.5476 5.41000 
1.04300 -32.8701 5.38970 
1.02701 -31.1927 5.36940 
1.01199 -29.5152 5.34910 
0.996002 -27.8377 5.32870 
0.980988 -26.1602 5.30840 
0.966003 -24.4828 5.28810 
0.950012 -22.8053 5.26770 
0.934998 -21.1278 5.24740 
0.919006 -19.4504 5.22710 
0.903992 -17.7729 5.20680 
0.888000 -16.0954 5.18640 
0.872986 -14.4180 5.16610 
0.856995 -12.7405 5.14580 
0.842010 -11.0630 5.12540 
0.825989 -9.38560 5.10510 
0.811005 -7.70810 5.08480 
0.795013 -6.03060 5.06450 
0.779999 -4.35310 5.04410 
0.765015 -2.67570 5.02380 
0.748993 -0.998199 5.00350 
0.734009 0.679300 4.98310 
0.717987 2.35670 4.96280 
0.703003 4.03420 4.94250 
0.687012 5.71170 4.92220 
0.671997 7.38910 4.90180 
0.656006 9.06660 4.88150 
0.640991 10.7441 4.86120 
0.625000 12.4216 4.84080 
0.609985 14.0990 4.82050 
0.595001 15.7765 4.80020 
3.19199 17.6879 6.35740 
3.17700 19.3600 6.33720 
3.16101 21.0321 6.31690 
3.14600 22.7042 6.29660 
3.13101 24.3763 6.27640 
3.11499 26.0484 6.25610 
3.10001 27.7205 6.23580 
3.08401 29.3926 6.21560 
3.06900 31.0647 6.19530 
3.05399 32.7368 6.17510 
3.03799 34.4089 6.15480 
3.02301 36.0810 6.13450 
3.00699 37.7531 6.11430 
2.99200 39.4252 6.09400 
2.97699 41.0974 6.07370 
2.96100 42.7695 6.05350 
2.94601 44.4416 6.03320 
-4.70599 -42.3868 0.0299988 
-2.11301 -40.2787 1.58890 
0.479004 -38.1813 3.14780 
0.463013 -36.5002 3.12750 
0.447998 -34.8192 3.10710 
2.17099 -32.8749 4.13980 
2.15601 -31.1974 4.11950 
2.14001 -29.5199 4.09920 
2.12500 -27.8425 4.07890 
2.10901 -26.1650 4.05850 
2.09399 -24.4875 4.03820 
2.07800 -22.8101 4.01790 
2.06299 -21.1326 3.99750 
2.04800 -19.4551 3.97720 
2.03201 -17.7776 3.95690 
2.01700 -16.1002 3.93660 
2.00101 -14.4227 3.91620 
1.98599 -12.7452 3.89590 
1.97000 -11.0678 3.87560 
1.95499 -9.39030 3.85520 
1.93900 -7.71280 3.83490 
1.92401 -6.03540 3.81460 
1.90799 -4.35790 3.79430 
1.89301 -2.68040 3.77390 
1.87799 -1.00290 3.75360 
0.122986 0.482800 2.67930 
0.106995 2.16390 2.65890 
0.0920105 3.84490 2.63860 
0.0759888 5.52590 2.61820 
1.79999 7.38440 3.65200 
1.78500 9.06190 3.63160 
1.76901 10.7393 3.61130 
1.75400 12.4168 3.59100 
1.73801 14.0943 3.57060 
1.72299 15.7718 3.55030 
1.70700 17.4492 3.53000 
4.30200 19.3552 5.09130 
4.28601 21.0274 5.07100 
4.27100 22.6995 5.05080 
4.25500 24.3716 5.03050 
4.23999 26.0437 5.01020 
4.22501 27.7158 4.99000 
4.20901 29.3879 4.96970 
4.19400 31.0600 4.94940 
4.17801 32.7321 4.92920 
4.16299 34.4042 4.90890 
1.53699 35.9014 3.30640 
1.52200 37.5789 3.28610 
1.50699 39.2563 3.26570 
1.49100 40.9338 3.24540 
4.08600 42.7647 4.80760 
1.45999 44.2887 3.20470 
-5.28799 -44.3681 -2.26560 
-3.56799 -42.3916 -1.23050 
-0.979004 -40.2834 0.332298 
-0.994995 -38.5970 0.311901 
1.59399 -36.5050 1.87490 
1.57901 -34.8239 1.85460 
1.56299 -33.1429 1.83420 
1.54800 -31.4618 1.81380 
1.53201 -29.7808 1.79350 
1.51700 -28.0998 1.77310 
1.50101 -26.4187 1.75270 
1.48599 -24.7377 1.73230 
1.47000 -23.0566 1.71200 
1.45499 -21.3756 1.69160 
1.43900 -19.6945 1.67120 
1.42401 -18.0135 1.65090 
1.40799 -16.3324 1.63050 
1.39301 -14.6514 1.61010 
1.37701 -12.9703 1.58970 
1.36200 -11.2893 1.56940 
1.34601 -9.60820 1.54900 
1.33099 -7.92720 1.52860 
1.31500 -6.24610 1.50830 
1.29999 -4.56510 1.48790 
1.28400 -2.88410 1.46750 
1.26901 -1.20300 1.44710 
1.25299 0.478001 1.42680 
1.23801 2.15910 1.40640 
1.22198 3.84010 1.38600 
1.20700 5.52120 1.36570 
1.19101 7.20220 1.34530 
1.17599 8.88330 1.32490 
1.16000 10.5643 1.30450 
1.14499 12.2454 1.28420 
1.13000 13.9264 1.26380 
2.85101 15.7670 2.30050 
2.83600 17.4445 2.28010 
2.82001 19.1219 2.25980 
2.80499 20.7994 2.23950 
5.39600 22.6947 3.80490 
5.38000 24.3668 3.78460 
2.75900 25.8318 2.17850 
2.74301 27.5093 2.15820 
2.72800 29.1868 2.13780 
2.71201 30.8642 2.11750 
2.69699 32.5417 2.09720 
2.68100 34.2192 2.07680 
2.66599 35.8966 2.05650 
2.64999 37.5741 2.03620 
2.63501 39.2516 2.01590 
2.61899 40.9290 1.99550 
2.60400 42.6065 1.97520 
0.851013 44.1853 0.897099 
-2.42999 -42.3963 -2.49110 
-2.44501 -40.7046 -2.51160 
0.140015 -38.6018 -0.944599 
0.123993 -36.9154 -0.965099 
0.109009 -35.2290 -0.985500 
2.69400 -33.1477 0.581699 
2.67899 -31.4666 0.561298 
2.66299 -29.7855 0.540901 
2.64801 -28.1045 0.520599 
2.63199 -26.4235 0.500198 
2.61700 -24.7424 0.479801 
0.00000 -23.4241 -1.12850 
-0.0159912 -21.7377 -1.14900 
2.57001 -19.6993 0.418701 
2.55499 -18.0182 0.398300 
2.53900 -16.3372 0.377998 
2.52399 -14.6561 0.357601 
2.50800 -12.9751 0.337200 
2.49301 -11.2940 0.316799 
2.47699 -9.61300 0.296501 
2.46201 -7.93190 0.276100 
2.44601 -6.25090 0.255699 
2.43100 -4.56990 0.235401 
2.41501 -2.88880 0.215000 
2.39999 -1.20780 0.194599 
2.38400 0.473301 0.174198 
2.36899 2.15430 0.153900 
2.35300 3.83540 0.133499 
2.33801 5.51640 0.113098 
2.32199 7.19750 0.0928001 
2.30701 8.87850 0.0723991 
2.29099 10.5596 0.0519981 
2.27600 12.2406 0.0316010 
2.26001 13.9217 0.0112991 
2.24500 15.6027 -0.00910187 
2.22900 17.2838 -0.0294991 
3.94901 19.1172 1.00990 
3.93301 20.7947 0.989601 
3.91800 22.4721 0.969299 
3.90201 24.1496 0.948898 
3.88699 25.8271 0.928600 
3.87201 27.5045 0.908298 
3.85599 29.1820 0.888000 
3.84100 30.8595 0.867599 
3.82501 32.5370 0.847301 
3.81000 34.2144 0.827000 
3.79401 35.8919 0.806599 
3.77899 37.5694 0.786301 
3.76300 39.2468 0.765999 
3.74799 40.9243 0.745701 
1.99701 42.4995 -0.335098 
1.25900 -36.9201 -2.22160 
1.24301 -35.2337 -2.24200 
1.22800 -33.5473 -2.26250 
1.21201 -31.8609 -2.28290 
1.19699 -30.1745 -2.30330 
1.18100 -28.4881 -2.32380 
1.16501 -26.8017 -2.34420 
1.14999 -25.1153 -2.36470 
1.13400 -23.4289 -2.38510 
1.11899 -21.7424 -2.40550 
1.10300 -20.0560 -2.42600 
1.08801 -18.3696 -2.44640 
1.07199 -16.6832 -2.46680 
1.05701 -14.9968 -2.48730 
1.04099 -13.3104 -2.50770 
1.02600 -11.6240 -2.52810 
1.01001 -9.93760 -2.54860 
3.35999 17.2790 -1.28200 
3.34500 18.9600 -1.30240 
3.32901 20.6411 -1.32280 
3.31400 22.3221 -1.34310 
3.29800 24.0032 -1.36350 
5.01501 25.8223 -0.321201 
5.00000 27.4998 -0.341599 
4.98401 29.1773 -0.361900 
3.23599 30.7274 -1.44500 
3.22101 32.4084 -1.46540 
3.20499 34.0895 -1.48570 
3.19000 35.7705 -1.50610 
3.17401 37.4516 -1.52650 
3.15900 39.1326 -1.54680 
3.14301 40.8136 -1.56720 
