# .PCD v0.7 - Point Cloud Data file format
VERSION 0.7
FIELDS x y z
SIZE 4 4 4
TYPE F F F
COUNT 1 1 1
WIDTH 1415
HEIGHT 1
VIEWPOINT 0 0 0 1 0 0 0
POINTS 1415
DATA ascii
0.57849151 0.16308585 0.040641461
0.57851511 0.16386148 0.040636733
0.57853866 0.1646371 0.04063201
0.57856226 0.16541271 0.040627282
0.57779503 0.16648598 0.040018767
0.57781863 0.16726321 0.040014032
0.57705158 0.16834123 0.03940551
0.57707524 0.16912004 0.039400764
0.54434466 0.10100657 0.015688397
0.54437023 0.10184749 0.015683273
0.54518992 0.10253415 0.016282277
0.54521543 0.10337348 0.016277162
0.54603499 0.10405536 0.016876195
0.54606044 0.1048931 0.016871089
0.54687983 0.1055702 0.017470151
0.54690528 0.10640635 0.017465055
0.54772449 0.10707869 0.018064147
0.54774988 0.10791323 0.018059062
0.54856902 0.10858078 0.018658217
0.54859436 0.10941373 0.018653139
0.54941332 0.1100765 0.019252289
0.5494386 0.11090787 0.019247225
0.55025738 0.11156587 0.0198464
0.5502826 0.11239564 0.019841345
0.55110127 0.11304885 0.020440552
0.55191988 0.11369888 0.021039778
0.55194497 0.11452547 0.021034742
0.55276346 0.11517072 0.021634033
0.55278856 0.11599571 0.021629006
0.55360681 0.11663619 0.022228291
0.554425 0.11727347 0.022827595
0.55444998 0.11809529 0.022822587
0.55526805 0.1187278 0.023421921
0.55529296 0.11954802 0.023416921
0.55611092 0.12017574 0.024016321
0.55613583 0.12099436 0.024011333
0.55695355 0.12161732 0.024610724
0.5569784 0.12243435 0.024605745
0.557796 0.12305253 0.025205165
0.5578208 0.12386797 0.025200196
0.55863827 0.12448137 0.025799647
0.55866301 0.12529522 0.025794687
0.55948031 0.12590384 0.026394166
0.55950499 0.12671609 0.026389217
0.55952966 0.12752834 0.026384266
0.56034684 0.12813058 0.02698382
0.5611639 0.12872966 0.027583357
0.56118846 0.12953873 0.027578427
0.56200534 0.13013302 0.028177993
0.5620299 0.13094048 0.028173072
0.56284666 0.13153 0.028772669
0.5628711 0.13233589 0.028767757
0.56368774 0.13292061 0.029367417
0.56371224 0.13372488 0.029362516
0.56452864 0.13430485 0.029962171
0.56455308 0.13510755 0.02995728
0.56536937 0.13568272 0.03055696
0.56539369 0.13648383 0.030552078
0.56541806 0.13728493 0.030547198
0.56623417 0.13785374 0.031146919
0.56625849 0.13865325 0.031142047
0.56707442 0.13921729 0.031741798
0.56709868 0.14001521 0.031736936
0.56791455 0.14057444 0.032336753
0.56793875 0.14137077 0.032331899
0.56875443 0.14192525 0.032931708
0.56957 0.14247653 0.033531535
0.56959409 0.14326967 0.033526704
0.56961823 0.14406282 0.033521868
0.57043362 0.14460772 0.034121756
0.57124889 0.14514945 0.034721643
0.57127291 0.14593941 0.034716826
0.57129693 0.14672936 0.034712013
0.57211202 0.14726473 0.035311937
0.57213598 0.14805309 0.035307135
0.57295096 0.14858367 0.035907105
0.57297486 0.14937043 0.03590231
0.57378966 0.14989625 0.036502294
0.5738135 0.15068142 0.036497511
0.57462817 0.15120244 0.037097543
0.57465202 0.15198603 0.037092768
0.57546651 0.15250227 0.037692808
0.5754903 0.15328428 0.037688043
0.57630467 0.15379575 0.038288131
0.57711893 0.15430403 0.038888223
0.5771426 0.15508282 0.038883477
0.57716632 0.15586165 0.038878731
0.5779804 0.15636356 0.039478861
0.578004 0.15714078 0.039474126
0.57881796 0.15763789 0.0400743
0.57884151 0.15841353 0.040069573
0.57886511 0.15918913 0.040064849
0.57888865 0.15996476 0.040060122
0.57891226 0.16074038 0.040055394
0.5789358 0.16151601 0.040050667
0.57895941 0.16229163 0.040045943
0.57898295 0.16306725 0.040041216
0.57900655 0.16384289 0.040036488
0.57824022 0.16491292 0.039426763
0.57826388 0.16569014 0.039422028
0.57828748 0.16646735 0.039417289
0.57752138 0.16754375 0.038807545
0.57754505 0.16832256 0.038802799
0.57756871 0.16910137 0.038798053
0.54408425 0.10113745 0.014432241
0.54490304 0.10182733 0.015032494
0.54572177 0.10251403 0.01563273
0.54574728 0.10335336 0.015627615
0.54577279 0.10419268 0.0156225
0.54659128 0.10487302 0.016222775
0.54661673 0.10571074 0.016217669
0.54743505 0.1063863 0.016817974
0.5474605 0.10722245 0.016812878
0.54827869 0.10789322 0.017413212
0.54830402 0.10872778 0.017408125
0.54912215 0.10939376 0.018008525
0.54914743 0.11022672 0.018003449
0.54996538 0.11088793 0.018603839
0.54999065 0.1117193 0.018598773
0.55080837 0.11237574 0.019199193
0.55083358 0.11320551 0.019194137
0.55165124 0.11385718 0.019794587
0.55246872 0.11450566 0.020395055
0.55249387 0.11533225 0.020390019
0.55331129 0.11597593 0.020990552
0.55333638 0.11680093 0.020985525
0.55415362 0.11743984 0.021586051
0.5541786 0.11826324 0.021581033
0.55499572 0.11889739 0.022181591
0.55581272 0.11952835 0.022782166
0.55583763 0.12034857 0.022777168
0.55665451 0.12097473 0.023377808
0.55667937 0.12179336 0.02337282
0.55749607 0.12241476 0.023973454
0.55752093 0.1232318 0.023968475
0.55833745 0.12384842 0.024569137
0.55836225 0.12466386 0.024564167
0.55917865 0.1252757 0.025164859
0.55920339 0.12608956 0.025159901
0.56001967 0.12669662 0.025760623
0.56004435 0.12750886 0.025755672
0.56006902 0.12832113 0.025750723
0.56088513 0.12892182 0.026351519
0.56170112 0.12951933 0.026952298
0.56172574 0.1303284 0.026947368
0.56254154 0.13092113 0.027548175
0.5625661 0.1317286 0.027543256
0.56338173 0.13231656 0.028144093
0.56340623 0.13312244 0.028139181
0.56422186 0.1337056 0.028740086
0.5642463 0.13450991 0.028735183
0.56506169 0.13508831 0.02933608
0.56508607 0.13589101 0.029331189
0.56590128 0.13646463 0.029932113
0.56592566 0.13726573 0.029927231
0.56595004 0.13806684 0.029922349
0.56676507 0.13863409 0.030523313
0.56678933 0.13943359 0.030518441
0.56760424 0.13999608 0.031119434
0.5676285 0.14079399 0.031114571
0.5684433 0.14135167 0.031715631
0.5684675 0.142148 0.031710777
0.56928211 0.14270093 0.032311827
0.57009667 0.14325066 0.032912899
0.57012075 0.1440438 0.032908067
0.57014489 0.14483693 0.032903232
0.57095921 0.14538029 0.033504359
0.57177347 0.14592047 0.034105491
0.57179743 0.14671043 0.034100674
0.57182145 0.14750038 0.034095861
0.57263547 0.14803419 0.03469703
0.57265949 0.14882255 0.034692224
0.57347339 0.14935157 0.035293438
0.5734973 0.15013835 0.035288643
0.57431102 0.1506626 0.035889871
0.57433492 0.15144777 0.035885084
0.57514852 0.15196724 0.036486357
0.57517236 0.15275083 0.036481585
0.57598579 0.15326552 0.03708287
0.57600957 0.15404752 0.037078101
0.57682288 0.15455742 0.037679434
0.57763612 0.15506415 0.038280766
0.57765979 0.15584297 0.03827602
0.57768345 0.15662178 0.038271274
0.57849646 0.15712214 0.038872644
0.57852006 0.15789935 0.038867909
0.57854372 0.15867658 0.038863175
0.57935655 0.15917054 0.0394646
0.57938015 0.15994616 0.039459877
0.5794037 0.16072178 0.039455149
0.5794273 0.16149741 0.039450422
0.57945085 0.16227303 0.039445695
0.57868546 0.16333985 0.038834758
0.57870907 0.16411708 0.03883002
0.57873267 0.16489428 0.038825285
0.57796752 0.16596746 0.038214322
0.57799119 0.16674627 0.03820958
0.57722616 0.16782424 0.037598588
0.57724988 0.16860464 0.037593834
0.57648492 0.16968739 0.036982797
0.52705598 0.10005147 0.0004622087
0.54380023 0.10042414 0.013178798
0.54461807 0.10111725 0.013780227
0.54543591 0.10180717 0.014381713
0.54546148 0.10264809 0.014376588
0.54627907 0.10333323 0.014978066
0.54630458 0.10417257 0.014972951
0.54633009 0.10501189 0.014967836
0.54714751 0.10569067 0.015569354
0.54717302 0.10652841 0.015564249
0.54799026 0.1072024 0.016165795
0.54801571 0.10803854 0.016160699
0.54883283 0.10870776 0.016762275
0.54885823 0.10954232 0.01675719
0.54967523 0.11020675 0.01735883
0.54970056 0.11103971 0.017353753
0.55051738 0.11169937 0.017955387
0.55054265 0.11253074 0.017950321
0.55135936 0.11318562 0.018551983
0.552176 0.11383732 0.019153666
0.55220115 0.1146655 0.01914862
0.55301762 0.11531243 0.019750329
0.55304277 0.11613901 0.019745292
0.55385911 0.11678115 0.020347068
0.55388421 0.11760614 0.020342041
0.55470037 0.11824351 0.020943811
0.55472535 0.11906692 0.020938793
0.5555414 0.1196995 0.021540591
0.55635732 0.1203289 0.022142408
0.55638224 0.12114912 0.022137411
0.55640721 0.12196934 0.022132413
0.55722296 0.12259235 0.022734305
0.55724788 0.12341098 0.022729317
0.55806345 0.12402924 0.023331203
0.55887896 0.12464431 0.023933107
0.55890375 0.12545975 0.023928137
0.55971909 0.12607004 0.024530074
0.55974382 0.12688388 0.024525113
0.56055903 0.12748939 0.025127076
0.56058371 0.12830165 0.025122127
0.5613988 0.12890238 0.025724156
0.56142342 0.12971304 0.025719216
0.56223834 0.130309 0.026321236
0.56226295 0.13111806 0.026316307
0.56307769 0.13170925 0.026918357
0.56310225 0.13251671 0.026913438
0.56391686 0.13310312 0.027515516
0.56394136 0.133909 0.027510606
0.56475592 0.13449062 0.028112752
0.56478035 0.13529491 0.02810785
0.56559467 0.13587175 0.028709987
0.56561905 0.13667445 0.028705096
0.56643325 0.13724652 0.029307265
0.56645763 0.13804764 0.029302383
0.56648195 0.13884872 0.029297501
0.56729597 0.13941443 0.029899705
0.56732023 0.14021395 0.029894834
0.56813407 0.14077486 0.03049707
0.56815833 0.14157279 0.030492207
0.56897211 0.14212891 0.031094508
0.56899631 0.14292523 0.031089654
0.56980985 0.14347661 0.03169195
0.57062334 0.14402477 0.032294262
0.57064742 0.14481792 0.032289427
0.57146078 0.14536132 0.032891788
0.5714848 0.14615287 0.032886963
0.57229799 0.14669149 0.033489335
0.57232201 0.14748144 0.033484522
0.57234603 0.1482714 0.033479705
0.57315898 0.14880365 0.034082118
0.57318294 0.14959201 0.034077313
0.57399583 0.15011948 0.03467977
0.57401973 0.15090626 0.034674976
0.57483238 0.15142895 0.035277441
0.57485628 0.15221414 0.035272658
0.57566881 0.15273204 0.035875175
0.57569265 0.15351564 0.035870399
0.57650506 0.15402877 0.036472924
0.57652879 0.15481076 0.036468159
0.57734108 0.15531911 0.037070733
0.57815325 0.1558243 0.037673309
0.57817692 0.15660311 0.037668563
0.57820058 0.15738192 0.037663817
0.57822424 0.1581607 0.037659071
0.57903618 0.15865794 0.038261693
0.57905978 0.15943514 0.038256958
0.57908344 0.16021235 0.038252223
0.57910705 0.16098957 0.038247485
0.57913065 0.1617668 0.03824275
0.57915431 0.16254401 0.038238015
0.57917792 0.16332121 0.038233276
0.57841367 0.16439119 0.037621103
0.57843733 0.16516998 0.037616357
0.57846099 0.16594879 0.037611611
0.57769692 0.16702512 0.036999401
0.57693291 0.16810465 0.036387149
0.57695663 0.16888665 0.036382385
0.57698041 0.16966863 0.03637762
0.57621664 0.17075452 0.03576535
0.52679378 0.09929429 -0.00081935653
0.54351813 0.099707574 0.01192291
0.54433507 0.1004039 0.012525553
0.54515195 0.10109705 0.013128215
0.54517752 0.10193957 0.013123081
0.54599428 0.10262793 0.013725809
0.54601985 0.10346885 0.013720685
0.54683644 0.10415244 0.014323405
0.54686195 0.10499177 0.01431829
0.54688746 0.10583109 0.014313175
0.5477038 0.10650832 0.014915935
0.54772925 0.10734606 0.014910829
0.54854548 0.1080185 0.015513618
0.54857093 0.10885464 0.015508522
0.54938698 0.10952231 0.01611134
0.54941237 0.11035686 0.016106255
0.55022836 0.11101974 0.016709136
0.55025363 0.1118527 0.01670406
0.55106944 0.11251081 0.017306935
0.55188513 0.11316573 0.01790983
0.55191034 0.1139955 0.017904775
0.55272591 0.11464565 0.018507699
0.55275106 0.11547383 0.018502653
0.55356652 0.1161192 0.019105606
0.55359161 0.11694578 0.019100567
0.55440694 0.11758636 0.019703588
0.55443197 0.11841135 0.01969856
0.55524713 0.11904717 0.020301571
0.55527216 0.11987057 0.020296553
0.55608708 0.12050161 0.020899594
0.55611211 0.12132341 0.020894587
0.55692691 0.12194967 0.021497656
0.55695182 0.12276988 0.021492658
0.55776656 0.12339135 0.022095794
0.55779141 0.12420998 0.022090804
0.55860597 0.12482668 0.022693932
0.55863082 0.12564372 0.022688953
0.5594452 0.12625563 0.023292111
0.56025946 0.12686437 0.023895288
0.5602842 0.12767822 0.023890328
0.56109834 0.12828217 0.024493534
0.56112307 0.12909444 0.024488583
0.56193709 0.1296936 0.025091855
0.56196171 0.13050427 0.025086915
0.56277561 0.13109867 0.025690179
0.56280017 0.13190775 0.025685249
0.56361389 0.13249736 0.026288539
0.56363845 0.13330483 0.02628362
0.56445199 0.13388968 0.026886942
0.56447649 0.13469556 0.02688203
0.56528997 0.13527563 0.027485419
0.56531441 0.13607991 0.027480517
0.56612766 0.13665521 0.028083898
0.5661521 0.13745791 0.028079007
0.56696522 0.13802843 0.028682416
0.56698954 0.13882951 0.028677534
0.56701392 0.13963063 0.028672652
0.56782687 0.14019477 0.029276101
0.56785113 0.14099428 0.029271228
0.56866395 0.14155366 0.029874705
0.56868821 0.14235157 0.029869843
0.56950086 0.14290614 0.030473387
0.56952506 0.14370246 0.030468533
0.57033759 0.14425229 0.031072069
0.57115 0.1447989 0.031675626
0.57117409 0.14559205 0.03167079
0.57198638 0.14613388 0.032274392
0.57201046 0.14692543 0.032269567
0.57282257 0.1474625 0.032873183
0.57284653 0.14825246 0.032868367
0.57287055 0.14904243 0.032863554
0.57368249 0.14957312 0.033467207
0.57370645 0.15036148 0.033462401
0.57451826 0.1508874 0.034066103
0.57454216 0.15167417 0.034061309
0.5753538 0.1521953 0.034665018
0.57616532 0.15271325 0.035268765
0.57618916 0.15349685 0.035263989
0.57700056 0.15401003 0.035867751
0.57702428 0.15479201 0.035862986
0.57704806 0.15557399 0.035858218
0.57785928 0.15608081 0.036462035
0.57788301 0.15686122 0.036457278
0.57869405 0.15736324 0.037061106
0.57871771 0.15814203 0.03705636
0.57874143 0.15892085 0.037051614
0.57876509 0.15969966 0.037046868
0.57878876 0.16047847 0.037042122
0.57881242 0.16125727 0.037037376
0.57883608 0.16203609 0.03703263
0.57885975 0.1628149 0.037027884
0.57888341 0.16359371 0.037023138
0.57890713 0.1643725 0.037018392
0.57814395 0.16544561 0.036404967
0.57816768 0.16622601 0.03640021
0.57740462 0.1673039 0.03578674
0.5774284 0.1680859 0.035781976
0.57666552 0.16916856 0.035168491
0.5766893 0.16995214 0.035163715
0.57592654 0.1710396 0.034550186
0.54165721 0.099280037 0.0094465232
0.54326367 0.099835031 0.010659413
0.54407966 0.100533 0.01126328
0.54489559 0.10122777 0.011867165
0.54571134 0.10191937 0.01247107
0.54573697 0.10276188 0.012465935
0.54655266 0.10344869 0.013069904
0.54657823 0.10428961 0.01306478
0.54739374 0.10497165 0.013668742
0.54741925 0.10581097 0.013663627
0.54744476 0.1066503 0.013658512
0.54826009 0.10732597 0.014262515
0.54828554 0.1081637 0.01425741
0.5491007 0.10883459 0.01486144
0.54912615 0.10967074 0.014856345
0.54994112 0.11033686 0.015460405
0.54996651 0.11117139 0.01545532
0.55078143 0.11183272 0.016059443
0.55159622 0.11249087 0.016663551
0.5516215 0.11332224 0.016658485
0.55243611 0.11397561 0.017262623
0.55246133 0.11480537 0.017257567
0.55327582 0.11545397 0.017861733
0.55330104 0.11628215 0.017856685
0.55411536 0.11692596 0.018460883
0.55414051 0.11775254 0.018455846
0.55495471 0.11839157 0.019060105
0.5549798 0.11921658 0.019055078
0.55579388 0.11985083 0.019659331
0.55581892 0.12067423 0.019654313
0.55663282 0.12130371 0.020258598
0.55665779 0.12212552 0.020253589
0.55747157 0.12275022 0.0208579
0.55749649 0.12357044 0.020852903
0.55831015 0.12419035 0.021457279
0.55833501 0.12500897 0.021452291
0.55914849 0.12562414 0.022056662
0.55917335 0.12644115 0.022051683
0.55998665 0.12705153 0.022656081
0.5607999 0.12765871 0.023260502
0.56082463 0.12847255 0.023255542
0.5616377 0.12907496 0.023859989
0.56166244 0.12988721 0.02385504
0.56247538 0.13048483 0.024459552
0.56250006 0.13129549 0.024454612
0.56331283 0.13188834 0.025059119
0.56333745 0.1326974 0.025054188
0.56415009 0.13328548 0.025658723
0.56417459 0.13409294 0.025653804
0.56498712 0.13467625 0.026258368
0.56501162 0.13548213 0.026253456
0.56582403 0.13606063 0.026858086
0.56584847 0.13686493 0.026853185
0.5666607 0.13743865 0.027457807
0.56668508 0.13824137 0.027452916
0.56749713 0.13881031 0.028057568
0.56752151 0.13961142 0.028052686
0.56754583 0.14041252 0.028047804
0.56835777 0.14097512 0.028652495
0.56838202 0.14177462 0.028647622
0.56919378 0.14233243 0.029252343
0.56921804 0.14313036 0.02924748
0.57002968 0.14368337 0.029852265
0.57005388 0.14447971 0.029847411
0.57086527 0.14502797 0.03045219
0.57167667 0.14557303 0.031056987
0.57170075 0.14636618 0.031052154
0.57251197 0.14690645 0.031656999
0.57253605 0.14769801 0.031652175
0.57334709 0.14823352 0.032257032
0.57337111 0.14902349 0.032252215
0.57339513 0.14981343 0.032247402
0.57420599 0.15034258 0.032852296
0.57422996 0.15113094 0.032847494
0.5750407 0.1516553 0.033452433
0.5750646 0.15244207 0.033447638
0.57587516 0.15296166 0.034052592
0.57668567 0.15347806 0.034657583
0.57670945 0.15426165 0.034652807
0.57751977 0.15477327 0.035257809
0.57754356 0.15555525 0.035253044
0.57756734 0.15633726 0.035248276
0.57837749 0.1568425 0.035853337
0.57840121 0.15762289 0.03584858
0.57921118 0.15812336 0.036453649
0.5792349 0.15890218 0.036448903
0.57925856 0.15968099 0.036444157
0.57928222 0.1604598 0.036439411
0.57930589 0.1612386 0.036434665
0.57932955 0.16201742 0.036429919
0.57935321 0.16279623 0.036425173
0.57859099 0.1638661 0.035810538
0.57861471 0.16464651 0.03580578
0.57785255 0.16572118 0.035191096
0.57787633 0.16650316 0.035186328
0.57711434 0.1675826 0.034571633
0.57713819 0.16836619 0.034566857
0.57637632 0.16945042 0.033952113
0.57561463 0.1705378 0.03333737
0.57563853 0.17132458 0.033332575
0.57566243 0.17211136 0.033327781
0.53980213 0.09884271 0.0069628335
0.54219609 0.099259645 0.0087883482
0.54301125 0.099962421 0.0093934173
0.54461551 0.10051272 0.010608802
0.54543042 0.10120753 0.011213919
0.54545605 0.10205165 0.011208775
0.54627079 0.10274168 0.011813922
0.54629642 0.10358419 0.011808788
0.54711103 0.10426944 0.012414
0.5471366 0.10511037 0.012408876
0.5479511 0.10579085 0.013014081
0.54797661 0.10663018 0.013008966
0.54800212 0.10746951 0.013003851
0.54881638 0.10814361 0.013609095
0.54884183 0.10898136 0.01360399
0.54965591 0.10965069 0.014209263
0.54968137 0.11048684 0.014204168
0.55049533 0.11115138 0.014809469
0.55052066 0.11198594 0.014804383
0.55133456 0.11264571 0.015409751
0.55214828 0.1133023 0.016015101
0.55217355 0.11413367 0.016010035
0.5529871 0.11478548 0.016615415
0.55301231 0.11561526 0.016610358
0.5538258 0.11626229 0.017215766
0.55385095 0.11709047 0.01721072
0.55466425 0.11773273 0.017816158
0.55468935 0.11855932 0.017811121
0.55550253 0.11919679 0.018416625
0.55552763 0.12002179 0.018411597
0.55634063 0.12065449 0.019017091
0.55636567 0.12147789 0.019012075
0.5571785 0.12210581 0.019617599
0.55720347 0.12292762 0.019612592
0.55801618 0.12355078 0.020218145
0.5580411 0.124371 0.020213148
0.55885375 0.12498935 0.020818768
0.5588786 0.12580799 0.02081378
0.55969101 0.12642157 0.021419391
0.55971587 0.1272386 0.021414412
0.56052816 0.1278474 0.022020055
0.56134033 0.12845305 0.022625716
0.56136507 0.12926689 0.022620756
0.56217706 0.12986773 0.023226446
0.56220174 0.13067999 0.023221495
0.56301367 0.13127604 0.023827251
0.56303835 0.13208671 0.023822311
0.56385005 0.13267802 0.02442806
0.56387466 0.13348708 0.02442313
0.56468624 0.13407359 0.025028907
0.5647108 0.13488106 0.025023986
0.56552225 0.13546282 0.025629792
0.56554675 0.13626869 0.025624882
0.56635809 0.13684565 0.026230754
0.56638253 0.13764992 0.026225854
0.56719369 0.13822211 0.026831718
0.56721812 0.13902481 0.026826827
0.56802911 0.13959222 0.027432719
0.56805348 0.14039332 0.027427837
0.5680778 0.14119442 0.027422955
0.5688886 0.14175546 0.028028889
0.56891292 0.14255497 0.028024016
0.56972361 0.14311123 0.028629979
0.56974787 0.14390914 0.028625116
0.57055843 0.14446062 0.029231144
0.57136887 0.14500891 0.029837154
0.57139301 0.14580365 0.029832311
0.57220334 0.14634717 0.030438351
0.57222742 0.14714029 0.030433517
0.57303756 0.14767903 0.031039603
0.57306165 0.14847058 0.031034781
0.57387161 0.14900455 0.03164088
0.57389563 0.14979449 0.031636063
0.57391965 0.15058446 0.03163125
0.57472944 0.15111205 0.032237388
0.57553917 0.15163644 0.03284356
0.57556313 0.1524232 0.032838766
0.57558703 0.15320997 0.032833971
0.57639652 0.15372802 0.033440165
0.57720596 0.15424286 0.0340464
0.5772298 0.15502644 0.034041625
0.57803905 0.1555365 0.034647867
0.57806283 0.1563185 0.034643102
0.57808661 0.1571005 0.034638338
0.57889569 0.15760419 0.035244636
0.57891941 0.15838458 0.035239883
0.57894313 0.15916499 0.035235126
0.57896686 0.15994538 0.035230372
0.57899058 0.16072579 0.035225615
0.5790143 0.16150619 0.035220858
0.57903802 0.16228659 0.035216104
0.57906175 0.163067 0.035211347
0.57830054 0.16413842 0.034595449
0.57832426 0.16492043 0.034590684
0.57756323 0.16599666 0.033974774
0.57758707 0.16678022 0.033969998
0.5768261 0.16786122 0.033354044
0.57685 0.16864643 0.033349257
0.5760892 0.16973218 0.032733291
0.5761131 0.17051893 0.032728497
0.57613707 0.17130572 0.032723702
0.57537645 0.17239787 0.032107677
0.57540041 0.17318623 0.032102872
0.53795278 0.098395593 0.0044717719
0.54034406 0.098822199 0.0063009611
0.54194665 0.099385314 0.0075186971
0.54354912 0.099942073 0.0087364735
0.54436314 0.1006417 0.0093428297
0.5451771 0.10133815 0.009949171
0.54520279 0.10218385 0.009944018
0.54601657 0.10287551 0.010550386
0.54683024 0.10356399 0.011156775
0.54685587 0.10440651 0.011151641
0.54766947 0.10509021 0.011758097
0.54769504 0.10593113 0.011752971
0.54850841 0.10661006 0.012359418
0.54853392 0.10744939 0.012354303
0.54855943 0.10828872 0.012349189
0.54937261 0.10896128 0.012955674
0.54939806 0.10979901 0.012950569
0.55021113 0.11046679 0.013557085
0.55023658 0.11130293 0.013551991
0.55104947 0.11196593 0.014158534
0.5518623 0.11262574 0.014765133
0.55188763 0.11345869 0.014760057
0.55270034 0.11411374 0.01536665
0.55272555 0.1149451 0.015361584
0.55353808 0.11559537 0.015968205
0.5535633 0.11642513 0.01596315
0.55437571 0.11707062 0.016569799
0.55440086 0.1178988 0.016564753
0.55521309 0.1185395 0.017171433
0.55523825 0.11936609 0.017166397
0.55605036 0.12000201 0.017773142
0.55607545 0.120827 0.017768115
0.55688739 0.12145815 0.018374853
0.55691242 0.12228156 0.018369835
0.55693746 0.12310496 0.018364817
0.55774915 0.12372974 0.018971594
0.55856085 0.12435133 0.01957839
0.55858576 0.12517154 0.019573392
0.55939728 0.12578836 0.020180253
0.55942219 0.12660697 0.020175265
0.56023353 0.12721901 0.020782121
0.56025839 0.12803604 0.020777142
0.56106961 0.1286433 0.021384025
0.56188071 0.12924738 0.021990929
0.56190544 0.13006122 0.021985969
0.56271642 0.13066052 0.022592902
0.5627411 0.13147277 0.022587951
0.56355196 0.13206728 0.023194948
0.56357664 0.13287793 0.023190008
0.56438732 0.13346767 0.023797
0.56441188 0.13427675 0.023792069
0.56522244 0.13486171 0.024399089
0.565247 0.13566919 0.024394169
0.56605738 0.13624938 0.025001217
0.56686771 0.13682637 0.025608322
0.56689215 0.13763064 0.025603421
0.56770229 0.13820288 0.026210517
0.56772673 0.13900556 0.026205625
0.56775111 0.13980827 0.026200734
0.56856108 0.14037411 0.026807871
0.5685854 0.14117523 0.026802989
0.56860977 0.14197633 0.026798107
0.5694195 0.14253581 0.027405282
0.56944382 0.14333531 0.02740041
0.57025343 0.14389002 0.028007613
0.57027769 0.14468794 0.028002752
0.57108724 0.14523785 0.028610021
0.57189661 0.14578459 0.029217275
0.57192075 0.14657933 0.029212432
0.57272995 0.14712128 0.029819712
0.57275409 0.14791442 0.02981488
0.57356316 0.1484516 0.030422209
0.57358724 0.14924316 0.030417385
0.57439619 0.14977555 0.031024726
0.57442021 0.15056552 0.031019911
0.57522899 0.15109316 0.031627279
0.57525295 0.1518815 0.031622477
0.57606161 0.15240434 0.032229893
0.57608557 0.15319112 0.032225098
0.57610947 0.15397789 0.032220304
0.57691789 0.15449437 0.032827739
0.5777263 0.15500766 0.033435214
0.57775009 0.15579124 0.033430438
0.57777393 0.15657483 0.033425666
0.57858211 0.15708175 0.034033161
0.57860583 0.15786374 0.034028396
0.57862961 0.15864573 0.034023631
0.5786534 0.15942773 0.034018863
0.57867718 0.16020972 0.034014098
0.57870096 0.16099171 0.034009334
0.57872468 0.16177371 0.034004569
0.57874846 0.16255571 0.033999804
0.57877225 0.16333769 0.03399504
0.57879603 0.16411968 0.033990271
0.57803589 0.16519427 0.03337314
0.57805973 0.16597787 0.033368364
0.57729977 0.16705723 0.032751184
0.57732362 0.1678424 0.032746401
0.57734752 0.16862759 0.032741617
0.57658774 0.16971332 0.032124415
0.57582808 0.17080224 0.031507179
0.57585204 0.17159061 0.031502374
0.575876 0.17237897 0.031497572
0.57511652 0.17347425 0.030880312
0.53453422 0.098221198 0.0007480167
0.53771031 0.09851782 0.003193513
0.54088593 0.098801695 0.0056390874
0.54248655 0.099364884 0.006859289
0.54329973 0.10006934 0.0074668135
0.5441128 0.10077061 0.0080743572
0.54492581 0.10146867 0.0086819567
0.54573864 0.10216358 0.0092895394
0.54576439 0.10300926 0.0092843864
0.5465771 0.10369938 0.0098919971
0.54738969 0.10438631 0.010499628
0.54741532 0.10522883 0.010494494
0.54822785 0.10591096 0.01110219
0.54825342 0.10675189 0.011097066
0.54906577 0.10742927 0.011704756
0.54909128 0.1082686 0.011699641
0.54990345 0.10894119 0.012307359
0.5499289 0.10977892 0.012302254
0.54995435 0.11061666 0.012297149
0.55076635 0.11128289 0.012904907
0.5507918 0.11211903 0.012899811
0.55160362 0.11278048 0.013507597
0.55162901 0.11361503 0.013502511
0.55244076 0.11427169 0.014110364
0.55325234 0.11492517 0.014718199
0.55327761 0.11575653 0.014713133
0.55408907 0.11640524 0.015320996
0.55411428 0.11723502 0.01531594
0.55492562 0.11787894 0.015923833
0.55495077 0.11870712 0.015918786
0.55576199 0.11934628 0.016526708
0.55578709 0.12017287 0.016521672
0.55581224 0.12099945 0.016516633
0.55662322 0.12163222 0.017124632
0.55664831 0.12245721 0.017119605
0.55745918 0.12308522 0.017727595
0.55748421 0.12390862 0.017722577
0.55829489 0.12453184 0.018330596
0.55831987 0.12535365 0.018325588
0.55913037 0.12597211 0.018933637
0.55915534 0.12679231 0.01892864
0.55996579 0.12740597 0.019536752
0.56077605 0.12801644 0.02014485
0.56080091 0.12883349 0.020139871
0.56161106 0.12943919 0.020747997
0.56242114 0.1300417 0.021356141
0.56244588 0.13085556 0.021351183
0.56325579 0.13145331 0.021959357
0.56328046 0.13226555 0.021954406
0.56409031 0.1328585 0.022562647
0.56411493 0.13366917 0.022557708
0.56492454 0.13425735 0.023165939
0.56494915 0.13506642 0.023161009
0.56575865 0.13564983 0.023769271
0.56656802 0.13623005 0.024377553
0.56659251 0.13703594 0.024372643
0.56740177 0.13761136 0.024980988
0.5674262 0.13841565 0.024976088
0.56823534 0.13898632 0.025584428
0.56825972 0.13978902 0.025579536
0.56828409 0.14059171 0.025574645
0.56909299 0.14115602 0.026183022
0.56911737 0.14195712 0.02617814
0.56992614 0.14251664 0.026786549
0.5699504 0.14331615 0.026781676
0.570759 0.14387089 0.027390113
0.57078326 0.14466882 0.02738525
0.57080752 0.14546673 0.027380388
0.57161599 0.14601508 0.027988899
0.57242429 0.14656027 0.028597394
0.57244849 0.14735501 0.028592551
0.57325661 0.14789541 0.029201075
0.57328075 0.14868854 0.029196242
0.57408881 0.14922418 0.029804813
0.57411283 0.15001571 0.02979999
0.57492071 0.15054658 0.030408572
0.57494473 0.15133654 0.030403757
0.5757525 0.15186261 0.031012369
0.57577646 0.15265097 0.031007566
0.57658404 0.15317225 0.031616222
0.57660794 0.15395902 0.031611428
0.5766319 0.1547458 0.031606633
0.57743931 0.15526073 0.032215316
0.57746315 0.1560459 0.032210529
0.57827044 0.15655604 0.032819256
0.57829422 0.15733963 0.03281448
0.57831806 0.15812321 0.032809705
0.57912511 0.15862697 0.033418454
0.57914889 0.15940899 0.03341369
0.57917267 0.16019097 0.033408921
0.57919645 0.16097297 0.033404157
0.57922018 0.16175497 0.033399392
0.57924396 0.16253695 0.033394627
0.57926774 0.16331895 0.033389863
0.57850862 0.16439189 0.032771505
0.5785324 0.16517548 0.03276673
0.57777339 0.16625322 0.032148328
0.57779729 0.16703841 0.032143544
0.57703841 0.16812091 0.031525131
0.57706237 0.16890767 0.031520337
0.5763036 0.16999498 0.030901875
0.57632756 0.17078333 0.030897072
0.57635152 0.17157172 0.030892268
0.57559305 0.17266536 0.030273786
0.57561707 0.17345531 0.030268973
0.57564104 0.17424527 0.030264158
0.53429776 0.098341607 -0.00053762645
0.5374698 0.098639973 0.0019127543
0.53985512 0.099069998 0.0037493191
0.54145384 0.099636443 0.0049720029
0.54305238 0.10019654 0.0061946893
0.54386443 0.10089943 0.0068034562
0.54467648 0.10159913 0.0074122418
0.54627448 0.1021433 0.0086350618
0.54630023 0.10298899 0.0086299079
0.54632592 0.10383469 0.0086247548
0.54713756 0.10452325 0.0092336088
0.54794914 0.10520863 0.0098424815
0.54797477 0.10605114 0.009837348
0.54878622 0.10673173 0.010446287
0.54881179 0.10757265 0.010441163
0.54962307 0.10824847 0.011050094
0.54964858 0.1090878 0.011044979
0.54967409 0.10992713 0.011039864
0.55048519 0.11059657 0.011648835
0.55051064 0.1114343 0.01164373
0.55132157 0.11209898 0.012252729
0.55134702 0.11293513 0.012247634
0.55215776 0.11359502 0.012856662
0.55218315 0.11442958 0.012851576
0.55299383 0.11508467 0.013460671
0.55301917 0.11591763 0.013455595
0.55382967 0.11656796 0.014064682
0.55464005 0.11721512 0.014673788
0.55466527 0.11804489 0.014668732
0.55469054 0.11887466 0.014663675
0.55550075 0.11951545 0.01527282
0.5555259 0.12034363 0.015267774
0.55633599 0.12097963 0.015876947
0.55636108 0.12180622 0.01587191
0.55717105 0.12243743 0.01648115
0.55719614 0.12326243 0.016476123
0.55800593 0.12388887 0.017085355
0.55803096 0.12471228 0.017080339
0.55884057 0.12533395 0.017689599
0.55886555 0.12615576 0.01768459
0.55967504 0.12677266 0.018293882
0.55969995 0.12759288 0.018288884
0.56050938 0.12820497 0.018898239
0.56131858 0.12881389 0.01950758
0.56134343 0.12963094 0.019502601
0.56215256 0.13023508 0.020111969
0.5621773 0.13105053 0.020106999
0.56298625 0.13164988 0.020716397
0.56379515 0.13224608 0.021325814
0.56381983 0.13305832 0.021320863
0.5646286 0.13364974 0.021930346
0.56465322 0.13446039 0.021925407
0.56546181 0.13504702 0.022534881
0.56627023 0.13563047 0.023144376
0.56629479 0.13643794 0.023139454
0.56710315 0.13701661 0.023748977
0.56712765 0.13782249 0.023744067
0.56793582 0.13839637 0.024353657
0.56796026 0.13920066 0.024348754
0.56876832 0.13976978 0.024958337
0.5687927 0.14057247 0.024953445
0.56960064 0.14113681 0.025563056
0.56962496 0.14193791 0.025558174
0.56964934 0.14273901 0.025553292
0.57045698 0.14329697 0.026162943
0.5704813 0.14409649 0.02615807
0.57128888 0.14464968 0.026767749
0.57131308 0.1454476 0.026762886
0.57212055 0.14599599 0.02737263
0.57214475 0.14679232 0.027367778
0.57295203 0.14733595 0.027977515
0.57297617 0.14813069 0.027972672
0.57378328 0.14866953 0.028582439
0.57380742 0.14946268 0.028577605
0.57461441 0.14999674 0.029187419
0.57463849 0.15078829 0.029182594
0.57544529 0.1513176 0.029792421
0.57546932 0.15210755 0.029787606
0.57627594 0.15263207 0.03039746
0.57629991 0.15342043 0.030392654
0.57710648 0.15394017 0.031002557
0.57713038 0.15472694 0.030997762
0.57715434 0.1555137 0.030992968
0.57796067 0.15602708 0.031602889
0.57798451 0.15681225 0.031598102
0.57879072 0.15732084 0.032208074
0.57881457 0.15810442 0.032203298
0.57883835 0.15888801 0.032198522
0.57886219 0.1596716 0.032193746
0.57888603 0.16045518 0.032188974
0.57890981 0.16123876 0.032184198
0.57893366 0.16202235 0.032179423
0.57895744 0.16280593 0.032174647
0.57898128 0.16358952 0.032169875
0.57900512 0.1643731 0.032165099
0.5790289 0.16515671 0.032160323
0.57827091 0.1662344 0.031540688
0.57829475 0.16701958 0.031535905
0.57753694 0.16810204 0.030916257
0.57756084 0.16888882 0.030911462
0.57680315 0.16997607 0.03029177
0.57682711 0.17076443 0.030286966
0.57606959 0.17185646 0.029667262
0.57609355 0.17264642 0.029662447
0.57611758 0.17343637 0.029657634
0.5761416 0.17422633 0.029652821
0.53723139 0.09876205 0.00062956591
0.53961372 0.099193767 0.0024698188
0.54121041 0.099761903 0.003694922
0.54280698 0.10032365 0.0049201003
0.54361814 0.10102818 0.0055300891
0.54521435 0.10157878 0.0067552989
0.54602528 0.10227534 0.007365373
0.54605103 0.10312262 0.0073602097
0.54686177 0.10381442 0.0079702772
0.54767245 0.10450301 0.0085803634
0.54769808 0.10534712 0.0085752197
0.54850858 0.10603094 0.0091853347
0.54853421 0.10687345 0.0091802003
0.5493446 0.10755249 0.0097903823
0.54937017 0.10839341 0.0097852573
0.55018038 0.10906768 0.010395431
0.55020589 0.109907 0.010390316
0.5502314 0.11074634 0.010385202
0.55104142 0.11141422 0.010995414
0.55106694 0.11225196 0.01099031
0.55187678 0.11291508 0.011600551
0.55190223 0.11375123 0.011595456
0.55271196 0.11440957 0.012205726
0.5527373 0.11524411 0.012200641
0.55354697 0.11589766 0.012810977
0.5535723 0.11673062 0.012805901
0.55438173 0.1173794 0.013416231
0.554407 0.11821076 0.013411164
0.55521631 0.11885477 0.014021522
0.55524153 0.11968455 0.014016466
0.55605066 0.12032378 0.014626853
0.55607581 0.12115195 0.014621806
0.55688483 0.1217864 0.015232223
0.55690998 0.12261299 0.015227186
0.55693507 0.12343958 0.015222149
0.55774397 0.12406764 0.01583264
0.55855268 0.12469254 0.016443115
0.55857772 0.12551594 0.016438097
0.55938625 0.12613606 0.017048601
0.55941123 0.12695786 0.017043592
0.56021971 0.12757321 0.017654127
0.56024462 0.12839341 0.017649127
0.56105292 0.12900397 0.018259726
0.56186116 0.12961134 0.018870307
0.56188595 0.13042837 0.018865328
0.56269401 0.13103098 0.019475939
0.56271881 0.1318464 0.019470969
0.56352669 0.13244423 0.020081609
0.56355143 0.13325806 0.020076649
0.56435919 0.13385111 0.020687319
0.56516689 0.13444096 0.021298043
0.56519151 0.13525161 0.021293104
0.56599903 0.13583669 0.02190382
0.56680644 0.13641858 0.022514557
0.56683099 0.13722606 0.022509636
0.56763828 0.13780317 0.023120401
0.56766272 0.13860905 0.023115491
0.56846988 0.13918138 0.023726324
0.56849438 0.13998567 0.023721421
0.56930131 0.14055322 0.024332246
0.56932575 0.14135593 0.024327355
0.57013255 0.1419187 0.024938207
0.57015693 0.14271981 0.024933325
0.57018125 0.14352092 0.024928445
0.57098788 0.14407732 0.025539335
0.5710122 0.14487684 0.025534464
0.57181871 0.14542846 0.026145384
0.57184297 0.14622639 0.026140522
0.57264936 0.14677323 0.026751509
0.57267356 0.14756955 0.026746657
0.57347977 0.14811164 0.027357636
0.57350391 0.14890637 0.027352793
0.57430995 0.14944367 0.027963802
0.57433408 0.1502368 0.027958969
0.57514 0.15076932 0.028570024
0.57516408 0.15156087 0.0285652
0.57596982 0.15208861 0.029176267
0.57599384 0.15287857 0.029171452
0.57601786 0.15366852 0.029166639
0.57682341 0.1541899 0.029777745
0.57684737 0.15497826 0.029772941
0.57765281 0.15549484 0.030384094
0.57767677 0.15628162 0.030379299
0.57770067 0.15706839 0.030374505
0.57850587 0.15757862 0.030985678
0.57852978 0.15836377 0.030980892
0.57933486 0.15886922 0.031592112
0.5793587 0.15965281 0.03158734
0.57938254 0.16043641 0.031582564
0.57940632 0.16121997 0.031577788
0.57943016 0.16200356 0.031573012
0.57945395 0.16278715 0.03156824
0.57947779 0.16357073 0.031563465
0.57950157 0.16435431 0.031558689
0.57874453 0.16543041 0.030937832
0.57876843 0.16621557 0.030933047
0.57801157 0.16729639 0.030312177
0.57803547 0.16808318 0.030307382
0.57805938 0.16886996 0.030302588
0.57730269 0.16995718 0.029681664
0.57732666 0.17074552 0.029676858
0.57735062 0.17153391 0.029672055
0.57659411 0.17262748 0.029051108
0.57661813 0.17341743 0.029046295
0.57664216 0.17420739 0.02904148
0.57666618 0.17499734 0.029036667
0.53699493 0.098884039 -0.00065608689
0.53937435 0.099317476 0.001187854
0.54096907 0.099887267 0.0024154119
0.5417794 0.1005982 0.0030265953
0.54337388 0.10115685 0.0042542578
0.54496807 0.10170913 0.005481923
0.54577804 0.10240732 0.0060931835
0.54658788 0.10310231 0.0067045004
0.54661363 0.10394961 0.0066993372
0.54742336 0.10463984 0.0073106461
0.54744905 0.10548554 0.0073054926
0.5482586 0.10617098 0.0079168305
0.54828423 0.1070151 0.0079116868
0.54909366 0.10769577 0.0085230544
0.54911929 0.10853828 0.00851792
0.54992855 0.10921417 0.0091293538
0.54995412 0.11005509 0.0091242287
0.55076325 0.11072621 0.0097356541
0.55078876 0.11156554 0.0097305402
0.55159771 0.11223188 0.010341995
0.55162317 0.11306962 0.01033689
0.552432 0.11373118 0.010948374
0.55245745 0.11456732 0.010943279
0.55326611 0.1152241 0.011554792
0.5532915 0.11605866 0.011549706
0.55410004 0.11671065 0.012161285
0.55412537 0.11754361 0.012156209
0.55493379 0.11819083 0.012767781
0.554959 0.1190222 0.012762714
0.55498427 0.11985357 0.012757648
0.55579251 0.12049443 0.013369258
0.55581772 0.1213242 0.013364201
0.55662578 0.12196027 0.01397584
0.55665094 0.12278846 0.013970793
0.55745882 0.12341976 0.014582463
0.55748397 0.12424634 0.014577425
0.55829179 0.12487286 0.015189159
0.55831683 0.12569785 0.015184131
0.55912447 0.1263196 0.015795859
0.55993199 0.12693816 0.016407603
0.55995697 0.12775998 0.016402597
0.56076431 0.12837376 0.017014371
0.56078923 0.12919398 0.017009374
0.56159651 0.12980297 0.017621214
0.56162143 0.13062158 0.017616225
0.56242847 0.13122581 0.018228058
0.56323546 0.13182685 0.018839911
0.56326026 0.1326423 0.018834941
0.56406713 0.13323855 0.019446824
0.56409186 0.13405241 0.019441864
0.56489855 0.13464388 0.020053774
0.56570518 0.13523218 0.020665742
0.5657298 0.13604285 0.020660803
0.56653625 0.13662636 0.021272762
0.56734264 0.1372067 0.021884741
0.56736714 0.13801418 0.02187982
0.56817335 0.13858974 0.022491828
0.56819785 0.13939561 0.022486918
0.569004 0.13996638 0.02309899
0.56902844 0.14077067 0.02309409
0.56983435 0.14133668 0.023706155
0.56985873 0.14213938 0.023701264
0.57066453 0.1427006 0.024313359
0.57068884 0.14350171 0.024308478
0.57071322 0.14430282 0.024303596
0.57151878 0.14485767 0.024915731
0.5715431 0.14565718 0.024910858
0.57234854 0.14620726 0.025523022
0.57237279 0.14700519 0.025518158
0.57317811 0.14755046 0.026130388
0.57320231 0.1483468 0.026125535
0.57400745 0.14888731 0.026737757
0.57403165 0.14968204 0.026732914
0.57483661 0.15021779 0.027345164
0.57486075 0.15101093 0.02734033
0.57566559 0.15154189 0.02795263
0.57568967 0.15233344 0.027947806
0.5764944 0.15285963 0.028560115
0.57651842 0.15364958 0.0285553
0.57654238 0.15443954 0.028550487
0.57734692 0.15495937 0.029162833
0.57737088 0.15574773 0.02915803
0.57817525 0.15626276 0.029770425
0.57819921 0.15704952 0.029765632
0.57822311 0.1578363 0.029760838
0.5790273 0.15834495 0.030373253
0.57905114 0.15913014 0.030368468
0.57907498 0.15991531 0.030363683
0.57909888 0.1607005 0.030358898
0.57912272 0.16148567 0.030354114
0.57992667 0.16198477 0.030966606
0.57995045 0.16276836 0.03096183
0.57919431 0.16384122 0.030339759
0.57921821 0.16462639 0.030334976
0.57924205 0.16541158 0.03033019
0.57926595 0.16619675 0.030325405
0.57851005 0.16727754 0.029703304
0.57853401 0.16806431 0.02969851
0.57855791 0.16885109 0.029693715
0.57780218 0.16993827 0.029071556
0.57782614 0.17072663 0.029066753
0.5778501 0.171515 0.029061949
0.57709467 0.17260854 0.02843977
0.57711864 0.17339849 0.028434956
0.57714266 0.17418845 0.028430142
0.57716668 0.17497841 0.028425328
0.53913689 0.099441111 -9.6613745e-05
0.54153907 0.10072513 0.0017458424
0.54313159 0.10128544 0.0029759607
0.54472381 0.10183939 0.0042060809
0.54631591 0.10238697 0.0054362407
0.54634166 0.10323586 0.0054310677
0.54715049 0.1039293 0.006043626
0.54717624 0.10477658 0.0060384632
0.5479849 0.10546526 0.0066510141
0.54801059 0.10631096 0.0066458606
0.54881912 0.10699486 0.0072584413
0.54884475 0.10783897 0.0072532976
0.54965311 0.10851809 0.0078659076
0.54967874 0.1093606 0.0078607732
0.55048698 0.11003493 0.0084734485
0.55051255 0.11087585 0.0084683243
0.55132055 0.11154541 0.0090809921
0.55134606 0.11238474 0.0090758773
0.552154 0.11304954 0.0096885748
0.55217946 0.11388727 0.0096834702
0.55220491 0.11472501 0.0096783647
0.55301267 0.11538342 0.0102911
0.55303806 0.11621957 0.010286005
0.55384564 0.1168732 0.01089877
0.55387098 0.11770775 0.010893685
0.5546785 0.11835659 0.011506515
0.55470377 0.11918956 0.011501439
0.55551106 0.11983364 0.012114263
0.55553633 0.12066501 0.012109197
0.5563435 0.12130431 0.012722049
0.55636871 0.12213407 0.012716993
0.5571757 0.1227686 0.013329874
0.55720085 0.12359678 0.013324827
0.55800772 0.12422653 0.013937738
0.55803281 0.12505312 0.0139327
0.55883956 0.12567808 0.014545677
0.55886465 0.12650307 0.01454065
0.55967122 0.12712327 0.015153619
0.55969626 0.12794667 0.015148601
0.56050265 0.12856208 0.015761599
0.56130898 0.12917431 0.016374616
0.56133389 0.12999453 0.016369617
0.56214011 0.13060196 0.016982701
0.56216502 0.13142058 0.016977713
0.562971 0.13202326 0.017590787
0.56377697 0.13262275 0.018203883
0.56380171 0.13343818 0.018198913
0.5646075 0.13403289 0.018812036
0.56463224 0.13484673 0.018807078
0.56543785 0.13543667 0.019420231
0.56624347 0.1360234 0.02003344
0.56626809 0.13683407 0.0200285
0.56707352 0.13741603 0.020641701
0.56787878 0.13799481 0.021254923
0.56790334 0.13880229 0.021250002
0.56870848 0.1393763 0.021863252
0.56873298 0.14018218 0.021858342
0.56953806 0.14075139 0.022471657
0.56956249 0.14155568 0.022466756
0.57036734 0.14212014 0.023080064
0.57039177 0.14292283 0.023075173
0.57119644 0.14348251 0.02368851
0.57122082 0.14428361 0.023683628
0.57124519 0.14508471 0.023678748
0.57204968 0.14563802 0.024292123
0.572074 0.14643753 0.024287252
0.57287836 0.14698605 0.024900656
0.57290262 0.14778396 0.024895795
0.57370692 0.14832769 0.025509266
0.57373112 0.14912403 0.025504414
0.57453519 0.14966299 0.026117876
0.57455933 0.15045772 0.026113033
0.57536328 0.15099192 0.026726527
0.57538742 0.15178506 0.026721694
0.57619119 0.15231445 0.027335234
0.57621527 0.15310602 0.02733041
0.57701892 0.15363064 0.027943961
0.57704294 0.1544206 0.027939148
0.57706696 0.15521055 0.027934333
0.57787043 0.15572882 0.028547924
0.57789439 0.15651718 0.02854312
0.57869768 0.15703066 0.029156758
0.57872164 0.15781744 0.029151963
0.57874554 0.1586042 0.029147169
0.57876945 0.15939096 0.029142374
0.57879335 0.16017775 0.02913758
0.5795964 0.16068168 0.029751256
0.57962024 0.16146685 0.029746471
0.57964408 0.16225202 0.029741688
0.57966799 0.16303721 0.029736903
0.57969183 0.1638224 0.029732117
0.57971573 0.16460755 0.029727332
0.57973957 0.16539276 0.029722549
0.57976341 0.16617793 0.029717764
0.57978731 0.1669631 0.029712979
0.57903248 0.16804545 0.029089635
0.57905644 0.16883223 0.029084841
0.57908034 0.16961901 0.029080046
0.57832569 0.17070772 0.028456647
0.57834965 0.17149611 0.028451841
0.57837361 0.17228447 0.028447038
0.57761919 0.17337956 0.027823618
0.57764322 0.17416951 0.027818803
0.57766724 0.17495947 0.02781399
0.5397101 0.10028363 -0.00076990871
0.54289126 0.10141397 0.0016951624
0.54448164 0.10196957 0.002927775
0.54607171 0.10251882 0.0041603893
0.54609752 0.1033693 0.004155207
0.54690534 0.10406438 0.0047689518
0.54771316 0.10475627 0.0053827534
0.54773891 0.10560357 0.0053775902
0.54854649 0.10629068 0.0059913839
0.54857218 0.10713639 0.0059862304
0.54937959 0.10781873 0.006600053
0.54940528 0.10866284 0.0065949094
0.54943091 0.10950694 0.0065897657
0.55023813 0.11018291 0.0072036269
0.55026376 0.11102543 0.007198493
0.55107093 0.11169661 0.0078124208
0.5510965 0.11253753 0.0078072962
0.55190343 0.11320396 0.0084212162
0.55192894 0.11404327 0.0084161013
0.55273575 0.11470492 0.0090300506
0.5527612 0.11554265 0.0090249451
0.55356789 0.11619952 0.0096389232
0.55359328 0.11703565 0.009633828
0.55439979 0.11768775 0.010247835
0.55442518 0.11852229 0.01024275
0.55523157 0.11916959 0.010856822
0.5552569 0.12000255 0.010851746
0.55606312 0.12064507 0.011465812
0.55608839 0.12147644 0.011460746
0.55689448 0.12211418 0.01207484
0.55691969 0.12294395 0.012069783
0.55772561 0.12357692 0.012683908
0.55775082 0.12440511 0.012678861
0.55855656 0.1250333 0.013293013
0.55858171 0.12585989 0.013287976
0.55938739 0.12648329 0.013902195
0.55941248 0.12730828 0.013897168
0.56021798 0.12792693 0.014511378
0.56024301 0.12875032 0.014506361
0.56104833 0.12936419 0.015120601
0.56185359 0.12997487 0.015734861
0.56187856 0.13079508 0.015729861
0.5626837 0.13140096 0.016344188
0.56270856 0.13221958 0.0163392
0.56351352 0.13282071 0.016953517
0.56353837 0.13363773 0.016948538
0.56434321 0.13423407 0.017562885
0.56514794 0.13482723 0.01817725
0.56517267 0.13564107 0.018172292
0.56597722 0.13622946 0.018786687
0.56678176 0.13681462 0.019401139
0.56680638 0.13762529 0.019396199
0.56761074 0.13820571 0.020010643
0.56841499 0.13878293 0.020625105
0.56843954 0.13959041 0.020620186
0.56924361 0.14016286 0.021234678
0.56926811 0.14096874 0.021229766
0.57007211 0.1415364 0.021844326
0.57009655 0.14234069 0.021839423
0.57090038 0.14290358 0.022453975
0.57092476 0.14370628 0.022449084
0.57172841 0.1442644 0.023063663
0.57175279 0.1450655 0.023058781
0.57177711 0.1458666 0.023053899
0.57258058 0.14641835 0.023668518
0.57260489 0.14721787 0.023663646
0.57340819 0.14776483 0.024278292
0.57343245 0.14856276 0.024273431
0.57423568 0.14910494 0.024888145
0.57425988 0.14990126 0.024883293
0.57506293 0.15043867 0.025497997
0.57508707 0.1512334 0.025493154
0.57588995 0.15176605 0.026107891
0.57591408 0.15255919 0.026103057
0.57671684 0.15308703 0.02671784
0.57674086 0.15387858 0.026713016
0.5775435 0.15440166 0.027327809
0.57756746 0.15519162 0.027322995
0.57759148 0.15598157 0.027318181
0.57839388 0.15649827 0.027933013
0.57841784 0.15728664 0.027928209
0.5784418 0.15807502 0.027923405
0.57924408 0.15858534 0.028538294
0.57926798 0.15937209 0.0285335
0.57929188 0.16015889 0.028528705
0.57931578 0.16094565 0.028523913
0.58011776 0.16144802 0.029138831
0.5801416 0.1622332 0.029134046
0.58016551 0.16301839 0.029129261
0.58018935 0.16380356 0.029124478
0.58021325 0.16458873 0.029119693
0.58023709 0.16537394 0.029114908
0.58026093 0.16615909 0.029110122
0.58028483 0.16694428 0.029105339
0.57953101 0.16802658 0.028480763
0.57955492 0.16881336 0.028475968
0.57957888 0.16960014 0.028471174
0.57882524 0.17068882 0.027846539
0.5788492 0.17147721 0.027841736
0.57887316 0.17226556 0.027836932
0.57889712 0.17305392 0.027832128
0.57814378 0.17415057 0.027207464
0.57816774 0.17494053 0.027202651
0.57819176 0.1757305 0.027197836
0.54106456 0.10097875 -0.00082305633
0.54265302 0.10154241 0.00041193518
0.54424143 0.10209969 0.0016470033
0.54582953 0.1026506 0.0028820734
0.5466364 0.10334891 0.0034970315
0.54744321 0.10404404 0.004112009
0.54746902 0.10489292 0.0041068364
0.54827577 0.10558326 0.0047218795
0.54830152 0.10643054 0.0047167162
0.54832727 0.10727783 0.004711553
0.54913372 0.10796181 0.0053265984
0.54915947 0.1088075 0.0053214449
0.54996574 0.10948671 0.0059365197
0.54999143 0.11033081 0.005931376
0.55079758 0.11100522 0.0065464796
0.55082321 0.11184774 0.0065413457
0.5516293 0.11251737 0.007156516
0.55165488 0.1133583 0.0071513914
0.55246073 0.11402316 0.0077665537
0.55248624 0.11486249 0.0077614388
0.55329204 0.11552256 0.00837663
0.55331749 0.1163603 0.0083715254
0.5541231 0.11701561 0.008986745
0.5541485 0.11785176 0.0089816498
0.55417389 0.1186879 0.0089765545
0.55497932 0.11933683 0.0095918132
0.55500466 0.12017139 0.0095867272
0.55580997 0.12081552 0.010202053
0.55583531 0.12164849 0.010196977
0.55664045 0.12228787 0.010812295
0.55666572 0.12311924 0.010807228
0.55747068 0.12375383 0.011422575
0.55749589 0.1245836 0.011417518
0.55830073 0.12521344 0.012032893
0.55832589 0.12604161 0.012027848
0.55913055 0.12666665 0.012643252
0.55993521 0.12728851 0.013258712
0.55996031 0.12811349 0.013253685
0.56076473 0.12873058 0.013869138
0.56078976 0.12955399 0.01386412
0.56159407 0.13016629 0.014479603
0.56161904 0.13098811 0.014474595
0.56242317 0.13159563 0.015090106
0.56244808 0.13241585 0.015085109
0.56325215 0.13301858 0.015700687
0.5640561 0.13361815 0.016316246
0.56485987 0.13421452 0.016931824
0.56488466 0.13502996 0.016926857
0.56568831 0.13562156 0.017542465
0.56571305 0.1364354 0.017537504
0.56651658 0.13702223 0.018153142
0.56732005 0.13760586 0.018768836
0.56734473 0.13841651 0.018763896
0.56814796 0.13899538 0.019379582
0.56817257 0.13980444 0.019374652
0.56897569 0.14037853 0.019990368
0.56900024 0.141186 0.019985447
0.56980324 0.1417553 0.020601191
0.57060617 0.14232141 0.021216992
0.57063061 0.1431257 0.021212092
0.57143337 0.14368704 0.021827884
0.57145774 0.14448974 0.021822993
0.57226038 0.14504629 0.022438813
0.5722847 0.14584741 0.022433931
0.57230908 0.14664851 0.022429051
0.57311147 0.14719871 0.02304491
0.57313579 0.14799821 0.023040039
0.57393801 0.14854363 0.023655929
0.57396227 0.14934154 0.023651067
0.57476443 0.14988217 0.024267023
0.57478863 0.15067849 0.024262169
0.57559061 0.15121435 0.024878118
0.57561481 0.15200908 0.024873275
0.57641661 0.15254016 0.025489252
0.57644069 0.15333331 0.02548442
0.57724243 0.1538596 0.026100444
