# .PCD v0.7 - Point Cloud Data file format
VERSION 0.7
FIELDS x y z
SIZE 4 4 4
TYPE F F F
COUNT 1 1 1
WIDTH 1392
HEIGHT 1
VIEWPOINT 0 0 0 1 0 0 0
POINTS 1392
DATA ascii
0.5337714 0.046579588 0.036370385
0.53379667 0.047410954 0.036365319
0.53382194 0.048242319 0.036360253
0.53467071 0.049020365 0.03692665
0.53469592 0.049850136 0.036921594
0.53472114 0.050679907 0.036916535
0.53474635 0.051509682 0.03691148
0.53477156 0.052339457 0.036906425
0.53479677 0.053169228 0.036901366
0.53482199 0.053998999 0.036896311
0.53484726 0.054828774 0.036891256
0.53487247 0.055658549 0.036886197
0.53489769 0.05648832 0.036881141
0.5349229 0.057318091 0.036876086
0.53494811 0.058147866 0.036871027
0.53497332 0.058977637 0.036865972
0.53499854 0.059807412 0.036860917
0.53502381 0.060637183 0.036855858
0.53504902 0.061466958 0.036850803
0.53507423 0.06229673 0.036845747
0.53509945 0.063126504 0.036840688
0.53512466 0.063956276 0.036835633
0.53514987 0.064786047 0.036830578
0.53517509 0.065615825 0.036825519
0.53520036 0.066445597 0.036820464
0.53522557 0.067275368 0.036815409
0.53525078 0.068105139 0.036810353
0.535276 0.06893491 0.036805294
0.53530121 0.069764689 0.036800239
0.53532642 0.07059446 0.036795184
0.53535163 0.071424231 0.036790125
0.53537691 0.07225401 0.03678507
0.53540212 0.073083781 0.036780015
0.53542733 0.073913552 0.036774956
0.5346306 0.074846014 0.036198139
0.53465587 0.07567738 0.036193073
0.53468114 0.076508753 0.036188006
0.53470641 0.077340119 0.03618294
0.53473169 0.078171477 0.036177874
0.53393519 0.079113506 0.035600998
0.53396052 0.079946466 0.03559592
0.53398585 0.080779418 0.035590846
0.53401119 0.081612378 0.035585769
0.53321493 0.082562372 0.035008814
0.53324026 0.083396927 0.035003729
0.53326565 0.084231474 0.03499864
0.53329098 0.085066028 0.034993555
0.53331637 0.085900575 0.03498847
0.53334171 0.086735129 0.034983385
0.5333671 0.087569676 0.0349783
0.53339249 0.088404223 0.034973215
0.53341782 0.089238778 0.03496813
0.53344321 0.090073332 0.034963042
0.53346854 0.090907879 0.034957957
0.53349394 0.091742434 0.034952872
0.53351927 0.092576981 0.034947786
0.53354466 0.093411535 0.034942701
0.53357005 0.094246082 0.034937616
0.53359538 0.095080636 0.034932531
0.53362077 0.095915183 0.034927443
0.53364611 0.096749738 0.034922358
0.53285086 0.097729988 0.034345251
0.53287625 0.09856613 0.034340154
0.53290164 0.099402271 0.034335058
0.5329271 0.10023842 0.034329962
0.53295249 0.10107456 0.03432487
0.53297794 0.1019107 0.034319773
0.53300333 0.10274684 0.034314677
0.53302872 0.10358299 0.034309585
0.53305417 0.10441913 0.034304488
0.53307956 0.10525528 0.034299392
0.53310502 0.10609141 0.034294296
0.53313041 0.10692757 0.034289204
0.5331558 0.10776372 0.034284107
0.53318125 0.10859985 0.034279011
0.53320664 0.109436 0.034273915
0.53241211 0.11044171 0.033696651
0.53243762 0.11127946 0.033691548
0.53246307 0.11211719 0.03368644
0.53248852 0.11295493 0.033681337
0.53251398 0.11379267 0.033676233
0.53253943 0.1146304 0.033671126
0.53256494 0.11546814 0.033666022
0.53259039 0.11630587 0.033660918
0.53261584 0.11714361 0.033655811
0.53264129 0.11798134 0.033650707
0.53266674 0.11881908 0.033645604
0.53269225 0.11965682 0.033640496
0.53189832 0.12068326 0.033063106
0.53192383 0.12152259 0.033057991
0.53194934 0.12236191 0.033052877
0.53197485 0.12320124 0.033047762
0.53200036 0.12404057 0.033042647
0.53202587 0.1248799 0.033037532
0.53123236 0.12591748 0.032460075
0.53125793 0.1267584 0.032454949
0.5312835 0.12759933 0.032449827
0.53130901 0.12844025 0.032444701
0.53133458 0.12928116 0.032439578
0.53136015 0.13012208 0.032434452
0.53138572 0.13096301 0.032429326
0.53141129 0.13180393 0.032424204
0.53061813 0.13285586 0.031846624
0.53165245 0.040852178 0.034044642
0.53250074 0.041649368 0.034612153
0.53252608 0.042483922 0.034607068
0.53255147 0.043318473 0.034601983
0.53339964 0.044109289 0.035169568
0.53342497 0.044942249 0.03516449
0.53345025 0.045775205 0.035159416
0.53429818 0.046559658 0.035727002
0.53432345 0.047391023 0.035721935
0.53434873 0.048222389 0.035716869
0.534374 0.049053755 0.035711803
0.53439927 0.04988512 0.035706736
0.53442454 0.050716486 0.03570167
0.53444982 0.051547851 0.035696607
0.53447509 0.052379217 0.035691541
0.53450036 0.053210583 0.035686474
0.53452563 0.054041948 0.035681408
0.53455091 0.054873314 0.035676342
0.53457618 0.055704679 0.035671275
0.53460145 0.056536045 0.035666209
0.53462666 0.057367411 0.035661142
0.53465194 0.058198776 0.035656076
0.53467721 0.059030142 0.03565101
0.53470248 0.059861507 0.035645943
0.53472775 0.060692873 0.035640877
0.53475302 0.061524238 0.03563581
0.5347783 0.062355604 0.035630748
0.53480357 0.063186966 0.035625681
0.53482884 0.064018339 0.035620615
0.53485411 0.064849697 0.035615548
0.53487939 0.065681063 0.035610482
0.53490466 0.066512428 0.035605416
0.53492993 0.067343794 0.035600349
0.5349552 0.068175159 0.035595283
0.53498048 0.069006525 0.035590217
0.53500575 0.069837898 0.03558515
0.53503102 0.070669264 0.035580084
0.53505629 0.071500629 0.035575017
0.53508157 0.072331987 0.035569951
0.53510684 0.073163353 0.035564888
0.53513211 0.073994718 0.035559822
0.53515738 0.074826084 0.035554755
0.5351826 0.07565745 0.035549689
0.53438705 0.076594666 0.03497161
0.53441232 0.077427618 0.034966536
0.53443766 0.078260578 0.034961458
0.53446299 0.079093531 0.034956384
0.53366756 0.080038711 0.034378219
0.53369296 0.080873266 0.034373134
0.53371835 0.081707813 0.034368049
0.53374368 0.082542367 0.034362961
0.53376907 0.083376914 0.034357876
0.5337944 0.084211469 0.034352791
0.5329994 0.085167788 0.033774592
0.53302485 0.086003929 0.0337695
0.53305024 0.086840071 0.033764403
0.53307569 0.087676212 0.033759307
0.53310108 0.088512361 0.033754215
0.53312647 0.089348502 0.033749118
0.53315192 0.090184651 0.033744022
0.53317732 0.091020793 0.033738926
0.53320277 0.091856934 0.033733834
0.53322816 0.092693076 0.033728737
0.53325355 0.093529224 0.033723641
0.533279 0.094365366 0.033718545
0.53330439 0.095201507 0.033713453
0.53332978 0.096037649 0.033708356
0.53335524 0.096873797 0.03370326
0.53338063 0.097709939 0.033698164
0.53340608 0.09854608 0.033693071
0.53343147 0.099382222 0.033687975
0.53345686 0.10021837 0.033682879
0.53348231 0.10105451 0.033677783
0.5335077 0.10189065 0.03367269
0.53353316 0.1027268 0.033667594
0.53355855 0.10356295 0.033662498
0.53358394 0.10439909 0.033657402
0.53279018 0.10539523 0.033078965
0.53281564 0.10623296 0.033073861
0.53284109 0.1070707 0.033068758
0.53286654 0.10790844 0.03306365
0.53289199 0.10874616 0.033058546
0.5329175 0.10958391 0.033053443
0.53294295 0.11042164 0.033048335
0.5329684 0.11125938 0.033043232
0.53299385 0.11209711 0.033038128
0.5330193 0.11293485 0.033033021
0.53304482 0.11377259 0.033027917
0.53307027 0.11461032 0.033022813
0.53309572 0.11544807 0.033017706
0.53312117 0.11628579 0.033012602
0.53314662 0.11712353 0.033007499
0.53235364 0.11814515 0.032428902
0.53237915 0.11898448 0.032423787
0.53240466 0.1198238 0.032418672
0.53243017 0.12066314 0.032413557
0.53245568 0.12150247 0.032408442
0.53248119 0.12234179 0.032403328
0.53168851 0.12337456 0.031824667
0.53171408 0.12421548 0.031819541
0.53173959 0.1250564 0.031814419
0.53176516 0.12589732 0.031809293
0.53179073 0.12673824 0.03180417
0.53099829 0.12778057 0.031225415
0.53102392 0.12862308 0.031220281
0.53104949 0.12946561 0.031215148
0.53107512 0.13030811 0.031210013
0.53110075 0.13115063 0.031204879
0.53112632 0.13199314 0.031199746
0.53218222 0.040832132 0.033397559
0.53220767 0.041668274 0.033392463
0.53305489 0.042463914 0.033961218
0.53308028 0.043298464 0.033956133
0.53310561 0.044133015 0.033951048
0.53395271 0.044922277 0.034519874
0.53397804 0.045755237 0.0345148
0.53400338 0.046588194 0.034509722
0.53402871 0.047421154 0.034504645
0.53405398 0.04825411 0.034499571
0.53407931 0.04908707 0.034494493
0.53492606 0.04986519 0.035063352
0.53495133 0.050696552 0.035058286
0.5349766 0.051527917 0.03505322
0.53500187 0.052359283 0.035048153
0.53502715 0.053190649 0.035043091
0.53505236 0.054022014 0.035038024
0.53507763 0.05485338 0.035032958
0.5351029 0.055684749 0.035027891
0.53512818 0.056516111 0.035022825
0.53515345 0.057347476 0.035017759
0.53517872 0.058178842 0.035012692
0.53520399 0.059010208 0.035007626
0.53522927 0.059841573 0.035002559
0.53525454 0.060672939 0.034997493
0.53527981 0.061504304 0.034992427
0.53530508 0.06233567 0.03498736
0.53533036 0.063167036 0.034982294
0.53535563 0.063998401 0.034977231
0.5353809 0.064829767 0.034972165
0.53540617 0.065661132 0.034967098
0.53543144 0.066492498 0.034962032
0.53545672 0.067323864 0.034956966
0.53548199 0.068155229 0.034951899
0.53550726 0.068986595 0.034946833
0.53553253 0.069817968 0.034941766
0.53555781 0.070649326 0.0349367
0.53558308 0.071480691 0.034931634
0.53478825 0.072409898 0.034352373
0.53481352 0.073242858 0.034347296
0.53483886 0.074075811 0.034342222
0.53486419 0.074908771 0.034337144
0.53488952 0.075741731 0.034332067
0.53491479 0.076574691 0.034326993
0.53412026 0.077515051 0.033747628
0.53414565 0.078349605 0.033742543
0.53417104 0.079184152 0.033737455
0.53419638 0.080018707 0.03373237
0.53422177 0.080853254 0.033727285
0.53342754 0.081803165 0.033147894
0.53345299 0.082639307 0.033142798
0.53347838 0.083475456 0.033137701
0.53350383 0.084311597 0.033132609
0.53352922 0.085147738 0.033127513
0.53355461 0.08598388 0.033122417
0.53358006 0.086820029 0.03311732
0.53360546 0.08765617 0.033112228
0.53363091 0.088492312 0.033107132
0.53283715 0.089458145 0.032527644
0.53286266 0.090295888 0.032522541
0.53288811 0.091133624 0.032517437
0.53291357 0.09197136 0.03251233
0.53293902 0.092809096 0.032507226
0.53296447 0.093646832 0.032502122
0.53298998 0.094484568 0.032497015
0.53301543 0.095322303 0.032491911
0.53304088 0.096160039 0.032486808
0.53306633 0.096997775 0.0324817
0.53309178 0.097835511 0.032476597
0.53311729 0.098673247 0.032471493
0.53314275 0.099510983 0.032466386
0.5331682 0.10034873 0.032461282
0.53319365 0.10118645 0.032456178
0.5332191 0.1020242 0.032451071
0.53324461 0.10286193 0.032445967
0.53327006 0.10369967 0.03244086
0.53329551 0.1045374 0.032435756
0.53332096 0.10537514 0.032430653
0.53334641 0.10621287 0.032425545
0.53337193 0.10705061 0.032420442
0.53339738 0.10788835 0.032415338
0.53342283 0.10872608 0.03241023
0.53344828 0.10956382 0.032405127
0.53347373 0.11040155 0.032400023
0.53349924 0.11123929 0.032394916
0.53352469 0.11207702 0.032389812
0.53355014 0.11291476 0.032384709
0.53357559 0.11375251 0.032379601
0.53278339 0.11476771 0.031799812
0.5328089 0.11560705 0.031794697
0.53283441 0.11644636 0.031789582
0.53285992 0.11728569 0.031784467
0.53288543 0.11812502 0.031779353
0.53291094 0.11896435 0.031774241
0.53293645 0.11980367 0.031769127
0.53214467 0.12083163 0.031189261
0.53217024 0.12167256 0.031184137
0.53219575 0.12251347 0.031179013
0.53222132 0.1233544 0.031173887
0.53224689 0.12419531 0.031168763
0.53227246 0.12503624 0.031163638
0.53148091 0.12607534 0.030583672
0.53150654 0.12691785 0.030578537
0.53153211 0.12776038 0.030573403
0.53155774 0.12860289 0.03056827
0.53158337 0.1294454 0.030563135
0.53079218 0.13049406 0.029983142
0.53081781 0.13133816 0.029977998
0.5308435 0.13218227 0.029972855
0.53189111 0.040849365 0.032175414
0.53191656 0.041687101 0.032170311
0.53276289 0.042484369 0.032740284
0.53278828 0.043320514 0.032735191
0.53281367 0.044156659 0.032730095
0.53365982 0.044947557 0.033300109
0.53450584 0.045735266 0.033870179
0.53371054 0.046616659 0.033289939
0.53455645 0.047401182 0.033860024
0.53458178 0.048234142 0.03385495
0.53460711 0.049067099 0.033849873
0.53463244 0.049900059 0.033844799
0.53465772 0.050733015 0.033839721
0.53468305 0.051565971 0.033834647
0.53470838 0.052398931 0.03382957
0.53473371 0.053231891 0.033824496
0.53475904 0.054064848 0.033819418
0.53478432 0.054897804 0.033814345
0.53480965 0.055730764 0.033809267
0.53483498 0.05656372 0.033804193
0.53486031 0.05739668 0.033799116
0.53488559 0.05822964 0.033794042
0.53491092 0.059062596 0.033788964
0.53493625 0.059895556 0.03378389
0.53496158 0.060728513 0.033778813
0.53498685 0.061561469 0.033773735
0.53501219 0.062394433 0.033768661
0.53503752 0.063227385 0.033763584
0.53506285 0.064060345 0.03375851
0.53508812 0.064893305 0.033753432
0.53511345 0.065726258 0.033748358
0.53513879 0.066559218 0.033743281
0.53516412 0.067392178 0.033738207
0.53518945 0.068225138 0.03373313
0.53521472 0.069058098 0.033728056
0.53524005 0.06989105 0.033722978
0.53526539 0.07072401 0.033717904
0.53529072 0.07155697 0.033712827
0.53531599 0.07238993 0.033707753
0.53534132 0.07322289 0.033702675
0.53536665 0.074055843 0.033697601
0.53457296 0.07499139 0.03311703
0.53459835 0.075825937 0.033111945
0.53462374 0.076660492 0.03310686
0.53464907 0.077495039 0.033101775
0.53467447 0.078329593 0.033096686
0.53388113 0.079274684 0.032516096
0.53390652 0.080110833 0.032511
0.53393197 0.080946974 0.032505903
0.53395736 0.081783116 0.032500811
0.53398275 0.082619257 0.032495715
0.5340082 0.083455406 0.032490619
0.53321522 0.084411651 0.031909958
0.53324068 0.085249387 0.031904854
0.53326613 0.086087123 0.031899747
0.53329158 0.086924858 0.031894643
0.53331703 0.087762594 0.031889539
0.53334254 0.08860033 0.031884432
0.53336799 0.089438066 0.031879328
0.53339344 0.090275802 0.031874225
0.53341889 0.091113538 0.031869117
0.53344434 0.091951273 0.031864014
0.53346986 0.092789009 0.03185891
0.53349531 0.093626745 0.031853803
0.53352076 0.094464481 0.031848699
0.53354621 0.095302224 0.031843595
0.53357166 0.09613996 0.031838488
0.53359717 0.096977688 0.031833384
0.53362262 0.097815424 0.031828277
0.53364807 0.09865316 0.031823173
0.53367352 0.099490896 0.03181807
0.53369904 0.10032864 0.031812962
0.53372449 0.10116637 0.031807858
0.53374994 0.10200411 0.031802755
0.53377539 0.10284184 0.031797647
0.53380084 0.10367958 0.031792544
0.53382635 0.10451731 0.03178744
0.5338518 0.10535505 0.031782333
0.53387725 0.10619278 0.031777229
0.5339027 0.10703053 0.031772126
0.53392816 0.10786826 0.031767018
0.53395367 0.10870599 0.031761914
0.53397912 0.10954373 0.031756811
0.53318769 0.11055093 0.031175839
0.5332132 0.11139027 0.031170724
0.53323871 0.11222959 0.031165609
0.53326422 0.11306892 0.031160494
0.53328973 0.11390826 0.031155379
0.53331524 0.11474758 0.031150265
0.53334075 0.11558692 0.03114515
0.53336626 0.11642624 0.031140035
0.53339177 0.11726557 0.03113492
0.53341728 0.1181049 0.031129807
0.53262639 0.11912962 0.030548725
0.5326519 0.11997055 0.030543601
0.53267747 0.12081147 0.030538477
0.53270304 0.12165239 0.030533353
0.53272861 0.12249331 0.030528227
0.53193796 0.12352761 0.029947059
0.53196353 0.12437012 0.029941926
0.53198916 0.12521264 0.02993679
0.53201479 0.12605515 0.029931657
0.53204036 0.12689766 0.029926524
0.53125006 0.1279415 0.029345326
0.53127569 0.12878561 0.029340181
0.53130138 0.12962972 0.029335039
0.53132701 0.13047382 0.029329894
0.5313527 0.13131793 0.029324749
0.53056264 0.13237132 0.028743498
0.53160203 0.040866524 0.030950805
0.5324474 0.041667018 0.031521995
0.53247285 0.042504754 0.031516891
0.5324983 0.04334249 0.031511784
0.53334349 0.04413661 0.032083012
0.53418857 0.044927549 0.032654259
0.53421396 0.045762099 0.032649171
0.53423929 0.04659665 0.032644086
0.53426468 0.047431201 0.032639001
0.53429008 0.048265751 0.032633916
0.53431541 0.049100302 0.032628831
0.5343408 0.049934853 0.032623746
0.53518552 0.050713044 0.033195104
0.53521085 0.051546004 0.033190031
0.53523618 0.05237896 0.033184953
0.53526145 0.05321192 0.033179879
0.53528678 0.054044876 0.033174802
0.53531212 0.054877836 0.033169724
0.53533745 0.055710796 0.03316465
0.53536278 0.056543753 0.033159573
0.53538805 0.057376709 0.033154499
0.53541338 0.058209669 0.033149421
0.53461981 0.059114914 0.032567803
0.5346452 0.059949465 0.032562718
0.53467053 0.060784016 0.032557633
0.53469592 0.061618567 0.032552548
0.53472126 0.062453117 0.032547463
0.53474665 0.063287668 0.032542378
0.53477204 0.064122215 0.032537289
0.53479737 0.064956769 0.032532204
0.53482276 0.065791324 0.032527119
0.53484809 0.066625871 0.032522034
0.53487349 0.067460425 0.032516949
0.53489882 0.068294972 0.032511864
0.53492421 0.069129527 0.032506779
0.5349496 0.069964074 0.032501694
0.53497493 0.070798628 0.032496605
0.53500032 0.071633182 0.03249152
0.53502566 0.072467729 0.032486435
0.53505105 0.073302276 0.03248135
0.53507638 0.074136831 0.032476265
0.53510177 0.074971378 0.03247118
0.53512716 0.075805932 0.032466095
0.53433466 0.07674621 0.031884298
0.53436011 0.077582359 0.031879205
0.5343855 0.078418501 0.031874109
0.53441089 0.079254642 0.031869013
0.53443635 0.080090784 0.031863917
0.53364414 0.081040621 0.031282064
0.53366965 0.081878357 0.031276956
0.5336951 0.082716085 0.031271853
0.53372055 0.083553828 0.031266749
0.533746 0.084391564 0.031261642
0.53377146 0.0852293 0.031256538
0.53379697 0.086067036 0.031251434
0.53382242 0.086904772 0.031246329
0.53384787 0.087742507 0.031241223
0.5330562 0.088708267 0.030659271
0.53308171 0.089547597 0.030654157
0.53310722 0.090386927 0.030649042
0.53313273 0.091226257 0.030643927
0.53315824 0.092065588 0.030638812
0.53318375 0.092904918 0.030633697
0.53320926 0.093744241 0.030628582
0.53323478 0.094583571 0.030623468
0.53326029 0.095422901 0.030618353
0.5332858 0.096262231 0.03061324
0.53331131 0.097101554 0.030608125
0.53333682 0.097940885 0.03060301
0.53336233 0.098780207 0.030597895
0.53338784 0.099619545 0.030592781
0.53341335 0.10045888 0.030587666
0.53343886 0.1012982 0.030582551
0.53346437 0.10213754 0.030577436
0.53348988 0.10297686 0.030572321
0.53351539 0.10381619 0.030567206
0.5335409 0.10465551 0.030562093
0.53356642 0.10549484 0.030556979
0.53359193 0.10633416 0.030551864
0.53361744 0.1071735 0.030546749
0.53364295 0.10801283 0.030541634
0.53366846 0.10885216 0.030536519
0.53369397 0.10969149 0.030531405
0.53371948 0.11053082 0.03052629
0.53374499 0.11137015 0.030521175
0.5337705 0.11220947 0.03051606
0.53379601 0.1130488 0.030510947
0.53382152 0.11388814 0.030505832
0.53384703 0.11472746 0.030500717
0.53387254 0.1155668 0.030495603
0.53308249 0.1165867 0.029913319
0.53310806 0.11742762 0.029908195
0.53313363 0.11826854 0.029903071
0.5331592 0.11910946 0.029897947
0.53318477 0.11995038 0.029892823
0.53239495 0.12097986 0.029310446
0.53242058 0.12182238 0.029305313
0.53244615 0.12266489 0.029300179
0.53247178 0.12350741 0.029295044
0.53249741 0.12434992 0.029289911
0.53252298 0.12519243 0.029284777
0.53173357 0.12623304 0.028702367
0.53175926 0.12707715 0.028697224
0.53178489 0.12792127 0.02869208
0.53099567 0.12896824 0.028109636
0.53102136 0.12981395 0.028104482
0.53104711 0.13065964 0.028099328
0.5310728 0.13150536 0.028094176
0.53109848 0.13235104 0.028089022
0.53112417 0.13319674 0.028083868
0.530496 0.040920816 0.02914617
0.53134048 0.041724529 0.029718608
0.53218484 0.04252506 0.030291028
0.53221035 0.043364391 0.030285913
0.53305459 0.044160143 0.030858366
0.53389871 0.044952709 0.031430833
0.5339241 0.045788851 0.031425737
0.5347681 0.046576641 0.031998239
0.53397495 0.047461137 0.031415548
0.53481883 0.048245743 0.031988069
0.53484422 0.049080294 0.031982981
0.53486955 0.049914844 0.031977896
0.53489494 0.050749395 0.031972811
0.53492033 0.051583946 0.031967726
0.53494567 0.052418496 0.031962641
0.53497106 0.053253047 0.031957556
0.53499639 0.054087598 0.031952471
0.53502178 0.054922149 0.031947382
0.53504711 0.055756699 0.031942297
0.53507251 0.05659125 0.031937212
0.5350979 0.057425801 0.031932127
0.53512323 0.058260355 0.031927042
0.53514862 0.059094906 0.031921957
0.53517395 0.059929457 0.031916872
0.53519934 0.060764007 0.031911787
0.53522468 0.061598558 0.031906698
0.53525007 0.062433109 0.031901613
0.53527546 0.063267656 0.031896528
0.53530079 0.06410221 0.031891443
0.53532618 0.064936765 0.031886358
0.53535151 0.065771312 0.031881273
0.53537691 0.066605859 0.031876188
0.5354023 0.067440413 0.031871099
0.53542763 0.06827496 0.031866014
0.53545302 0.069109514 0.031860929
0.53466117 0.070037015 0.031277977
0.53468657 0.070873164 0.031272881
0.53471202 0.071709305 0.031267785
0.53473741 0.072545446 0.031262692
0.5347628 0.073381588 0.031257596
0.53478825 0.074217737 0.0312525
0.53481364 0.075053878 0.031247405
0.53483909 0.07589002 0.031242311
0.53486449 0.076726168 0.031237215
0.53488988 0.07756231 0.03123212
0.53409857 0.078507327 0.030649062
0.53412402 0.079345062 0.030643959
0.53414953 0.080182798 0.030638853
0.53417498 0.081020534 0.030633748
0.53420043 0.08185827 0.030628644
0.53422588 0.082696006 0.030623538
0.53425139 0.083533742 0.030618433
0.53346044 0.084491499 0.030035296
0.53348595 0.085330829 0.030030182
0.53351146 0.086170159 0.030025067
0.53353697 0.087009482 0.030019952
0.53356248 0.087848812 0.030014837
0.53358799 0.088688143 0.030009722
0.5336135 0.089527473 0.030004608
0.53363901 0.090366803 0.029999493
0.53366452 0.091206133 0.02999438
0.53287411 0.092179812 0.029411148
0.53289968 0.093020737 0.029406022
0.53292519 0.093861662 0.029400898
0.53295076 0.094702579 0.029395774
0.53297633 0.095543504 0.02939065
0.5330019 0.096384421 0.029385526
0.53302747 0.097225346 0.029380402
0.53305304 0.09806627 0.029375277
0.53307855 0.098907188 0.029370153
0.53310412 0.099748112 0.029365029
0.53312969 0.10058903 0.029359903
0.53397065 0.10127807 0.029933004
0.53399616 0.10211741 0.029927889
0.53402168 0.10295673 0.029922774
0.53404719 0.10379606 0.029917659
0.5340727 0.1046354 0.029912544
0.53409821 0.10547472 0.02990743
0.53412372 0.10631404 0.029902315
0.53414923 0.10715338 0.0298972
0.53417474 0.10799271 0.029892085
0.53420025 0.10883204 0.029886972
0.53422582 0.10967137 0.029881857
0.53425133 0.11051069 0.029876743
0.53427684 0.11135003 0.029871628
0.53348756 0.11236193 0.029288163
0.53351307 0.11320285 0.029283039
0.53353864 0.11404378 0.029277915
0.53356421 0.1148847 0.029272789
0.53358978 0.11572561 0.029267665
0.53361535 0.11656654 0.029262541
0.53364092 0.11740746 0.029257417
0.53285193 0.11843212 0.028673837
0.53287756 0.11927464 0.028668704
0.53290319 0.12011714 0.028663568
0.53292876 0.12095966 0.028658435
0.53295439 0.12180218 0.028653301
0.53298002 0.12264469 0.028648166
0.53219146 0.12368049 0.028064556
0.53221709 0.12452459 0.028059414
0.53224277 0.1253687 0.028054269
0.5322684 0.12621281 0.028049126
0.53229409 0.12705691 0.028043982
0.53150582 0.12810227 0.027460311
0.53153151 0.12894797 0.027455157
0.5315572 0.12979367 0.027450005
0.53158295 0.13063937 0.027444851
0.53160864 0.13148507 0.027439697
0.53082067 0.13253997 0.026855968
0.53108102 0.042585645 0.02848389
0.53192443 0.043386213 0.029057577
0.53195 0.044227134 0.029052453
0.53361088 0.044977792 0.030204946
0.53445393 0.045768805 0.030778658
0.53447932 0.04660495 0.030773561
0.53450477 0.047441091 0.030768467
0.53453016 0.048277237 0.030763371
0.53455561 0.049113382 0.030758277
0.53458101 0.049949523 0.03075318
0.5346064 0.050785664 0.030748086
0.53463185 0.05162181 0.03074299
0.53465724 0.052457955 0.030737896
0.53468269 0.053294096 0.030732799
0.53470808 0.054130241 0.030727705
0.53473347 0.054966383 0.030722609
0.53475893 0.055802528 0.030717514
0.53478432 0.056638673 0.030712418
0.53480971 0.057474814 0.030707324
0.53483516 0.058310956 0.030702228
0.53486055 0.059147105 0.030697133
0.534886 0.059983246 0.030692037
0.53491139 0.060819391 0.030686943
0.53493679 0.061655533 0.030681849
0.53496224 0.062491678 0.030676752
0.53498763 0.063327819 0.030671658
0.53501308 0.064163961 0.030666562
0.53503847 0.065000102 0.030661467
0.53506386 0.065836251 0.030656371
0.53508931 0.066672392 0.030651277
0.53511471 0.067508534 0.030646181
0.53514016 0.068344682 0.030641086
0.53516555 0.069180824 0.03063599
0.53519094 0.070016965 0.030630896
0.53521639 0.070853114 0.0306258
0.53524178 0.071689256 0.030620705
0.53526723 0.072525397 0.030615609
0.53447664 0.073460825 0.030031377
0.53450209 0.074298561 0.030026272
0.53452754 0.075136296 0.030021168
0.53455299 0.075974032 0.030016063
0.53457844 0.076811768 0.030010957
0.53460395 0.077649504 0.030005854
0.5346294 0.07848724 0.030000748
0.53465486 0.079324976 0.029995643
0.53468031 0.080162711 0.029990539
0.53389019 0.081114061 0.029406207
0.5339157 0.081953391 0.029401092
0.53394121 0.082792722 0.029395977
0.53396678 0.083632052 0.029390862
0.53399229 0.084471375 0.029385747
0.5340178 0.085310705 0.029380633
0.53404331 0.086150035 0.02937552
0.53325355 0.087114125 0.028791113
0.53327912 0.08795505 0.028785989
0.53330469 0.088795967 0.028780863
0.53333026 0.089636892 0.028775739
0.53335583 0.090477817 0.028770614
0.53338134 0.091318734 0.02876549
0.53340691 0.092159651 0.028760366
0.53343248 0.093000576 0.028755242
0.53345805 0.093841501 0.028750118
0.53348362 0.094682418 0.028744994
0.53350919 0.095523342 0.02873987
0.53353471 0.09636426 0.028734744
0.53356028 0.097205184 0.028729619
0.53358585 0.098046109 0.028724495
0.53361142 0.098887026 0.028719371
0.53363699 0.099727951 0.028714247
0.5336625 0.10056887 0.028709123
0.53368807 0.10140979 0.028703999
0.53371364 0.10225072 0.028698875
0.53373921 0.10309163 0.028693751
0.53376478 0.10393255 0.028688625
0.53379035 0.10477348 0.0286835
0.53381586 0.1056144 0.028678376
0.53384143 0.10645532 0.028673252
0.533867 0.10729624 0.028668128
0.53389257 0.10813716 0.028663004
0.53391814 0.10897809 0.02865788
0.53394371 0.10981901 0.028652756
0.53396922 0.11065993 0.028647631
0.53399479 0.11150084 0.028642505
0.53402036 0.11234177 0.028637381
0.53404593 0.11318269 0.028632257
0.53407151 0.11402362 0.028627133
0.53328335 0.11504187 0.028042361
0.53330898 0.11588439 0.028037228
0.53333455 0.11672689 0.028032094
0.53336018 0.11756941 0.028026959
0.53338581 0.11841192 0.028021825
0.53341138 0.11925443 0.028016692
0.53262365 0.12028383 0.027431887
0.53264934 0.12112793 0.027426744
0.53267497 0.12197204 0.027421599
0.53270066 0.12281615 0.027416456
0.53272629 0.12366025 0.027411312
0.53275198 0.12450436 0.027406167
0.53277761 0.12534846 0.027401024
0.53199029 0.12639059 0.026816139
0.53201598 0.12723629 0.026810985
0.53204167 0.12808199 0.026805833
0.53206736 0.12892769 0.026800679
0.53209311 0.12977339 0.026795525
0.53130603 0.13082507 0.026210586
0.53133178 0.13167237 0.026205422
0.52829605 0.041028939 0.025522146
0.5316661 0.044250473 0.02782161
0.53332502 0.045002803 0.028976591
0.53498375 0.045748759 0.030131577
0.53500915 0.046584904 0.03012648
0.53503454 0.047421046 0.030121386
0.53505999 0.048257191 0.03011629
0.53508538 0.049093332 0.030111196
0.53511083 0.049929477 0.030106099
0.53513622 0.050765619 0.030101005
0.53516161 0.051601764 0.030095909
0.53518707 0.052437909 0.030090814
0.53521246 0.05327405 0.030085718
0.53523791 0.054110192 0.030080624
0.5352633 0.054946337 0.030075528
0.53528869 0.055782482 0.030070433
0.53531414 0.056618623 0.030065337
0.53533953 0.057454769 0.030060243
0.53536493 0.05829091 0.030055147
0.53539038 0.059127055 0.030050052
0.53541577 0.0599632 0.030044956
0.53544122 0.060799342 0.030039862
0.53465092 0.061712429 0.029454533
0.53467637 0.062550165 0.029449428
0.53470188 0.063387901 0.029444322
0.53472733 0.064225644 0.029439216
0.53475279 0.06506338 0.029434113
0.53477824 0.065901116 0.029429007
0.53480375 0.066738851 0.029423902
0.5348292 0.067576587 0.029418798
0.53485465 0.068414323 0.029413693
0.5348801 0.069252059 0.029408587
0.53490555 0.070089795 0.029403483
0.53493106 0.070927531 0.029398378
0.53495651 0.071765266 0.029393272
0.53498197 0.072603002 0.029388169
0.53500742 0.073440738 0.029383063
0.53503287 0.074278474 0.029377958
0.53505838 0.07511621 0.029372854
0.53508383 0.075953946 0.029367749
0.53429449 0.076897301 0.028782235
0.53432 0.077736631 0.028777121
0.53434551 0.078575954 0.028772006
0.53437102 0.079415284 0.028766891
0.53439653 0.080254614 0.028761776
0.53442204 0.081093937 0.028756661
0.53444755 0.081933267 0.028751547
0.53447306 0.082772598 0.028746432
0.53368413 0.08373028 0.028160831
0.5337097 0.084571198 0.028155707
0.53373528 0.085412122 0.028150583
0.53376085 0.086253047 0.028145459
0.53378642 0.087093964 0.028140334
0.53381193 0.087934889 0.02813521
0.53302336 0.088903725 0.027549505
0.53304893 0.089746237 0.027544372
0.53307456 0.090588756 0.027539236
0.53310019 0.091431268 0.027534103
0.53312576 0.092273787 0.02752897
0.53315139 0.093116298 0.027523836
0.53317702 0.09395881 0.027518701
0.53320259 0.094801329 0.027513567
0.53322822 0.095643833 0.027508434
0.53325379 0.096486352 0.027503299
0.53327942 0.097328871 0.027498165
0.53330505 0.098171383 0.027493032
0.53333062 0.099013895 0.027487896
0.53335625 0.099856414 0.027482763
0.53338188 0.10069893 0.027477629
0.53340745 0.10154144 0.027472494
0.53343308 0.10238396 0.027467361
0.53345871 0.10322646 0.027462227
0.53348428 0.10406898 0.027457092
0.53350991 0.10491149 0.027451959
0.53353548 0.10575401 0.027446825
0.53356111 0.10659652 0.02744169
0.53358674 0.10743904 0.027436556
0.53361231 0.10828155 0.027431423
0.53363794 0.10912406 0.027426288
0.53366357 0.10996658 0.027421154
0.53368914 0.1108091 0.027416021
0.53371477 0.11165161 0.027410885
0.5337404 0.11249412 0.027405752
0.53376597 0.11333664 0.027400618
0.5337916 0.11417916 0.027395483
0.53381723 0.11502167 0.02739035
0.5338428 0.11586419 0.027385216
0.5330559 0.11688716 0.026799217
0.53308153 0.11773127 0.026794072
0.53310722 0.11857537 0.026788929
0.53313285 0.11941949 0.026783785
0.53315854 0.12026359 0.026778642
0.53318417 0.12110769 0.026773497
0.53320986 0.1219518 0.026768355
0.53323549 0.1227959 0.02676321
0.53244901 0.12383322 0.026177125
0.5324747 0.12467892 0.026171971
0.53250045 0.12552463 0.026166817
0.53252614 0.12637033 0.026161663
0.53255183 0.12721601 0.026156511
0.53257751 0.12806173 0.026151357
0.53179139 0.12911019 0.025565203
0.53181714 0.12995748 0.02556004
0.53184289 0.13080476 0.025554877
0.53186864 0.13165206 0.025549714
0.52557045 0.041156951 0.022540307
0.53385687 0.044982679 0.028327042
0.53469795 0.045775358 0.028903211
0.5347234 0.046613097 0.028898107
0.53474885 0.047450833 0.028893001
0.53477436 0.048288569 0.028887896
0.53479981 0.049126305 0.028882792
0.53482527 0.049964041 0.028877687
0.53485072 0.050801776 0.028872581
0.53487617 0.051639512 0.028867478
0.53490168 0.052477252 0.028862372
0.53492713 0.053314984 0.028857267
0.53495258 0.05415272 0.028852163
0.53497803 0.054990456 0.028847057
0.53500348 0.055828191 0.028841952
0.53502899 0.056665927 0.028836846
0.53505445 0.057503663 0.028831743
0.5350799 0.058341399 0.028826637
0.53510535 0.059179138 0.028821532
0.5351308 0.060016874 0.028816428
0.53515631 0.06085461 0.028811323
0.53518176 0.061692346 0.028806217
0.53520721 0.062530085 0.028801113
0.53523266 0.063367821 0.028796008
0.53525811 0.064205557 0.028790902
0.53528363 0.065043293 0.028785799
0.53530908 0.065881029 0.028780693
0.53533453 0.066718765 0.028775588
0.53535998 0.0675565 0.028770482
0.53457117 0.068483882 0.028183833
0.53459668 0.069323212 0.028178718
0.53462219 0.070162542 0.028173603
0.5346477 0.071001872 0.028168488
0.53467321 0.071841203 0.028163375
0.53469872 0.072680525 0.028158261
0.53472424 0.073519856 0.028153146
0.53474975 0.074359186 0.028148031
0.53477526 0.075198516 0.028142916
0.53480077 0.076037839 0.028137801
0.53482628 0.076877177 0.028132686
0.53485179 0.077716507 0.028127572
0.5348773 0.07855583 0.028122457
0.53408921 0.079505511 0.027535671
0.53411472 0.080346435 0.027530547
0.53414029 0.081187353 0.027525423
0.53416586 0.082028277 0.027520299
0.53419143 0.082869194 0.027515175
0.534217 0.083710119 0.027510051
0.53424257 0.084551036 0.027504925
0.53345472 0.085513473 0.026918029
0.53348035 0.086355984 0.026912896
0.53350598 0.087198496 0.026907763
0.53353155 0.088041015 0.026902627
0.53355718 0.088883527 0.026897494
0.53358281 0.089726038 0.02689236
0.53279537 0.090699613 0.026305428
0.53282106 0.091543719 0.026300285
0.53284669 0.092387825 0.02629514
0.53287232 0.093231931 0.026289998
0.53289801 0.094076037 0.026284853
0.53292364 0.094920143 0.02627971
0.53294933 0.095764257 0.026274566
0.53297496 0.096608356 0.026269423
0.53300065 0.097452469 0.026264278
0.53302628 0.098296575 0.026259134
0.53305197 0.099140681 0.026253991
0.5330776 0.099984787 0.026248846
0.53310329 0.10082889 0.026243703
0.53312892 0.101673 0.026238559
0.53315455 0.10251711 0.026233416
0.53318024 0.10336121 0.026228271
0.53320587 0.10420532 0.026223129
0.53404373 0.10489129 0.026799947
0.53406936 0.10573381 0.026794814
0.53409493 0.10657632 0.026789678
0.53412056 0.10741884 0.026784545
0.53414619 0.10826135 0.026779411
0.53335983 0.10926996 0.026192266
0.53338546 0.11011407 0.026187122
0.53341115 0.11095817 0.026181977
0.53343678 0.11180229 0.026176834
0.53346246 0.11264639 0.02617169
0.53348809 0.1134905 0.026166547
0.53351378 0.11433461 0.026161402
0.53353941 0.11517871 0.02615626
0.5335651 0.11602282 0.026151115
0.53359073 0.11686692 0.026145972
0.53361642 0.11771104 0.026140828
0.53283066 0.11873875 0.025553567
0.53285635 0.11958445 0.025548413
0.53288203 0.12043015 0.025543259
0.53290772 0.12127585 0.025538106
0.53293347 0.12212156 0.025532953
0.53295916 0.12296724 0.0255278
0.53298485 0.12381295 0.025522646
0.53301054 0.12465864 0.025517492
0.53303629 0.12550434 0.02551234
0.53306198 0.12635005 0.025507186
0.53308767 0.12719575 0.025502032
0.53311342 0.12804145 0.025496878
0.53232825 0.12908986 0.024909491
0.532354 0.12993717 0.024904327
0.53237975 0.13078445 0.024899164
0.51470405 0.041655201 0.013723937
0.5204345 0.04226223 0.017795887
0.53522873 0.045755275 0.028254896
0.53525424 0.04659301 0.028249791
0.53527969 0.047430746 0.028244687
0.53530514 0.048268482 0.028239582
0.53533059 0.049106222 0.028234476
0.53454173 0.049998526 0.027646808
0.53538156 0.05078169 0.028224267
0.53540701 0.051619425 0.028219162
0.53543246 0.052457165 0.028214058
0.53545791 0.053294901 0.028208952
0.53466928 0.054195173 0.027621234
0.53469479 0.0550345 0.027616119
0.53553432 0.055808108 0.028193638
0.53474581 0.056713156 0.027605889
0.53477132 0.057552487 0.027600775
0.53479683 0.058391817 0.027595662
0.53482234 0.059231143 0.027590547
0.53484786 0.060070474 0.027585432
0.53487337 0.0609098 0.027580317
0.53489888 0.06174913 0.027575202
0.53492439 0.062588461 0.027570087
0.53494996 0.063427791 0.027564973
0.53497547 0.064267114 0.027559858
0.53500098 0.065106444 0.027554743
0.53502649 0.065945774 0.027549628
0.535052 0.066785105 0.027544515
0.53507751 0.067624435 0.0275394
0.53510302 0.068463765 0.027534286
0.53512853 0.069303088 0.027529171
0.53515404 0.070142418 0.027524056
0.53517956 0.070981748 0.027518941
0.53520507 0.071821079 0.027513826
0.53441751 0.072757982 0.026925888
0.53444308 0.073598899 0.026920764
0.53446865 0.074439824 0.02691564
0.53449422 0.075280741 0.026910516
0.53451979 0.076121666 0.026905391
0.5345453 0.076962583 0.026900265
0.53457087 0.077803507 0.026895141
0.53459644 0.078644432 0.026890017
0.53462201 0.079485349 0.026884893
0.53464758 0.080326274 0.026879769
0.53467315 0.081167191 0.026874645
0.53388613 0.082123213 0.026286552
0.53391176 0.082965724 0.026281418
0.53393739 0.083808243 0.026276283
0.53396297 0.084650755 0.02627115
0.5339886 0.085493267 0.026266016
0.53401417 0.086335786 0.026260881
0.53322762 0.087302946 0.025672758
0.53325325 0.088147052 0.025667615
0.53327888 0.088991158 0.025662471
0.53330457 0.089835264 0.025657328
0.5333302 0.090679377 0.025652183
0.53335589 0.091523483 0.025647039
0.53338152 0.092367589 0.025641896
0.53340721 0.093211696 0.025636751
0.53343284 0.094055802 0.025631608
0.53345853 0.094899908 0.025626464
0.53348416 0.095744014 0.025621321
0.53350985 0.09658812 0.025616176
0.53353548 0.097432233 0.025611034
0.53356111 0.098276339 0.025605889
0.53277528 0.099267386 0.025017617
0.53280097 0.10011309 0.025012465
0.53363812 0.10080866 0.025590459
0.53366375 0.10165276 0.025585314
0.53368944 0.10249687 0.025580171
0.53371507 0.10334098 0.025575027
0.53374076 0.10418508 0.025569882
0.53376639 0.10502919 0.025564739
0.53379202 0.10587329 0.025559595
0.53381771 0.1067174 0.025554452
0.53384334 0.10756151 0.025549307
0.53386903 0.10840562 0.025544165
0.53389466 0.10924973 0.02553902
0.53392035 0.11009383 0.025533877
0.53394598 0.11093794 0.025528733
0.53397167 0.11178204 0.02552359
0.5339973 0.11262615 0.025518445
0.53321224 0.11364428 0.02493001
0.53323793 0.11448998 0.024924856
0.53326368 0.11533568 0.024919702
0.53328937 0.11618138 0.024914548
0.53331506 0.11702707 0.024909396
0.53334081 0.11787277 0.024904242
0.5333665 0.11871847 0.024899088
0.53339219 0.11956418 0.024893936
0.53341788 0.12040987 0.024888782
0.53344363 0.12125558 0.024883628
0.53346932 0.12210128 0.024878474
0.53349501 0.12294697 0.024873322
0.5335207 0.12379267 0.024868168
0.53354645 0.12463837 0.024863014
0.53357214 0.12548408 0.02485786
0.53359783 0.12632976 0.024852708
0.53362352 0.12717547 0.024847554
0.53283936 0.12822226 0.024258945
0.53286511 0.12906955 0.024253782
0.53289086 0.12991685 0.024248619
0.5054937 0.04207835 0.0060404344
0.51040381 0.042743366 0.0095372004
0.53494602 0.045781761 0.027022835
0.53497154 0.046621088 0.02701772
0.53581047 0.047410663 0.027596371
0.53502256 0.048299748 0.027007492
0.53504807 0.049139075 0.027002377
0.53507358 0.049978405 0.026997263
0.53509909 0.050817732 0.026992148
0.5351246 0.051657062 0.026987033
0.53515011 0.052496392 0.026981918
0.53517562 0.053335719 0.026976803
0.53520113 0.054175049 0.026971688
0.53522664 0.055014376 0.026966574
0.53525215 0.05585371 0.026961459
0.53527766 0.056693036 0.026956344
0.53530318 0.057532363 0.026951231
0.53532869 0.058371693 0.026946116
0.5353542 0.059211023 0.026941001
0.53537971 0.06005035 0.026935887
0.53540522 0.06088968 0.026930772
0.53543073 0.061729006 0.026925657
0.53545624 0.062568337 0.026920542
0.53548175 0.063407667 0.026915427
0.53550726 0.06424699 0.026910312
0.53553277 0.06508632 0.026905198
0.53474587 0.066010445 0.026316101
0.53477144 0.06685137 0.026310977
0.53479701 0.067692287 0.026305852
0.53482258 0.068533212 0.026300728
0.53484809 0.069374129 0.026295604
0.53487366 0.070215054 0.02629048
0.53489923 0.071055979 0.026285356
0.53492481 0.071896896 0.026280232
0.53495038 0.07273782 0.026275106
0.53497595 0.073578738 0.026269982
0.53500146 0.074419662 0.026264858
0.53502703 0.07526058 0.026259733
0.53424072 0.07620541 0.025670478
0.53426635 0.077047929 0.025665345
0.53429192 0.077890448 0.025660209
0.53431755 0.07873296 0.025655076
0.53434318 0.079575472 0.025649942
0.53436875 0.080417983 0.025644807
0.53439438 0.081260495 0.025639674
0.53442001 0.082103014 0.02563454
0.53444558 0.082945526 0.025629405
0.53365982 0.083906285 0.025040088
0.53368545 0.084750392 0.025034944
0.53371114 0.085594498 0.025029801
0.53373677 0.086438604 0.025024656
0.53376245 0.08728271 0.025019513
0.53378808 0.088126816 0.025014369
0.53381377 0.088970922 0.025009226
0.53302836 0.089944415 0.024419831
0.53305405 0.090790115 0.024414677
0.5330798 0.091635816 0.024409523
0.53310549 0.092481516 0.024404369
0.53313118 0.093327217 0.024399217
0.53315687 0.094172917 0.024394063
0.53318262 0.095018618 0.024388909
0.53320831 0.095864311 0.024383755
0.533234 0.096710011 0.024378603
0.53325969 0.097555712 0.024373449
0.53328544 0.098401412 0.024368295
0.53331113 0.099247105 0.024363143
0.53333682 0.10009281 0.024357989
0.53336251 0.10093851 0.024352835
0.53338826 0.10178421 0.024347682
0.53341395 0.10262991 0.024342529
0.53343964 0.10347561 0.024337376
0.53346533 0.10432131 0.024332222
0.53349108 0.10516701 0.024327068
0.53351676 0.10601271 0.024321916
0.53354245 0.1068584 0.024316762
0.5335682 0.10770411 0.024311608
0.53359389 0.1085498 0.024306454
0.53361958 0.1093955 0.024301302
0.53364527 0.1102412 0.024296148
0.53367102 0.11108691 0.024290994
0.53369671 0.11193261 0.02428584
0.5337224 0.1127783 0.024280688
0.53374809 0.113624 0.024275534
0.53377384 0.11446971 0.02427038
0.53379953 0.1153154 0.024265226
0.53301567 0.11633986 0.023675522
0.53304142 0.11718715 0.023670359
0.53306717 0.11803444 0.023665195
0.53309292 0.11888173 0.023660032
0.53311867 0.11972903 0.023654869
0.53314447 0.12057631 0.023649706
0.53317022 0.12142362 0.023644542
0.53319597 0.12227091 0.023639379
0.53322172 0.12311819 0.023634216
0.5340566 0.1237724 0.024213692
0.53327322 0.12481278 0.023623889
0.53410798 0.1254638 0.024203384
0.53413367 0.1263095 0.024198232
0.53335047 0.12735467 0.0236084
0.4987461 0.04238965 8.2149651e-05
0.50283784 0.043107796 0.0030012908
0.53547782 0.045761637 0.026373284
0.53550333 0.046600968 0.026368169
0.53552884 0.047440294 0.026363054
0.53555435 0.048279624 0.026357941
0.53557986 0.049118955 0.026352827
0.53560537 0.049958281 0.026347712
0.53481865 0.050853699 0.025757559
0.53484416 0.05169462 0.025752435
0.53486973 0.052535541 0.02574731
0.5348953 0.053376462 0.025742184
0.53492087 0.054217383 0.02573706
0.53494644 0.055058304 0.025731936
0.53497201 0.055899229 0.025726812
0.53499752 0.05674015 0.025721688
0.53502309 0.057581071 0.025716564
0.53504866 0.058421992 0.02571144
0.53507423 0.059262913 0.025706315
0.5350998 0.060103834 0.025701191
0.53512537 0.060944755 0.025696065
0.53515089 0.061785676 0.025690941
0.53517646 0.0626266 0.025685817
0.53520203 0.063467525 0.025680693
0.5352276 0.064308442 0.025675569
0.53525317 0.065149367 0.025670445
0.53527874 0.065990284 0.02566532
0.53530425 0.066831209 0.025660196
0.53451848 0.067760073 0.025069805
0.53454411 0.068602584 0.02506467
0.53456968 0.069445103 0.025059536
0.53459531 0.070287623 0.025054403
0.53462094 0.071130134 0.025049267
0.53464651 0.071972646 0.025044134
0.53467214 0.072815157 0.025039
0.53469777 0.073657677 0.025033865
0.53472334 0.074500188 0.025028732
0.53474897 0.0753427 0.025023598
0.53477454 0.076185212 0.025018463
0.53480017 0.077027731 0.025013329
0.5348258 0.07787025 0.025008196
0.53404075 0.078821406 0.024417702
0.53406638 0.079665512 0.024412559
0.53409201 0.080509618 0.024407415
0.5341177 0.081353724 0.024402272
0.53414333 0.08219783 0.024397127
0.53416902 0.083041936 0.024391985
0.53419465 0.08388605 0.02438684
0.53422034 0.084730148 0.024381697
0.53424597 0.085574254 0.024376553
0.53346139 0.086541347 0.023785964
0.53348708 0.087387048 0.02378081
0.53351283 0.088232741 0.023775656
0.53353852 0.089078441 0.023770502
0.53356421 0.089924142 0.02376535
0.5335899 0.090769842 0.023760196
0.53361565 0.091615543 0.023755042
0.53364134 0.092461243 0.02374989
0.53366703 0.093306944 0.023744736
0.53288293 0.094289951 0.023154048
0.53290868 0.095137246 0.023148885
0.53293449 0.095984533 0.023143722
0.53296024 0.096831821 0.023138558
0.53298599 0.097679123 0.023133395
0.53301173 0.098526411 0.023128234
0.53303748 0.099373698 0.023123071
0.53306323 0.100221 0.023117907
0.53308898 0.10106829 0.023112744
0.53311473 0.10191558 0.023107581
0.53314048 0.10276288 0.023102418
0.53316623 0.10361016 0.023097254
0.53319198 0.10445746 0.023092091
0.53321773 0.10530475 0.023086928
0.53324348 0.10615204 0.023081765
0.53326929 0.10699933 0.023076601
0.53329504 0.10784663 0.023071438
0.53332078 0.10869393 0.023066275
0.53334653 0.10954121 0.023061112
0.53337228 0.1103885 0.023055948
0.53339803 0.1112358 0.023050785
0.53342378 0.11208308 0.023045622
0.53344953 0.11293037 0.023040459
0.53347528 0.11377767 0.023035295
0.53350103 0.11462496 0.023030132
0.53352678 0.11547225 0.023024969
0.53355253 0.11631955 0.023019806
0.53276974 0.11734717 0.022428812
0.53360409 0.11801413 0.023009481
0.53282136 0.11904493 0.022418467
0.53284717 0.11989382 0.022413295
0.53368133 0.120556 0.022993991
0.53370708 0.1214033 0.022988828
0.53373283 0.12225059 0.022983665
0.53375858 0.12309788 0.022978501
0.53378433 0.12394518 0.022973338
0.53381008 0.12479247 0.022968175
0.53383583 0.12563975 0.022963012
0.53466958 0.12628922 0.023543751
0.53603518 0.046580844 0.025718624
0.53524923 0.047469851 0.025127277
0.5352748 0.048310772 0.025122153
0.53448892 0.049204562 0.024530742
0.53451455 0.050047077 0.024525607
0.53454018 0.050889593 0.024520474
0.53456575 0.051732104 0.02451534
0.53459138 0.05257462 0.024510205
0.53461695 0.053417135 0.024505071
0.53464258 0.054259647 0.024499938
0.53466821 0.055102162 0.024494803
0.53469378 0.055944677 0.024489669
0.53471941 0.056787193 0.024484536
0.53474504 0.057629704 0.0244794
0.53477061 0.058472216 0.024474267
0.53479624 0.059314735 0.024469133
0.53482187 0.060157247 0.024463998
0.53484744 0.060999759 0.024458865
0.53487307 0.061842274 0.024453731
0.5348987 0.062684789 0.024448596
0.53492427 0.063527308 0.024443462
0.5349499 0.06436982 0.024438329
0.53497547 0.065212332 0.024433194
0.5350011 0.066054851 0.02442806
0.53502673 0.066897362 0.024422927
0.5350523 0.067739874 0.024417792
0.53507793 0.068582386 0.024412658
0.53510356 0.069424905 0.024407525
0.53431898 0.070360102 0.023815898
0.53434467 0.071204208 0.023810754
0.5343703 0.072048314 0.023805611
0.53439599 0.07289242 0.023800466
0.53442162 0.073736526 0.023795323
0.53444731 0.074580632 0.023790179
0.53447294 0.075424738 0.023785036
0.53449857 0.076268844 0.023779891
0.53452426 0.077112958 0.023774749
0.53454989 0.077957064 0.023769604
0.53457558 0.07880117 0.023764461
0.53460121 0.079645276 0.023759317
0.5346269 0.080489382 0.023754174
0.53384304 0.081446871 0.023162408
0.53386873 0.082292572 0.023157256
0.53389442 0.083138265 0.023152102
0.53392017 0.083983973 0.023146948
0.53394586 0.084829673 0.023141794
0.53397155 0.085675366 0.023136642
0.53399724 0.086521067 0.023131488
0.53402299 0.087366767 0.023126334
0.53404868 0.088212468 0.02312118
0.53407437 0.089058168 0.023116028
0.53329104 0.090033174 0.022524156
0.53331679 0.090880468 0.022518992
0.53334254 0.091727763 0.022513829
0.53336829 0.092575058 0.022508666
0.53339404 0.093422346 0.022503503
0.53341979 0.094269641 0.022498339
0.5334456 0.095116928 0.022493176
0.53347135 0.095964216 0.022488013
0.5334971 0.096811511 0.02248285
0.53352284 0.097658806 0.022477686
0.53354859 0.0985061 0.022472525
0.53357434 0.099353388 0.022467362
0.53279161 0.10034911 0.021875331
0.53281742 0.101198 0.021870159
0.53284317 0.10204688 0.021864986
0.53286898 0.10289577 0.021859813
0.53370309 0.10358985 0.022441546
0.5329206 0.10459354 0.021849466
0.53294641 0.10544243 0.021844294
0.53297222 0.10629131 0.021839121
0.53299803 0.10714019 0.021833949
0.53302383 0.10798907 0.021828776
0.53304964 0.10883797 0.021823602
0.53307539 0.10968684 0.021818429
0.5331012 0.11053573 0.021813257
0.53312701 0.11138462 0.021808084
0.53315282 0.1122335 0.021802912
0.53317863 0.11308239 0.021797739
0.53320444 0.11393127 0.021792565
0.53323025 0.11478016 0.021787392
0.53325605 0.11562904 0.021782219
0.5332818 0.11647793 0.021777047
0.53330761 0.11732681 0.021771874
0.53333342 0.1181757 0.021766702
0.53335923 0.11902458 0.021761527
0.53338504 0.11987346 0.021756355
0.53341085 0.12072235 0.021751182
0.53343666 0.12157124 0.02174601
0.53346246 0.12242012 0.021740837
0.53348827 0.123269 0.021735664
0.53432119 0.12392487 0.022317629
0.53434694 0.12477215 0.022312466
0.53437269 0.12561944 0.022307303
0.52772957 0.049659811 0.018591305
0.53183293 0.051093444 0.021518413
0.53431505 0.05261362 0.023270668
0.53434074 0.053457726 0.023265526
0.53436637 0.054301832 0.023260381
0.534392 0.055145938 0.023255238
0.53441769 0.055990044 0.023250094
0.53444332 0.05683415 0.023244951
0.53446901 0.05767826 0.023239806
0.53449464 0.058522366 0.023234664
0.53452033 0.059366472 0.023229519
0.53454596 0.060210578 0.023224376
0.53457165 0.061054684 0.023219232
0.53459728 0.06189879 0.023214089
0.53462291 0.062742896 0.023208944
0.5346486 0.06358701 0.0232038
0.53467423 0.064431116 0.023198657
0.53469992 0.065275222 0.023193512
0.53472555 0.066119328 0.023188369
0.53475124 0.066963434 0.023183225
0.53477687 0.06780754 0.023178082
0.53480256 0.068651646 0.023172937
0.53482819 0.069495752 0.023167795
0.53485388 0.070339866 0.02316265
0.53487951 0.071183972 0.023157507
0.53409612 0.0721239 0.022564618
0.53412181 0.072969601 0.022559464
0.53414756 0.073815301 0.022554312
0.53417325 0.074661002 0.022549158
0.53419894 0.075506695 0.022544004
0.53422463 0.076352395 0.02253885
0.53425038 0.077198103 0.022533698
0.53427607 0.078043796 0.022528544
0.53430176 0.078889497 0.02252339
0.53432745 0.079735197 0.022518236
0.5343532 0.080580898 0.022513084
