# .PCD v0.7 - Point Cloud Data file format
VERSION 0.7
FIELDS x y z
SIZE 4 4 4
TYPE F F F
COUNT 1 1 1
WIDTH 1401
HEIGHT 1
VIEWPOINT 0 0 0 1 0 0 0
POINTS 1401
DATA ascii
0.53131217 0.14073411 0.021776443
0.53052992 0.14181113 0.021186417
0.53055584 0.14266479 0.021181215
0.53058183 0.14351846 0.021176012
0.52979976 0.14460184 0.020585949
0.52982575 0.14545709 0.020580737
0.52904379 0.14654528 0.019990604
0.52826196 0.14763662 0.01940049
0.52828807 0.14849506 0.01939526
0.52750641 0.14959119 0.018805116
0.52672482 0.1506905 0.018214956
0.52594334 0.15179302 0.01762474
0.52596956 0.15265623 0.017619479
0.52394521 0.06804011 0.017466942
0.52397144 0.068903327 0.017461682
0.52399766 0.069766544 0.017456422
0.52402395 0.070629761 0.017451162
0.52405018 0.071492985 0.0174459
0.52488756 0.072261885 0.018025946
0.52491373 0.073123507 0.018020695
0.52575094 0.073887639 0.018600736
0.5257771 0.074747667 0.018595494
0.52661413 0.075507022 0.019175565
0.5274511 0.076263182 0.019755652
0.52828801 0.07701616 0.020335795
0.52912474 0.077765957 0.02091592
0.52996141 0.078512564 0.021496067
0.52998734 0.079364643 0.021490876
0.53082383 0.080106474 0.02207105
0.5308497 0.080956943 0.022065869
0.53168607 0.081693999 0.022646073
0.53171188 0.082542881 0.022640901
0.53173769 0.083391771 0.022635728
0.53257388 0.084122449 0.023216007
0.53259969 0.084969744 0.023210844
0.53262544 0.085817032 0.023205681
0.53265119 0.086664326 0.023200518
0.53267694 0.087511614 0.023195354
0.53270268 0.088358909 0.023190191
0.53272843 0.089206204 0.023185028
0.53275418 0.090053491 0.023179865
0.53277993 0.090900786 0.023174701
0.53280568 0.091748081 0.023169538
0.53283143 0.092595369 0.023164375
0.53285718 0.093442656 0.023159212
0.53288293 0.094289951 0.023154048
0.53290868 0.095137246 0.023148885
0.53293449 0.095984533 0.023143722
0.53296024 0.096831821 0.023138558
0.53298599 0.097679123 0.023133395
0.53301173 0.098526411 0.023128234
0.53303748 0.099373698 0.023123071
0.53225374 0.10036947 0.022532271
0.53227955 0.10121836 0.022527097
0.5323053 0.10206723 0.022521924
0.53233111 0.10291612 0.022516752
0.53235692 0.10376501 0.022511579
0.53238273 0.10461389 0.022506407
0.53240854 0.10546277 0.022501234
0.53243434 0.10631166 0.02249606
0.53246015 0.10716055 0.022490887
0.53248596 0.10800943 0.022485714
0.53251171 0.10885832 0.022480542
0.53253752 0.10970719 0.022475369
0.53256333 0.11055609 0.022470197
0.53258914 0.11140497 0.022465022
0.53261495 0.11225385 0.02245985
0.53264076 0.11310274 0.022454677
0.53266656 0.11395162 0.022449505
0.53269237 0.11480051 0.022444332
0.53271818 0.11564939 0.022439159
0.53274393 0.11649828 0.022433985
0.53276974 0.11734717 0.022428812
0.53279555 0.11819605 0.02242364
0.53282136 0.11904493 0.022418467
0.53284717 0.11989382 0.022413295
0.53287297 0.1207427 0.022408122
0.53289878 0.12159158 0.02240295
0.53292459 0.12244047 0.022397775
0.5329504 0.12328935 0.022392603
0.53297615 0.12413824 0.02238743
0.53300196 0.12498713 0.022382258
0.53221977 0.12603225 0.021791192
0.53224564 0.12688273 0.02178601
0.5322715 0.1277332 0.021780826
0.53229731 0.12858368 0.021775644
0.53232318 0.12943415 0.021770462
0.53234905 0.13028464 0.021765279
0.53237486 0.13113511 0.021760097
0.53240073 0.1319856 0.021754913
0.53161895 0.13304505 0.021163762
0.53164488 0.13389713 0.021158569
0.53167075 0.1347492 0.021153377
0.53169668 0.13560127 0.021148184
0.53172255 0.13645335 0.021142993
0.53174847 0.13730541 0.0211378
0.530967 0.13837601 0.02054658
0.53099298 0.13922967 0.020541377
0.53101891 0.14008334 0.020536175
0.53104484 0.140937 0.020530974
0.53107083 0.14179066 0.020525772
0.53028965 0.14287083 0.019934496
0.5303157 0.14372608 0.019929284
0.53034168 0.14458133 0.019924073
0.52956069 0.14566788 0.01933272
0.5287798 0.1467576 0.018741382
0.52880591 0.14761603 0.018736152
0.52802521 0.14871053 0.018144786
0.52805138 0.14957058 0.018139545
0.52727079 0.15066984 0.017548149
0.52649027 0.15177232 0.0169567
0.5265165 0.15263553 0.01695144
0.52530253 0.067933097 0.017385395
0.52613902 0.068706818 0.017966611
0.52535492 0.06965635 0.017374896
0.52538115 0.070517972 0.017369645
0.52540731 0.071379602 0.017364394
0.52624357 0.072146952 0.017945647
0.52626973 0.073006988 0.017940408
0.5262959 0.073867016 0.017935166
0.52713197 0.074628003 0.018516459
0.52715808 0.075486436 0.018511228
0.52799404 0.076242641 0.019092547
0.52882993 0.076995656 0.019673923
0.52885592 0.077850915 0.019668711
0.52969164 0.078599155 0.020250082
0.53052723 0.079344213 0.020831469
0.53136271 0.080086082 0.021412879
0.53138858 0.080936559 0.021407695
0.53141445 0.081787035 0.021402514
0.53224975 0.082522534 0.021983961
0.53227556 0.083371416 0.021978788
0.53230137 0.084220305 0.021973616
0.53232718 0.085069194 0.021968443
0.5331623 0.085796721 0.022549972
0.53318805 0.086644009 0.022544809
0.53321379 0.087491304 0.022539645
0.53323954 0.088338591 0.022534482
0.53326529 0.089185886 0.022529319
0.53329104 0.090033174 0.022524156
0.53331679 0.090880468 0.022518992
0.53334254 0.091727763 0.022513829
0.53336829 0.092575058 0.022508666
0.53339404 0.093422346 0.022503503
0.53261095 0.094406925 0.021911541
0.53263676 0.0952558 0.021906368
0.53266257 0.096104696 0.021901196
0.53268838 0.096953578 0.021896023
0.53271419 0.09780246 0.021890851
0.53274 0.098651342 0.021885676
0.53276581 0.099500231 0.021880504
0.53279161 0.10034911 0.021875331
0.53281742 0.101198 0.021870159
0.53284317 0.10204688 0.021864986
0.53286898 0.10289577 0.021859813
0.53289479 0.10374466 0.021854639
0.5329206 0.10459354 0.021849466
0.53294641 0.10544243 0.021844294
0.53297222 0.10629131 0.021839121
0.53299803 0.10714019 0.021833949
0.53302383 0.10798907 0.021828776
0.53224164 0.10900231 0.021236671
0.53226751 0.10985279 0.021231489
0.53229332 0.11070327 0.021226306
0.53231919 0.11155374 0.021221124
0.53234506 0.11240423 0.02121594
0.53237092 0.1132547 0.021210758
0.53239673 0.11410518 0.021205576
0.5324226 0.11495566 0.021200392
0.53244847 0.11580613 0.021195211
0.53247428 0.11665661 0.021190029
0.53250015 0.11750709 0.021184845
0.53252602 0.11835757 0.021179663
0.53255183 0.11920804 0.021174479
0.53257769 0.12005852 0.021169297
0.53260356 0.12090899 0.021164116
0.53262943 0.12175947 0.021158932
0.53265524 0.12260996 0.02115375
0.53268111 0.12346043 0.021148568
0.53270698 0.12431091 0.021143384
0.53273278 0.12516138 0.021138202
0.53275865 0.12601186 0.021133019
0.53278452 0.12686233 0.021127837
0.53281033 0.12771282 0.021122655
0.53202933 0.12876427 0.020530317
0.53205526 0.12961634 0.020525124
0.53208113 0.13046841 0.020519933
0.53210706 0.13132048 0.02051474
0.53213298 0.13217255 0.020509548
0.53215885 0.13302462 0.020504355
0.53218478 0.1338767 0.020499162
0.53221065 0.13472877 0.020493971
0.53143007 0.13579455 0.019901549
0.53145605 0.13664822 0.019896347
0.53148198 0.13750188 0.019891145
0.53150791 0.13835555 0.019885942
0.5315339 0.13920921 0.019880742
0.53075361 0.14028455 0.019288259
0.5307796 0.14113981 0.019283047
0.53080559 0.14199506 0.019277835
0.53083158 0.14285032 0.019272624
0.53085756 0.14370558 0.019267412
0.53007752 0.1447905 0.018674836
0.53010356 0.14564733 0.018669615
0.52932376 0.14673702 0.018077048
0.52934986 0.14759545 0.018071815
0.52857018 0.14868991 0.017479217
0.52859628 0.14954996 0.017473975
0.52781671 0.15064919 0.016881347
0.52703726 0.15175162 0.016288666
0.52706349 0.15261485 0.016283406
0.52665782 0.067826167 0.017306279
0.52668399 0.068686202 0.017301038
0.52671009 0.06954623 0.017295798
0.52673626 0.070406266 0.017290557
0.52676237 0.071266301 0.017285317
0.52678853 0.072126336 0.017280076
0.52762371 0.072890542 0.017862583
0.52764982 0.073748976 0.01785735
0.52767593 0.074607417 0.01785212
0.52851087 0.075365253 0.018434662
0.52853692 0.076222099 0.018429441
0.5293718 0.076975152 0.019012049
0.52939785 0.077830411 0.019006837
0.53023249 0.078578688 0.019589441
0.53106713 0.079323784 0.020172061
0.531093 0.080175847 0.020166868
0.53192747 0.080916166 0.020749521
0.53195333 0.081766643 0.020744339
0.53197914 0.082617119 0.020739155
0.53200501 0.083467595 0.020733973
0.53283924 0.08419995 0.02131667
0.53286505 0.085048839 0.021311497
0.53289086 0.085897721 0.021306325
0.53291661 0.086746611 0.021301152
0.53294241 0.087595493 0.02129598
0.53296822 0.088444375 0.021290807
0.53299403 0.089293256 0.021285634
0.53301984 0.090142146 0.02128046
0.53304565 0.090991028 0.021275287
0.53307146 0.091839917 0.021270115
0.53309727 0.092688799 0.021264942
0.53312308 0.093537688 0.02125977
0.53314883 0.09438657 0.021254597
0.53317463 0.095235452 0.021249423
0.53320044 0.096084341 0.02124425
0.53322625 0.096933223 0.021239078
0.53325206 0.097782105 0.021233905
0.53247035 0.098776191 0.020640686
0.53249615 0.099626668 0.020635504
0.53252202 0.10047715 0.020630321
0.53254789 0.10132763 0.020625139
0.5325737 0.1021781 0.020619957
0.53259957 0.10302858 0.020614773
0.53262544 0.10387906 0.020609591
0.53265131 0.10472953 0.020604409
0.53267711 0.10558001 0.020599226
0.53270298 0.10643049 0.020594044
0.53272885 0.10728096 0.02058886
0.53275466 0.10813145 0.020583678
0.53278053 0.10898192 0.020578496
0.5328064 0.1098324 0.020573312
0.53283221 0.11068288 0.020568131
0.53285807 0.11153335 0.020562949
0.53288394 0.11238384 0.020557765
0.53290981 0.1132343 0.020552583
0.53293562 0.11408479 0.020547399
0.53296149 0.11493526 0.020542217
0.53298736 0.11578575 0.020537036
0.53301316 0.11663622 0.020531852
0.53303903 0.11748669 0.02052667
0.5330649 0.11833718 0.020521488
0.53309071 0.11918765 0.020516304
0.53311658 0.12003813 0.020511122
0.53314245 0.1208886 0.020505939
0.53316832 0.12173909 0.020500757
0.53238797 0.12277935 0.019907255
0.53241384 0.12363142 0.019902062
0.53243977 0.1244835 0.01989687
0.53246564 0.12533556 0.019891677
0.53249156 0.12618764 0.019886484
0.53251743 0.1270397 0.019881293
0.53254336 0.12789178 0.0198761
0.53256923 0.12874384 0.019870909
0.53259516 0.12959591 0.019865716
0.53262103 0.13044798 0.019860523
0.53184128 0.13150577 0.019266916
0.53186721 0.13235945 0.019261716
0.53189313 0.1332131 0.019256514
0.53191906 0.13406676 0.019251311
0.53194505 0.13492043 0.019246109
0.53116554 0.13598777 0.018652441
0.53119153 0.13684303 0.018647229
0.53121752 0.13769828 0.018642018
0.5312435 0.13855354 0.018636806
0.53126949 0.13940878 0.018631594
0.53129554 0.14026405 0.018626383
0.53132153 0.1411193 0.018621171
0.53134751 0.14197455 0.018615959
0.53056836 0.14305626 0.018022172
0.53059441 0.14391311 0.018016951
0.53062046 0.14476995 0.01801173
0.5298416 0.14585799 0.017417939
0.52986765 0.14671645 0.017412707
0.52908897 0.14780927 0.016818885
0.52911508 0.1486693 0.016813643
0.52833652 0.14976691 0.016219795
0.52836269 0.15062854 0.016214544
0.52838886 0.15149017 0.016209293
0.52761042 0.15259415 0.015615367
0.52763665 0.15345737 0.015610107
0.52766293 0.15432058 0.015604847
0.52720279 0.067805551 0.01664071
0.52803719 0.068577752 0.017224399
0.52725506 0.069525614 0.016630229
0.52808934 0.070294634 0.017213937
0.52811545 0.071153075 0.017208705
0.52814156 0.072011515 0.017203474
0.52816767 0.072869956 0.017198244
0.52819371 0.073728397 0.017193012
0.52902776 0.074487865 0.017776778
0.52905381 0.075344712 0.017771557
0.52988774 0.076099388 0.018355388
0.52991372 0.076954648 0.018350177
0.53074747 0.077704556 0.018934002
0.5307734 0.078558221 0.018928802
0.53160703 0.079303354 0.019512655
0.5316329 0.080155425 0.019507462
0.53165883 0.081007496 0.019502271
0.53249222 0.08174625 0.020086162
0.53251803 0.082596727 0.02008098
0.5325439 0.08344721 0.020075798
0.53256977 0.084297687 0.020070614
0.53259557 0.085148163 0.020065432
0.53262144 0.085998647 0.020060251
0.53264731 0.086849116 0.020055067
0.53348029 0.087575138 0.020639038
0.5335061 0.08842402 0.020633865
0.5335319 0.089272909 0.020628691
0.53355771 0.090121791 0.020623518
0.53277653 0.091101512 0.020029154
0.5328024 0.091951981 0.020023972
0.53282827 0.092802458 0.02001879
0.53285408 0.093652941 0.020013606
0.53287995 0.094503418 0.020008424
0.53290582 0.095353894 0.020003241
0.53293169 0.09620437 0.019998059
0.53295749 0.097054847 0.019992877
0.53298336 0.097905323 0.019987693
0.53300923 0.098755799 0.019982511
0.53303504 0.099606283 0.019977329
0.53306091 0.10045676 0.019972146
0.53308678 0.10130724 0.019966964
0.53311259 0.10215771 0.01996178
0.53313845 0.10300819 0.019956598
0.53316432 0.10385866 0.019951416
0.53319019 0.10470915 0.019946232
0.533216 0.10555962 0.019941051
0.53324187 0.1064101 0.019935869
0.53246164 0.10742166 0.019341309
0.53248757 0.10827374 0.019336117
0.53251344 0.10912581 0.019330924
0.53253937 0.10997788 0.019325733
0.53256524 0.11082995 0.01932054
0.53259116 0.11168201 0.019315349
0.53261709 0.11253409 0.019310156
0.53264296 0.11338615 0.019304963
0.53266889 0.11423822 0.019299772
0.53269476 0.1150903 0.019294579
0.53272069 0.11594237 0.019289387
0.53274655 0.11679444 0.019284194
0.53277248 0.1176465 0.019279001
0.53279835 0.11849858 0.01927381
0.53282428 0.11935064 0.019268617
0.53285015 0.12020271 0.019263426
0.53287607 0.12105478 0.019258233
0.53290194 0.12190685 0.01925304
0.53292787 0.12275893 0.019247849
0.53295374 0.123611 0.019242655
0.53297967 0.12446307 0.019237464
0.53300554 0.12531513 0.019232271
0.53222644 0.12636334 0.01863749
0.53225243 0.12721699 0.018632287
0.53227836 0.12807065 0.018627087
0.53230429 0.12892433 0.018621884
0.53233027 0.12977798 0.018616682
0.5323562 0.13063164 0.01861148
0.53238213 0.1314853 0.018606277
0.53160346 0.13254625 0.018011415
0.53162944 0.1334015 0.018006204
0.53165543 0.13425675 0.018000992
0.53168142 0.13511202 0.01799578
0.53170747 0.13596727 0.017990569
0.53173345 0.13682252 0.017985357
0.53175944 0.13767777 0.017980145
0.53098106 0.13875146 0.017385174
0.53100711 0.13960831 0.017379953
0.53103316 0.14046517 0.017374732
0.53105921 0.141322 0.017369509
0.53108525 0.14217886 0.017364288
0.5311113 0.14303571 0.017359067
0.53113735 0.14389256 0.017353846
0.53035945 0.14497897 0.016758831
0.53038549 0.14583741 0.016753599
0.5304116 0.14669587 0.016748369
0.52963388 0.14778864 0.016153315
0.52966005 0.14864868 0.016148074
0.52888244 0.14974625 0.015552992
0.52890861 0.15060787 0.015547741
0.52893484 0.1514695 0.01554249
0.52815741 0.15257345 0.014947334
0.52898723 0.15319276 0.01553199
0.52820987 0.15429989 0.014936814
0.52694041 0.067871124 0.015384988
0.52858108 0.068557173 0.016560061
0.52860719 0.069415614 0.016554831
0.5286333 0.070274048 0.016549598
0.5286594 0.071132496 0.016544368
0.52868551 0.071990937 0.016539136
0.5295186 0.072753623 0.017124116
0.52954465 0.07361047 0.017118895
0.5295707 0.074467316 0.017113674
0.52959675 0.07532417 0.017108453
0.53042966 0.076078884 0.017693516
0.53045565 0.076934144 0.017688304
0.53128839 0.07768409 0.018273363
0.53131431 0.078537755 0.018268161
0.53214687 0.079282925 0.018853245
0.5321728 0.080134995 0.018848054
0.53219867 0.080987066 0.018842861
0.5322246 0.081839137 0.01883767
0.53305691 0.082576342 0.019422805
0.53308278 0.083426818 0.019417621
0.53310865 0.084277295 0.019412439
0.53313446 0.085127778 0.019407257
0.53316033 0.085978255 0.019402074
0.5331862 0.086828724 0.019396892
0.53321207 0.087679207 0.01939171
0.53323787 0.088529684 0.019386526
0.53326374 0.08938016 0.019381344
0.53328961 0.090230636 0.019376161
0.53331542 0.09108112 0.019370979
0.53334129 0.091931589 0.019365797
0.53336716 0.092782073 0.019360613
0.53339297 0.093632549 0.019355431
0.53341883 0.094483025 0.019350249
0.5334447 0.095333502 0.019345066
0.53347057 0.096183978 0.019339884
0.53349638 0.097034454 0.0193347
0.53352225 0.097884938 0.019329518
0.53354812 0.098735414 0.019324336
0.53276849 0.0997326 0.018728631
0.53279436 0.10058468 0.018723439
0.53282028 0.10143675 0.018718246
0.53284615 0.10228881 0.018713055
0.53287208 0.10314088 0.018707862
0.53289795 0.10399295 0.018702669
0.53292388 0.10484502 0.018697478
0.53294975 0.10569709 0.018692285
0.53297567 0.10654917 0.018687094
0.53300154 0.10740124 0.018681901
0.53302747 0.10825331 0.018676708
0.53305334 0.10910538 0.018671516
0.53307927 0.10995745 0.018666323
0.53310513 0.11080952 0.018661132
0.53313106 0.11166158 0.018655939
0.53315693 0.11251366 0.018650748
0.53318286 0.11336572 0.018645555
0.53240412 0.11439159 0.018049678
0.53243005 0.11524525 0.018044475
0.53245598 0.11609891 0.018039273
0.53248197 0.11695258 0.018034071
0.5325079 0.11780623 0.018028868
0.53253382 0.1186599 0.018023668
0.53255981 0.11951356 0.018018465
0.53258574 0.12036723 0.018013263
0.53261167 0.12122089 0.018008061
0.53263766 0.12207455 0.018002858
0.53266358 0.12292822 0.017997658
0.53268951 0.12378187 0.017992456
0.5327155 0.12463554 0.017987253
0.53274143 0.12548919 0.017982051
0.53276736 0.12634286 0.017976848
0.53279334 0.12719652 0.017971648
0.53281927 0.12805019 0.017966446
0.53204137 0.12910472 0.017370392
0.53206736 0.12995997 0.01736518
0.53209341 0.13081524 0.017359968
0.53211939 0.13167048 0.017354757
0.53214538 0.13252574 0.017349545
0.53217137 0.13338099 0.017344333
0.53139377 0.13444668 0.016748177
0.53141981 0.13530354 0.016742954
0.53144586 0.13616039 0.016737733
0.53147191 0.13701724 0.016732512
0.53149796 0.13787407 0.016727291
0.531524 0.13873093 0.01672207
0.53155005 0.13958777 0.016716847
0.5315761 0.14044462 0.016711626
0.53079897 0.14152463 0.016115418
0.53082508 0.14238307 0.016110186
0.53085119 0.14324152 0.016104955
0.53087723 0.14409995 0.016099725
0.53090334 0.14495839 0.016094493
0.53092945 0.14581683 0.016089262
0.53015268 0.146908 0.015492986
0.53017884 0.14776802 0.015487745
0.53020495 0.14862806 0.015482505
0.53023112 0.14948811 0.015477263
0.52945459 0.15058722 0.014880938
0.52948076 0.15144885 0.014875688
0.52950698 0.15231046 0.014870437
0.52873057 0.15341598 0.014274037
0.5287568 0.15427919 0.014268777
0.52878308 0.15514241 0.014263517
0.52909893 0.067678154 0.015900955
0.52993131 0.068448842 0.01648712
0.52915114 0.069395028 0.015890492
0.5299834 0.070162535 0.016476676
0.5292033 0.071111917 0.01588003
0.5300355 0.071876235 0.016466234
0.53006154 0.072733082 0.016461013
0.53008753 0.073589928 0.016455792
0.53091955 0.074347876 0.017042067
0.53094554 0.075203128 0.017036855
0.53097159 0.07605838 0.017031644
0.53099757 0.07691364 0.017026432
0.5318293 0.077663623 0.017612722
0.53185523 0.078517288 0.017607519
0.53268677 0.079262495 0.018193839
0.5327127 0.080114566 0.018188646
0.53273857 0.080966637 0.018183455
0.53276449 0.081818707 0.018178262
0.53279036 0.082670771 0.018173069
0.53281629 0.083522849 0.018167878
0.53364754 0.08425691 0.018754264
0.53367335 0.085107386 0.018749081
0.53369921 0.085957862 0.018743899
0.53372508 0.086808339 0.018738717
0.53375089 0.087658815 0.018733533
0.53377676 0.088509291 0.018728351
0.53380263 0.089359768 0.018723169
0.5338285 0.090210244 0.018717986
0.53385431 0.091060728 0.018712804
0.53388017 0.091911204 0.01870762
0.53390604 0.09276168 0.018702438
0.53312707 0.09374769 0.01810557
0.533153 0.094599754 0.018100377
0.53317887 0.095451824 0.018095186
0.53320479 0.096303895 0.018089993
0.53323066 0.097155966 0.0180848
0.53325659 0.098008037 0.018079609
0.53328246 0.098860107 0.018074416
0.53330839 0.099712171 0.018069224
0.53333426 0.10056425 0.018064031
0.53336018 0.10141632 0.01805884
0.53338605 0.10226838 0.018053647
0.53341198 0.10312045 0.018048454
0.53343785 0.10397252 0.018043263
0.53346378 0.1048246 0.01803807
0.53348964 0.10567667 0.018032879
0.53271151 0.10668816 0.017435854
0.53273743 0.10754181 0.017430652
0.53276336 0.10839549 0.01742545
0.53278935 0.10924915 0.017420249
0.53281528 0.11010281 0.017415047
0.53284121 0.11095648 0.017409844
0.53286719 0.11181013 0.017404642
0.53289312 0.1126638 0.01739944
0.53291905 0.11351746 0.017394239
0.53294504 0.11437112 0.017389037
0.53216738 0.11540014 0.016791906
0.53219336 0.11625538 0.016786695
0.53302288 0.11693211 0.01737343
0.53304881 0.11778577 0.017368229
0.53227133 0.11882115 0.016771059
0.53229737 0.1196764 0.016765848
0.53232336 0.12053166 0.016760636
0.53234935 0.12138692 0.016755424
0.53237534 0.12224217 0.016750213
0.53240132 0.12309743 0.016745001
0.53242731 0.12395268 0.016739789
0.5324533 0.12480794 0.016734578
0.53247929 0.12566319 0.016729366
0.53250533 0.12651844 0.016724154
0.53253132 0.1273737 0.016718943
0.53255731 0.12822896 0.016713731
0.5325833 0.12908421 0.016708519
0.53260928 0.12993947 0.016703308
0.53183252 0.13099875 0.016105957
0.53185856 0.13185559 0.016100736
0.53188461 0.13271244 0.016095515
0.53191066 0.13356929 0.016090292
0.53193671 0.13442615 0.016085071
0.53196275 0.13528299 0.01607985
0.53118634 0.1363534 0.015482467
0.53121245 0.13721184 0.015477235
0.53123856 0.13807029 0.015472004
0.53126466 0.13892873 0.015466773
0.53129071 0.13978717 0.015461542
0.53131682 0.14064561 0.01545631
0.53134292 0.14150405 0.01545108
0.53136903 0.14236249 0.015445849
0.53139508 0.14322093 0.015440618
0.5306192 0.14430727 0.014843138
0.53064531 0.14516731 0.014837896
0.53067148 0.14602734 0.014832656
0.53069764 0.14688738 0.014827415
0.53072375 0.14774741 0.014822175
0.53074992 0.14860745 0.014816933
0.52997434 0.14970493 0.014219386
0.53080219 0.1503275 0.014806452
0.53002673 0.15142819 0.014208885
0.5300529 0.15228981 0.014203634
0.52927756 0.15339528 0.013606003
0.52930379 0.15425849 0.013600743
0.52852863 0.15536873 0.013003117
0.52775353 0.15648215 0.012405473
0.5280323 0.06782981 0.014051381
0.53047425 0.0684283 0.015824012
0.53050023 0.069285139 0.015818791
0.53052628 0.070141993 0.015813569
0.53055233 0.07099884 0.015808348
0.53057837 0.071855694 0.015803127
0.53060442 0.072712541 0.015797906
0.53143549 0.073472112 0.016385404
0.53146148 0.074327365 0.016380193
0.53148746 0.075182624 0.016374981
0.53151345 0.076037876 0.016369769
0.53234422 0.076789491 0.016957281
0.53237015 0.077643156 0.016952081
0.53239614 0.078496821 0.016946878
0.53322667 0.079242066 0.017534429
0.5332526 0.080094136 0.017529238
0.53327847 0.080946207 0.017524045
0.53330439 0.081798278 0.017518854
0.53333026 0.082650349 0.017513661
0.53335619 0.083502419 0.017508468
0.53338206 0.08435449 0.017503276
0.53340799 0.085206561 0.017498083
0.53343385 0.086058624 0.017492892
0.53345978 0.086910695 0.017487699
0.53348565 0.087762766 0.017482508
0.53351158 0.088614836 0.017477315
0.53353745 0.089466907 0.017472122
0.53356338 0.090318978 0.017466931
0.53358924 0.091171049 0.017461738
0.53361517 0.092023119 0.017456546
0.53364104 0.09287519 0.017451353
0.53366697 0.093727261 0.01744616
0.5336929 0.094579324 0.017440969
0.53371876 0.095431395 0.017435776
0.53374469 0.096283466 0.017430585
0.53377056 0.097135536 0.017425392
0.53379649 0.097987607 0.017420201
0.53382236 0.098839678 0.017415008
0.53384829 0.099691741 0.017409815
0.53387415 0.10054382 0.017404623
0.53390008 0.10139589 0.01739943
0.53392595 0.10224795 0.017394239
0.53395188 0.10310003 0.017389046
0.53317457 0.1041067 0.016790818
0.5332005 0.10496037 0.016785616
0.53322643 0.10581402 0.016780414
0.53325236 0.10666769 0.016775211
0.53327835 0.10752135 0.016770011
0.53330427 0.10837502 0.016764808
0.53252733 0.10939284 0.016166514
0.53255332 0.11024809 0.016161302
0.5325793 0.11110335 0.01615609
0.53260529 0.1119586 0.016150879
0.53263128 0.11281386 0.016145667
0.53265727 0.11366911 0.016140455
0.53268325 0.11452437 0.016135244
0.5327093 0.11537962 0.016130032
0.53273529 0.11623488 0.01612482
0.53276128 0.11709014 0.016119609
0.53278726 0.11794539 0.016114397
0.53281325 0.11880065 0.016109185
0.53283924 0.1196559 0.016103974
0.53286523 0.12051116 0.016098762
0.53289127 0.1213664 0.01609355
0.53291726 0.12222166 0.016088339
0.53294325 0.12307692 0.016083127
0.53296924 0.12393218 0.016077915
0.53219312 0.12498027 0.0154794
0.53221917 0.12583712 0.015474179
0.53224522 0.12669396 0.015468957
0.53227127 0.12755081 0.015463736
0.53229731 0.12840766 0.015458514
0.53232336 0.12926452 0.015453293
0.53234941 0.13012135 0.015448072
0.53237545 0.13097821 0.01544285
0.53159982 0.13204062 0.014844283
0.53162593 0.13289906 0.014839051
0.53165203 0.1337575 0.014833821
0.53167808 0.13461594 0.01482859
0.53170419 0.13547438 0.014823359
0.53173029 0.13633282 0.014818127
0.5317564 0.13719127 0.014812896
0.53178245 0.13804971 0.014807665
0.53180856 0.13890815 0.014802434
0.53103346 0.13998649 0.014203771
0.53105956 0.14084652 0.01419853
0.53108573 0.14170656 0.014193289
0.53111184 0.14256659 0.014188048
0.531138 0.14342663 0.014182808
0.53116411 0.14428665 0.014177566
0.53119028 0.1451467 0.014172326
0.53121644 0.14600672 0.014167085
0.53124255 0.14686675 0.014161844
0.53126872 0.14772679 0.014156603
0.53129482 0.14858682 0.014151363
0.53052032 0.14968428 0.013552582
0.53054649 0.1505459 0.013547331
0.53057265 0.15140752 0.01354208
0.52979827 0.15251136 0.012943226
0.5298245 0.15337458 0.012937966
0.52985072 0.15423781 0.012932706
0.52987695 0.15510102 0.012927445
0.52910286 0.15621281 0.012328578
0.53101712 0.068407752 0.015160906
0.53104317 0.069264598 0.015155685
0.53106922 0.070121452 0.015150463
0.53109527 0.070978299 0.015145242
0.53112131 0.071835153 0.015140021
0.53195143 0.072596356 0.015728744
0.53197742 0.073451608 0.015723532
0.5320034 0.074306861 0.01571832
0.53202939 0.07516212 0.015713109
0.53205538 0.076017372 0.015707897
0.53288513 0.076769024 0.016296642
0.53291106 0.077622689 0.016291441
0.53293705 0.078476354 0.016286239
0.53296298 0.07933002 0.016281037
0.53298891 0.080183677 0.016275834
0.53301489 0.081037343 0.016270632
0.53384429 0.081777848 0.016859446
0.53387016 0.082629919 0.016854253
0.53389609 0.08348199 0.016849061
0.53392196 0.084334061 0.016843868
0.53394789 0.085186131 0.016838677
0.53397375 0.086038195 0.016833484
0.53399968 0.086890273 0.016828293
0.53402555 0.087742344 0.0168231
0.53405148 0.088594407 0.016817907
0.53407735 0.089446478 0.016812716
0.53410327 0.090298548 0.016807523
0.53412914 0.091150619 0.016802331
0.53415507 0.09200269 0.016797138
0.53418094 0.092854761 0.016791945
0.53420687 0.093706831 0.016786754
0.53423274 0.094558902 0.016781561
0.53425866 0.095410965 0.01677637
0.53428453 0.096263036 0.016771177
0.53431046 0.097115107 0.016765986
0.53433633 0.097967178 0.016760793
0.53436226 0.098819248 0.0167556
0.53358573 0.099817917 0.016156189
0.53361166 0.10067158 0.016150987
0.53363758 0.10152525 0.016145784
0.53366357 0.1023789 0.016140584
0.5336895 0.10323258 0.016135382
0.53371543 0.10408624 0.016130179
0.53293926 0.10509606 0.0155307
0.53296524 0.10595131 0.015525488
0.53299123 0.10680657 0.015520277
0.53301722 0.10766182 0.015515065
0.53304321 0.10851707 0.015509853
0.53306919 0.10937233 0.015504641
0.53309524 0.11022758 0.01549943
0.53231937 0.11125016 0.014899837
0.53234541 0.112107 0.014894615
0.53237146 0.11296386 0.014889394
0.53239751 0.1138207 0.014884172
0.5324235 0.11467756 0.014878951
0.53244954 0.11553439 0.01487373
0.53247559 0.11639124 0.014868508
0.53250164 0.1172481 0.014863287
0.53252769 0.11810494 0.014858065
0.53255373 0.11896179 0.014852844
0.53257978 0.11981864 0.014847622
0.53260583 0.12067549 0.014842401
0.53263187 0.12153234 0.01483718
0.53265792 0.12238918 0.014831958
0.53268397 0.12324603 0.014826737
0.53271002 0.12410288 0.014821515
0.53273606 0.12495973 0.014816294
0.53276211 0.12581657 0.014811072
0.53278816 0.12667343 0.014805852
0.5328142 0.12753026 0.01480063
0.5320394 0.12858628 0.014200869
0.53206545 0.12944472 0.014195639
0.53209156 0.13030316 0.014190407
0.53211766 0.1311616 0.014185176
0.53214377 0.13202004 0.014179945
0.53216988 0.13287848 0.014174714
0.53139538 0.13394563 0.013574885
0.53142154 0.13480566 0.013569645
0.53144765 0.1356657 0.013564404
0.53147382 0.13652574 0.013559163
0.53149992 0.13738577 0.013553922
0.53152609 0.13824581 0.013548682
0.53155226 0.13910584 0.013543441
0.53157836 0.13996586 0.013538199
0.53160453 0.14082591 0.013532959
0.53163064 0.14168593 0.013527718
0.5316568 0.14254597 0.013522477
0.53168291 0.143406 0.013517236
0.53170907 0.14426604 0.013511996
0.53173524 0.14512607 0.013506755
0.53176135 0.1459861 0.013501514
0.53098768 0.14707874 0.012901531
0.53101385 0.14794037 0.01289628
0.53104007 0.148802 0.012891029
0.53106624 0.14966363 0.012885779
0.53109241 0.15052524 0.012880528
0.53111863 0.15138687 0.012875278
0.5303452 0.15249066 0.012275191
0.53037143 0.15335388 0.012269931
0.53039771 0.15421711 0.012264671
0.52962452 0.15532726 0.01166458
0.52885145 0.1564406 0.01106447
0.53156006 0.06838721 0.014497802
0.53158611 0.069244057 0.014492581
0.53161216 0.070100904 0.01448736
0.53244132 0.070865341 0.015077295
0.53246731 0.071720593 0.015072083
0.53249329 0.072575845 0.015066871
0.53251928 0.073431104 0.01506166
0.53254533 0.074286357 0.015056448
0.53257132 0.075141616 0.015051236
0.5325973 0.075996868 0.015046025
0.53262329 0.07685212 0.015040813
0.53345197 0.077602223 0.0156308
0.5334779 0.078455888 0.015625598
0.53350389 0.079309553 0.015620396
0.53352982 0.080163211 0.015615194
0.53355575 0.081016876 0.015609992
0.53358173 0.081870541 0.01560479
0.53360766 0.082724199 0.015599588
0.53363359 0.083577856 0.015594386
0.53365958 0.084431529 0.015589184
0.53368551 0.085285187 0.015583982
0.53371143 0.086138852 0.01557878
0.53373742 0.086992517 0.015573578
0.53376335 0.087846175 0.015568377
0.53378928 0.08869984 0.015563174
0.53381526 0.089553505 0.015557972
0.53384119 0.090407163 0.01555277
0.53386712 0.091260828 0.015547568
0.53389311 0.092114493 0.015542367
0.53391904 0.092968158 0.015537164
0.53394496 0.093821816 0.015531962
0.53397095 0.094675474 0.01552676
0.53399688 0.095529139 0.015521558
0.53402281 0.096382797 0.015516357
0.5340488 0.097236462 0.015511154
0.53407472 0.098090127 0.015505953
0.53410065 0.098943792 0.01550075
0.53412664 0.09979745 0.015495548
0.53415257 0.10065112 0.015490347
0.5341785 0.10150478 0.015485144
0.53340316 0.10250978 0.014884463
0.53342915 0.10336504 0.014879251
0.53345513 0.10422029 0.014874039
0.53348118 0.10507555 0.014868828
0.53350717 0.10593081 0.014863616
0.53353316 0.10678606 0.014858404
0.53275812 0.10780221 0.014257618
0.53278416 0.10865907 0.014252396
0.53281015 0.10951592 0.014247175
0.5328362 0.11037277 0.014241953
0.53286225 0.11122961 0.014236732
0.53288829 0.11208646 0.01423151
0.53291434 0.11294331 0.014226289
0.53213972 0.1139722 0.013625461
0.53216583 0.11483064 0.013620229
0.53219193 0.11568909 0.013614998
0.53221804 0.11654752 0.013609767
0.53224409 0.11740597 0.013604536
0.53227019 0.11826441 0.013599305
0.5322963 0.11912286 0.013594074
0.53232241 0.11998128 0.013588843
0.53234845 0.12083973 0.013583612
0.53237456 0.12169817 0.01357838
0.53240067 0.12255661 0.013573149
0.53242677 0.12341505 0.013567918
0.53245288 0.12427349 0.013562688
0.53247893 0.12513193 0.013557456
0.53250504 0.12599038 0.013552225
0.53253114 0.12684882 0.013546994
0.53255725 0.12770726 0.013541763
0.5325833 0.1285657 0.013536531
0.5326094 0.12942414 0.0135313
0.53183573 0.13048488 0.012930279
0.5318619 0.13134491 0.012925038
0.53188807 0.13220495 0.012919798
0.53191417 0.13306499 0.012914557
0.53194034 0.13392502 0.012909316
0.53196645 0.13478504 0.012904075
0.53199261 0.13564509 0.012898834
0.53121936 0.13671857 0.012297735
0.53124553 0.1375802 0.012292485
0.5312717 0.13844183 0.012287234
0.53129792 0.13930345 0.012281983
0.53132409 0.14016506 0.012276733
0.53135031 0.14102671 0.012271482
0.53137648 0.14188832 0.012266232
0.53140265 0.14274995 0.012260982
0.53142887 0.14361158 0.012255731
0.53145504 0.14447321 0.01225048
0.53148127 0.14533482 0.012245229
0.53150743 0.14619645 0.01223998
0.5315336 0.14705808 0.012234729
0.53155982 0.1479197 0.012229478
0.53158599 0.14878133 0.012224228
0.53161216 0.14964296 0.012218977
0.53083968 0.15074354 0.011617676
0.53086597 0.15160675 0.011612416
0.53089219 0.15246996 0.011607156
0.53091842 0.1533332 0.011601896
0.53094465 0.15419641 0.011596636
0.52937412 0.15555343 0.010399249
0.52780378 0.15691681 0.0092018247
0.52463698 0.15878676 0.0068121613
0.53130078 0.068454266 0.013238372
0.53212905 0.069223516 0.013829475
0.5321551 0.070080362 0.013824253
0.53298324 0.070844837 0.014415422
0.53220713 0.071794063 0.01381381
0.53303522 0.072555341 0.014404999
0.53306121 0.0734106 0.014399787
0.53308719 0.074265853 0.014394576
0.53311318 0.075121105 0.014389364
0.53313923 0.075976364 0.014384152
0.53316522 0.076831616 0.014378941
0.5331912 0.077686876 0.014373729
0.53321719 0.078542128 0.014368517
0.53324318 0.079397388 0.014363306
0.53326917 0.08025264 0.014358094
0.53329515 0.081107892 0.014352882
0.5333212 0.081963152 0.014347671
0.53334719 0.082818404 0.014342459
0.53337318 0.083673656 0.014337247
0.53339916 0.084528916 0.014332036
0.53422642 0.08526472 0.014923343
0.53425235 0.086118385 0.014918141
0.53427833 0.08697205 0.014912939
0.53430426 0.087825708 0.014907737
0.53433019 0.088679373 0.014902535
0.53435612 0.089533038 0.014897333
0.5343821 0.090386696 0.014892131
0.53440803 0.091240361 0.014886929
0.53443396 0.092094027 0.014881727
0.53445995 0.092947692 0.014876525
0.53448588 0.093801349 0.014871323
0.5345118 0.094655007 0.014866121
0.53453779 0.095508672 0.014860919
0.53456372 0.09636233 0.014855717
0.5337891 0.097357742 0.01425386
0.53381509 0.098213002 0.014248649
0.53384107 0.099068262 0.014243437
0.53386706 0.099923514 0.014238225
0.53389311 0.10077877 0.014233014
0.5339191 0.10163403 0.014227802
0.53394508 0.10248928 0.01422259
0.53397107 0.10334454 0.014217379
0.53319681 0.10435428 0.013615398
0.53322285 0.10521114 0.013610176
0.5332489 0.10606799 0.013604955
0.53327495 0.10692483 0.013599734
0.533301 0.10778167 0.013594512
0.53332704 0.10863853 0.013589291
0.5325532 0.10965943 0.012987279
0.5325793 0.11051786 0.012982049
0.53260541 0.1113763 0.012976818
0.53263146 0.11223474 0.012971587
0.53265756 0.11309319 0.012966355
0.53268367 0.11395162 0.012961124
0.53270978 0.11481006 0.012955893
0.53273588 0.11566851 0.012950662
0.53276193 0.11652694 0.012945431
0.53278804 0.11738539 0.0129402
0.53281415 0.11824383 0.012934969
0.53284025 0.11910227 0.012929738
0.5328663 0.1199607 0.012924506
0.53289241 0.12081914 0.012919275
0.53291851 0.12167758 0.012914045
0.53294462 0.12253603 0.012908814
0.53297067 0.12339447 0.012903582
0.53219771 0.12444403 0.012301396
0.53222388 0.12530407 0.012296154
0.53224999 0.12616409 0.012290914
0.53227615 0.12702413 0.012285673
0.53230226 0.12788416 0.012280432
0.53232843 0.1287442 0.012275191
0.53235453 0.12960424 0.01226995
0.5323807 0.13046426 0.01226471
0.53240687 0.13132431 0.012259468
0.53163433 0.13238978 0.011657185
0.53166056 0.13325141 0.011651934
0.53168672 0.13411303 0.011646683
0.53171289 0.13497466 0.011641433
0.53173912 0.13583629 0.011636183
0.53176528 0.13669792 0.011630932
0.53179151 0.13755955 0.011625682
0.53181767 0.13842116 0.011620431
0.53184384 0.13928279 0.01161518
0.53107178 0.14036421 0.011012763
0.53109807 0.14122744 0.011007503
0.53112429 0.14209065 0.011002243
0.53115052 0.14295387 0.010996982
0.53117675 0.1438171 0.010991722
0.53120297 0.14468031 0.010986462
0.53122926 0.14554353 0.010981202
0.53125548 0.14640674 0.010975942
0.53128171 0.14726996 0.010970681
0.53130794 0.14813319 0.010965421
0.53133416 0.1489964 0.010960161
0.53136045 0.14985962 0.010954901
0.53138667 0.15072285 0.010949641
0.5314129 0.15158606 0.01094438
0.53143913 0.15244928 0.01093912
0.53146535 0.1533125 0.01093386
0.53069419 0.15442097 0.010331314
0.52912569 0.15577953 0.0091314539
0.52676004 0.15739289 0.0073342128
0.52359742 0.15926586 0.0049395994
0.53184468 0.06843368 0.012574032
0.53267193 0.069202974 0.013166369
0.53269798 0.070059821 0.013161148
0.53272402 0.070916675 0.013155926
0.53275007 0.071773522 0.013150705
0.53277612 0.072630368 0.013145483
0.53280216 0.073487215 0.013140262
0.53362912 0.074245349 0.013732702
0.53365511 0.075100601 0.01372749
0.53368109 0.07595586 0.013722278
0.53370714 0.076811112 0.013717066
0.53373313 0.077666372 0.013711855
0.53375912 0.078521624 0.013706643
0.5337851 0.079376884 0.013701431
0.53381109 0.080232136 0.01369622
0.53383708 0.081087388 0.013691008
0.53386307 0.081942648 0.013685796
0.53388911 0.0827979 0.013680585
0.5339151 0.083653152 0.013675373
0.53394109 0.084508412 0.013670161
0.53396708 0.085363671 0.01366495
0.53399307 0.086218923 0.013659738
0.53401905 0.087074175 0.013654526
0.53404504 0.087929435 0.013649315
0.53407103 0.088784687 0.013644103
0.53409708 0.089639939 0.013638891
0.53412306 0.090495199 0.01363368
0.53414905 0.091350459 0.013628468
0.53417504 0.092205711 0.013623256
0.53420103 0.093060963 0.013618045
0.53422701 0.093916222 0.013612833
0.534253 0.094771475 0.013607621
0.53427905 0.095626727 0.01360241
0.53430504 0.096481986 0.013597198
0.53433102 0.097337238 0.013591986
0.53435701 0.098192498 0.013586774
0.534383 0.099047758 0.013581563
0.53360951 0.1000495 0.012978399
0.53363556 0.10090635 0.012973177
0.5336616 0.1017632 0.012967956
0.53368765 0.10262004 0.012962734
0.5337137 0.1034769 0.012957513
0.53373975 0.10433374 0.012952291
0.53376579 0.1051906 0.01294707
0.53299278 0.10620507 0.012343864
0.53301889 0.10706352 0.012338633
0.53304493 0.10792195 0.012333401
0.53307104 0.1087804 0.01232817
0.53309715 0.10963885 0.012322939
0.53312325 0.11049727 0.012317708
0.53235054 0.11152291 0.011714435
0.53237671 0.11238295 0.011709194
0.53240281 0.11324298 0.011703953
0.53242898 0.11410301 0.011698713
0.53245509 0.11496304 0.011693472
0.53248125 0.11582308 0.011688231
0.53250736 0.11668311 0.01168299
0.53253353 0.11754315 0.011677749
0.53255969 0.11840317 0.011672508
0.5325858 0.11926321 0.011667267
0.53261197 0.12012324 0.011662027
0.53263807 0.12098328 0.011656786
0.53266424 0.12184331 0.011651545
0.53269035 0.12270334 0.011646304
0.53271651 0.12356339 0.011641064
0.53274268 0.12442341 0.011635823
0.53276879 0.12528345 0.011630582
0.53279495 0.12614347 0.011625341
0.53282106 0.12700351 0.011620101
0.53204936 0.128061 0.011016633
0.53207552 0.12892261 0.011011383
0.53210175 0.12978426 0.011006132
0.53212792 0.13064587 0.011000882
0.53215408 0.1315075 0.010995631
0.53218031 0.13236912 0.01099038
0.53140885 0.13343777 0.010386809
0.53143507 0.13430099 0.010381549
0.53146136 0.1351642 0.010376289
0.53148758 0.13602743 0.010371028
0.53151381 0.13689065 0.010365767
0.53154004 0.13775386 0.010360507
0.53156626 0.13861708 0.010355247
0.53159255 0.13948031 0.010349987
0.53161877 0.14034352 0.010344727
0.531645 0.14120674 0.010339467
0.53167123 0.14206995 0.010334207
0.53169745 0.14293317 0.010328947
0.53172374 0.1437964 0.010323687
0.53174996 0.14465961 0.010318425
0.53177619 0.14552283 0.010313165
0.53180242 0.14638604 0.010307905
0.53182864 0.14724927 0.010302645
0.53185493 0.14811249 0.010297385
0.53188115 0.1489757 0.010292125
0.53190738 0.14983892 0.010286865
0.53193361 0.15070215 0.010281605
0.53195983 0.15156537 0.010276344
0.53118956 0.15267062 0.0096725859
0.53121585 0.15353544 0.0096673155
0.53044575 0.15464547 0.009063527
0.52887934 0.15600553 0.0078611905
0.52572042 0.15786879 0.0054617068
0.52176565 0.15999481 0.0024635955
0.53158844 0.068500623 0.011310905
0.53321487 0.069182426 0.012503264
0.53324091 0.07003928 0.012498042
0.53326696 0.070896126 0.012492821
0.53329301 0.07175298 0.012487599
0.53331906 0.072609819 0.012482378
0.5333451 0.073466673 0.012477157
0.53337115 0.07432352 0.012471935
0.5333972 0.075180367 0.012466714
0.53342324 0.076037213 0.012461492
0.53344929 0.07689406 0.012456271
0.53347528 0.077750914 0.012451049
0.53350133 0.07860776 0.012445828
0.53352737 0.079464607 0.012440607
0.53355342 0.080321454 0.012435385
0.53357947 0.0811783 0.012430164
0.53360552 0.082035154 0.012424942
0.53363156 0.082892001 0.012419721
0.53365761 0.083748847 0.012414499
0.53368366 0.084605694 0.012409278
0.5337097 0.085462548 0.012404056
0.53373575 0.086319394 0.012398835
0.5337618 0.087176241 0.012393614
0.53378785 0.088033088 0.012388392
0.53381389 0.088889934 0.012383171
0.53383994 0.089746781 0.012377949
0.53466499 0.090474695 0.012971807
0.53469098 0.091329947 0.012966596
0.53471696 0.092185207 0.012961384
0.53474295 0.093040459 0.012956172
0.53476894 0.093895711 0.012950961
0.53399616 0.094887868 0.012346622
0.53402221 0.095744722 0.0123414
0.53404826 0.096601568 0.012336179
0.53407431 0.097458415 0.012330957
0.53410035 0.098315261 0.012325736
0.5341264 0.099172115 0.012320515
0.53415245 0.10002896 0.012315293
0.5341785 0.10088581 0.012310072
0.53420454 0.10174266 0.01230485
0.5334323 0.10275073 0.01170045
0.53345841 0.10360917 0.011695219
0.53348452 0.10446761 0.011689988
0.53351063 0.10532606 0.011684757
0.53353667 0.10618449 0.011679526
0.53356278 0.10704293 0.011674295
0.5327909 0.10806215 0.011069829
0.53281707 0.10892219 0.011064588
0.53284317 0.10978223 0.011059347
0.53286934 0.11064225 0.011054106
0.53289545 0.1115023 0.011048866
0.53292161 0.11236233 0.011043625
0.53294778 0.11322236 0.011038383
0.53217626 0.11425432 0.010433839
0.53220248 0.11511595 0.010428588
0.53222865 0.11597758 0.010423337
0.53225482 0.1168392 0.010418086
0.53228104 0.11770083 0.010412836
0.53230721 0.11856245 0.010407586
0.53233337 0.11942407 0.010402335
0.5323596 0.1202857 0.010397085
0.53238577 0.12114733 0.010391834
0.53241199 0.12200896 0.010386583
0.53243816 0.12287058 0.010381334
0.53246433 0.12373222 0.010376083
0.53249055 0.12459383 0.010370832
0.53251672 0.12545545 0.010365582
0.53254294 0.12631708 0.010360331
0.53256911 0.12717871 0.01035508
0.53179836 0.12823777 0.0097503355
0.53182465 0.12910098 0.0097450754
0.53185087 0.1299642 0.0097398153
0.5318771 0.13082743 0.0097345542
0.53190333 0.13169064 0.0097292941
0.53192955 0.13255385 0.009724034
0.53195584 0.13341708 0.0097187739
0.53198206 0.13428029 0.0097135138
0.53200829 0.1351435 0.0097082537
0.53203452 0.13600674 0.0097029936
0.53206074 0.13686995 0.0096977334
0.53129065 0.1379481 0.0090929065
0.53131694 0.1388129 0.0090876361
0.53134328 0.13967773 0.0090823667
0.53136957 0.14054254 0.0090770964
0.53139585 0.14140734 0.0090718269
0.53142214 0.14227214 0.0090665566
0.53144842 0.14313698 0.0090612872
0.53147471 0.14400178 0.0090560168
0.531501 0.14486659 0.0090507464
0.53152728 0.1457314 0.009045477
0.53155357 0.14659621 0.0090402067
0.53157985 0.14746103 0.0090349372
0.53160614 0.14832583 0.0090296669
0.53163242 0.14919065 0.0090243975
0.53165871 0.15005545 0.0090191271
0.53168499 0.15092027 0.0090138577
0.53171128 0.15178509 0.0090085873
0.53173757 0.15264989 0.0090033179
0.53096837 0.1537583 0.0083983066
0.53019929 0.1548699 0.0077932756
0.52783954 0.15647827 0.0059886691
0.52468479 0.15834457 0.003584234
0.5199399 0.16072354 -1.983748e-05
0.53133416 0.068567492 0.010045312
0.53375781 0.069161884 0.011840159
0.53298473 0.070109405 0.011234896
0.53301084 0.070967846 0.011229665
0.53383595 0.071732432 0.011824495
0.53386194 0.072589278 0.011819273
0.53388798 0.073446125 0.011814052
0.53391403 0.074302979 0.01180883
0.53394008 0.075159825 0.011803609
0.53396612 0.076016672 0.011798387
0.53399217 0.076873519 0.011793166
0.53401822 0.077730373 0.011787944
0.53404427 0.078587219 0.011782723
0.53407031 0.079444066 0.011777502
0.53409636 0.080300912 0.011772281
0.53412241 0.081157759 0.01176706
0.53414845 0.082014605 0.011761838
0.5341745 0.082871459 0.011756617
0.53420055 0.083728299 0.011751395
0.5342266 0.084585153 0.011746174
0.53425264 0.085441999 0.011740953
0.53427869 0.086298853 0.011735731
0.53430474 0.0871557 0.01173051
0.53433079 0.088012546 0.011725288
0.53435683 0.088869393 0.011720067
0.53438282 0.089726239 0.011714845
0.53440887 0.090583086 0.011709624
0.53443491 0.09143994 0.011704403
0.53446096 0.092296787 0.011699181
0.53448701 0.093153633 0.01169396
0.53451306 0.09401048 0.011688738
0.5345391 0.094867326 0.011683517
0.53456515 0.09572418 0.011678295
0.5345912 0.096581027 0.011673074
0.53461725 0.097437866 0.011667853
0.53384578 0.098437943 0.01106227
0.53387189 0.099296391 0.011057039
0.533898 0.10015482 0.011051808
0.53392404 0.10101327 0.011046576
0.53395015 0.10187171 0.011041345
0.53397626 0.10273015 0.011036114
0.53400236 0.10358859 0.011030883
0.53323126 0.10460141 0.010425221
0.53325742 0.10546144 0.01041998
0.53328359 0.10632147 0.010414739
0.5333097 0.1071815 0.010409499
0.53333586 0.10804153 0.010404258
0.53256506 0.10906391 0.0097985389
0.53259128 0.10992554 0.0097932881
0.53261745 0.11078715 0.0097880373
0.53264362 0.11164879 0.0097827874
0.53266984 0.11251041 0.0097775366
0.53269601 0.11337204 0.0097722858
0.53272223 0.11423366 0.009767035
0.5327484 0.1150953 0.0097617852
0.53277457 0.11595692 0.0097565344
0.53280079 0.11681854 0.0097512836
0.53203052 0.11785845 0.0091454219
0.53205675 0.11872166 0.0091401618
0.53208297 0.11958488 0.0091349017
0.5321092 0.12044809 0.0091296406
0.53213543 0.12131132 0.0091243805
0.53216165 0.12217453 0.0091191204
0.53218794 0.12303776 0.0091138603
0.53221416 0.12390098 0.0091086002
0.53224039 0.12476419 0.0091033401
0.53226662 0.12562741 0.00909808
0.53229284 0.12649062 0.0090928199
0.53231913 0.12735385 0.0090875598
0.53234535 0.12821707 0.0090822987
0.53237158 0.12908028 0.0090770386
0.53239781 0.1299435 0.0090717785
0.53242403 0.13080673 0.0090665184
0.53165466 0.1318737 0.0084605273
0.53168094 0.1327385 0.0084552579
0.53170723 0.1336033 0.0084499875
0.53173351 0.13446811 0.0084447181
0.5317598 0.13533294 0.0084394477
0.53178608 0.13619775 0.0084341783
0.53181237 0.13706255 0.008428908
0.53183866 0.13792737 0.0084236385
0.53186494 0.13879217 0.0084183682
0.53189123 0.13965699 0.0084130988
0.53191751 0.14052179 0.0084078284
0.5319438 0.14138661 0.008402559
0.53197008 0.14225142 0.0083972886
0.53199637 0.14311624 0.0083920183
0.53202266 0.14398105 0.0083867488
0.53204894 0.14484586 0.0083814785
0.53207523 0.14571066 0.0083762091
0.53210151 0.14657548 0.0083709387
0.5321278 0.1474403 0.0083656693
0.53215408 0.1483051 0.0083603989
0.53218037 0.14916991 0.0083551295
0.53220665 0.15003473 0.0083498592
0.53223294 0.15089953 0.0083445897
0.53225923 0.15176435 0.0083393194
0.53149104 0.15287112 0.0077330861
0.53151733 0.15373753 0.0077278065
0.52916044 0.1553394 0.0059195403
0.52680391 0.15695083 0.0041112523
0.52444756 0.15857182 0.0023028711
0.52129728 0.16045229 -0.00010658173
0.53188014 0.068546832 0.0093785096
0.53350258 0.069230378 0.010575789
0.53352869 0.070088819 0.010570559
0.53355473 0.070947267 0.010565327
0.53358084 0.071805701 0.010560096
0.53360695 0.072664149 0.010554865
0.53363305 0.073522583 0.010549634
0.53365916 0.074381024 0.010544403
0.53368521 0.075239465 0.010539171
0.53371131 0.076097906 0.010533941
0.53373742 0.076956347 0.01052871
0.53376353 0.077814795 0.010523479
0.53378958 0.078673229 0.010518247
0.53381568 0.07953167 0.010513016
0.53384179 0.080390111 0.010507785
0.5338679 0.081248552 0.010502554
0.53389394 0.082106993 0.010497323
0.53392005 0.082965434 0.010492092
0.53394616 0.083823875 0.010486861
0.53397226 0.084682316 0.01048163
0.53399831 0.085540757 0.010476398
0.53402442 0.086399198 0.010471167
0.53405052 0.087257639 0.010465937
0.53407663 0.08811608 0.010460705
0.53410268 0.088974513 0.010455474
0.53412879 0.089832962 0.010450243
0.53415489 0.090691395 0.010445012
0.534181 0.091549844 0.010439781
0.53420705 0.092408285 0.010434549
0.53423315 0.093266726 0.010429319
0.53425926 0.094125159 0.010424088
0.53428537 0.094983608 0.010418857
0.53431147 0.095842041 0.010413625
0.53433752 0.096700482 0.010408394
0.53436363 0.097558923 0.010403163
0.53438973 0.098417364 0.010397932
0.53441584 0.099275813 0.010392701
0.53444189 0.10013424 0.01038747
0.53367168 0.10114066 0.0097806146
0.53369778 0.10200069 0.0097753741
0.53372395 0.10286072 0.0097701326
0.53375006 0.10372076 0.009764892
0.53377622 0.10458078 0.0097596515
0.53380239 0.10544083 0.00975441
0.53303248 0.10645837 0.0091474876
0.53305864 0.10732 0.0091422368
0.53308481 0.10818162 0.009136986
0.53311104 0.10904326 0.0091317352
0.5323413 0.11006878 0.0085247289
0.53236753 0.110932 0.0085194688
0.53239381 0.11179522 0.0085142087
0.53242004 0.11265843 0.0085089486
0.53244627 0.11352166 0.0085036885
0.53247249 0.11438487 0.0084984275
0.53249872 0.11524808 0.0084931673
0.532525 0.11611132 0.0084879072
0.53255123 0.11697453 0.0084826471
0.53257746 0.11783775 0.008477387
0.53260368 0.11870097 0.0084721269
0.53262991 0.11956418 0.0084668668
0.53265619 0.12042739 0.0084616067
0.53268242 0.12129062 0.0084563456
0.53270864 0.12215383 0.0084510855
