# .PCD v0.7 - Point Cloud Data file format
VERSION 0.7
FIELDS x y z
SIZE 4 4 4
TYPE F F F
COUNT 1 1 1
WIDTH 1414
HEIGHT 1
VIEWPOINT 0 0 0 1 0 0 0
POINTS 1414
DATA ascii
0.50770158 0.12623194 0.042246826
0.50772774 0.12709196 0.042241585
0.50775385 0.12795201 0.042236343
0.50862432 0.12861283 0.042772636
0.50865036 0.12947127 0.042767406
0.50867647 0.13032971 0.042762171
0.5095467 0.13098416 0.043298502
0.50957274 0.13184102 0.043293282
0.50959879 0.13269787 0.04328806
0.50962484 0.13355471 0.043282837
0.51049489 0.13420118 0.043819249
0.51052088 0.13505645 0.043814037
0.51054686 0.1359117 0.043808825
0.51057285 0.13676696 0.043803614
0.5114426 0.13740548 0.044340041
0.51146859 0.13825916 0.044334836
0.51149452 0.13911282 0.044329636
0.51152045 0.13996647 0.044324435
0.51070285 0.14104323 0.043777555
0.51072884 0.14189848 0.043772344
0.51075482 0.14275374 0.043767132
0.50993741 0.14383689 0.043220181
0.50996345 0.14469373 0.043214958
0.50914615 0.14578165 0.042668015
0.50917226 0.14664008 0.042662781
0.50919831 0.14749853 0.04265755
0.50838125 0.1485928 0.042110566
0.50840741 0.14945284 0.042105325
0.50759047 0.1505519 0.04155831
0.49544615 0.09628661 0.034181815
0.49631813 0.097031876 0.034718823
0.49719003 0.097773969 0.035255853
0.49721673 0.098653115 0.035250496
0.49808854 0.099390417 0.035787586
0.49811521 0.10026796 0.03578224
0.49898681 0.1010005 0.036319319
0.49901342 0.10187646 0.036313981
0.49988487 0.10260421 0.036851101
0.49991146 0.10347858 0.03684577
0.50078279 0.10420156 0.037382916
0.50165397 0.10492135 0.03792008
0.50168043 0.10579254 0.037914772
0.50170696 0.10666372 0.037909463
0.50257802 0.10737713 0.038446695
0.50260442 0.10824671 0.038441394
0.50263089 0.10911631 0.038436096
0.50350171 0.10982335 0.038973339
0.50352806 0.11069135 0.038968049
0.50355446 0.11155935 0.038962759
0.50442511 0.11226003 0.039500039
0.50445139 0.11312643 0.03949476
0.50447774 0.11399283 0.039489482
0.50450408 0.11485924 0.039484203
0.50453043 0.11572564 0.039478924
0.50455678 0.11659205 0.039473642
0.50458312 0.11745846 0.039468363
0.50545335 0.11814639 0.040005721
0.50547963 0.11901121 0.040000454
0.50550592 0.11987601 0.039995182
0.50553221 0.12074083 0.039989911
0.50555849 0.12160563 0.039984643
0.50642842 0.12228402 0.040522061
0.50645465 0.12314723 0.040516801
0.50648093 0.12401046 0.040511541
0.50650716 0.12487368 0.040506277
0.50737691 0.12554409 0.04104377
0.50740308 0.1264057 0.041038521
0.5074293 0.12726733 0.041033272
0.50829881 0.12793139 0.041570775
0.50832492 0.12879142 0.041565534
0.50835109 0.12965146 0.041560292
0.50922042 0.13030913 0.042097837
0.50924653 0.13116756 0.042092606
0.50927258 0.13202602 0.042087376
0.51014173 0.13267732 0.042624958
0.51016778 0.13353416 0.042619735
0.51019382 0.13439101 0.042614512
0.51021987 0.13524787 0.042609293
0.51108879 0.1358912 0.043146957
0.51111478 0.13674645 0.043141745
0.51114076 0.1376017 0.043136533
0.51116675 0.13845696 0.043131322
0.5111928 0.13931222 0.04312611
0.51121879 0.14016747 0.043120898
0.51124477 0.14102273 0.043115687
0.51127076 0.14187798 0.043110475
0.51045424 0.14295949 0.042562298
0.51048028 0.14381635 0.042557079
0.509664 0.14490262 0.042008907
0.50969011 0.14576106 0.042003676
0.50887388 0.14685212 0.041455477
0.50890005 0.14771216 0.041450236
0.50892621 0.14857219 0.041444995
0.50811023 0.1496696 0.040896758
0.50813639 0.15053125 0.040891506
0.50816262 0.15139286 0.040886257
0.49510726 0.094633035 0.032966152
0.49513415 0.095516957 0.032960765
0.49600521 0.096265458 0.033498991
0.49687618 0.097010761 0.034037232
0.49690294 0.097891502 0.034031868
0.4977738 0.098632038 0.034570131
0.49864456 0.099369377 0.035108455
0.49867123 0.10024692 0.035103109
0.49869791 0.10112449 0.035097759
0.49956846 0.10185546 0.03563609
0.49959508 0.10273142 0.035630755
0.50046545 0.10345761 0.036169108
0.50049204 0.10433199 0.036163777
0.50136232 0.10505341 0.036702167
0.50138885 0.10592619 0.036696848
0.50225896 0.10664283 0.03723526
0.50228542 0.10751401 0.037229951
0.50231189 0.10838519 0.037224643
0.50318187 0.10909545 0.037763134
0.50320828 0.10996504 0.037757833
0.50323474 0.11083464 0.037752535
0.50410444 0.11153854 0.03829103
0.50413084 0.11240654 0.03828574
0.50415719 0.11327454 0.03828045
0.50418359 0.11414253 0.03827516
0.50421 0.11501053 0.03826987
0.50507939 0.11570486 0.03880842
0.50510573 0.11657128 0.038803142
0.50513208 0.11743768 0.038797859
0.50515842 0.11830408 0.03879258
0.50518477 0.11917049 0.038787302
0.50605386 0.11985528 0.039325912
0.50608015 0.1207201 0.039320644
0.50610644 0.1215849 0.039315373
0.50613272 0.12244971 0.039310101
0.50615901 0.12331451 0.039304834
0.50618529 0.12417934 0.039299563
0.50705409 0.12485299 0.039838243
0.50708032 0.12571619 0.039832983
0.5071066 0.12657942 0.039827723
0.50713283 0.12744263 0.039822463
0.50800145 0.12810831 0.040361218
0.50802761 0.12896992 0.040355965
0.50889605 0.12963083 0.040894724
0.50892216 0.13049087 0.040889483
0.50894833 0.13135089 0.040884241
0.50981653 0.13200544 0.041423038
0.50984263 0.13286386 0.041417807
0.50986868 0.13372232 0.041412577
0.50989479 0.13458075 0.041407343
0.51076275 0.13522732 0.041946184
0.5107888 0.13608417 0.041940961
0.51081485 0.13694102 0.041935742
0.51168269 0.1375812 0.042474657
0.51170868 0.13843645 0.042469446
0.51173466 0.13929172 0.042464234
0.51176071 0.14014697 0.042459022
0.5117867 0.14100222 0.042453811
0.51097113 0.1420821 0.041904412
0.51099718 0.14293896 0.041899189
0.51102322 0.1437958 0.04189397
0.51020789 0.14488204 0.041344572
0.510234 0.14574048 0.041339342
0.51026011 0.14659892 0.041334108
0.50944501 0.14769153 0.040784668
0.50947112 0.14855157 0.040779427
0.50865614 0.14964895 0.040229954
0.50868237 0.15051058 0.040224705
0.50870854 0.15137221 0.040219452
0.49566734 0.094611838 0.032282095
0.49569422 0.09549576 0.032276709
0.49656427 0.096244298 0.032816164
0.49659109 0.097126625 0.032810789
0.49746102 0.097870387 0.03335027
0.49833083 0.09861096 0.033889774
0.49835756 0.099490099 0.033884417
0.49838427 0.10036925 0.03387906
0.49925396 0.10110345 0.034418631
0.49928063 0.10198099 0.034413282
0.50015008 0.10271042 0.034952857
0.50017673 0.10358638 0.034947518
0.50020337 0.10446234 0.03494218
0.50107265 0.10518539 0.035481788
0.50109923 0.10605976 0.035476457
0.50196838 0.10677803 0.036016099
0.50199491 0.10765081 0.036010783
0.50286388 0.10836431 0.036550447
0.50289041 0.10923549 0.036545139
0.50291687 0.11010666 0.03653983
0.50378573 0.11081379 0.037079569
0.50381213 0.11168338 0.037074272
0.5038386 0.11255296 0.037068971
0.503865 0.11342256 0.037063673
0.50389147 0.11429214 0.037058376
0.50475997 0.11498972 0.037598137
0.50478637 0.11585771 0.037592847
0.50481272 0.11672571 0.037587557
0.50483912 0.11759371 0.037582267
0.50570738 0.11828331 0.038122084
0.50573373 0.11914972 0.038116805
0.50576007 0.12001612 0.038111523
0.50578636 0.12088253 0.038106244
0.5058127 0.12174892 0.038100965
0.50668073 0.12242898 0.038640834
0.50670701 0.12329379 0.038635563
0.5067333 0.12415861 0.038630296
0.50675958 0.12502341 0.038625024
0.50678587 0.12588823 0.038619753
0.50765353 0.12655872 0.039159685
0.50767976 0.12742195 0.039154425
0.50770599 0.12828515 0.039149165
0.50857353 0.12894927 0.039689168
0.50859976 0.1298109 0.039683919
0.50862592 0.13067253 0.039678667
0.50949323 0.13133028 0.040218674
0.5095194 0.13219032 0.040213432
0.50954551 0.13305035 0.040208191
0.51041263 0.13370174 0.040748239
0.51043874 0.13456017 0.040743005
0.51046485 0.13541861 0.040737774
0.51049089 0.13627706 0.040732544
0.51135778 0.13692048 0.041272637
0.51138383 0.13777733 0.041267417
0.51140988 0.13863416 0.041262195
0.51143593 0.13949102 0.041256975
0.51146197 0.14034787 0.041251753
0.51148802 0.14120471 0.04124653
0.51151407 0.14206156 0.041241311
0.51154011 0.14291841 0.041236088
0.51072574 0.14400302 0.040685464
0.51075184 0.14486146 0.040680233
0.50993764 0.14595085 0.04012958
0.50996381 0.14681087 0.040124338
0.50998992 0.14767091 0.040119097
0.51001608 0.14853095 0.040113855
0.50920212 0.1496283 0.039563157
0.50922829 0.15048993 0.039557908
0.50925452 0.15135154 0.039552655
0.49535817 0.093837298 0.031057345
0.49622741 0.094590649 0.031598039
0.4962543 0.095474571 0.031592652
0.49628115 0.096358493 0.031587265
0.49715015 0.097105473 0.032127958
0.49717698 0.097987801 0.032122582
0.49804583 0.098730005 0.032663304
0.4989146 0.099469021 0.033204053
0.49894133 0.10034817 0.033198696
0.49896806 0.10122732 0.033193339
0.49983668 0.10195995 0.033734154
0.49986336 0.1028375 0.033728804
0.50073177 0.10356538 0.034269616
0.50075841 0.10444134 0.034264278
0.50078505 0.10531729 0.034258939
0.50165325 0.10603879 0.034799796
0.50167984 0.10691316 0.034794468
0.50254792 0.10762988 0.035335347
0.50257444 0.10850266 0.035330027
0.50260097 0.10937543 0.035324708
0.50346887 0.11008578 0.035865631
0.50349534 0.11095697 0.035860319
0.5035218 0.11182815 0.03585501
0.50354832 0.11269932 0.035849702
0.50441599 0.11340171 0.036390703
0.50444245 0.1142713 0.036385406
0.50446886 0.11514089 0.036380105
0.50449532 0.11601046 0.036374807
0.50452173 0.11688006 0.036369506
0.50538909 0.1175729 0.036910534
0.5054155 0.1184409 0.036905244
0.50544184 0.1193089 0.036899954
0.50630903 0.11999535 0.037441023
0.50633538 0.12086175 0.03743574
0.50636172 0.12172815 0.037430461
0.50638801 0.12259457 0.037425183
0.50641435 0.12346096 0.037419904
0.50728124 0.12413787 0.037961025
0.50730753 0.12500268 0.037955754
0.50733382 0.12586749 0.037950486
0.5073601 0.1267323 0.037945215
0.50738639 0.12759711 0.037939943
0.50825298 0.12826446 0.038481127
0.5082792 0.12912768 0.038475867
0.50830543 0.12999091 0.038470607
0.5091719 0.13065188 0.039011858
0.50919807 0.13151349 0.039006609
0.5092243 0.13237512 0.039001357
0.51009047 0.13302973 0.039542619
0.51011664 0.13388976 0.039537378
0.51014274 0.13474979 0.039532136
0.51016891 0.13560982 0.039526895
0.51103485 0.13625647 0.040068202
0.51106095 0.13711491 0.040062971
0.51108706 0.13797335 0.040057741
0.51111311 0.13883179 0.040052507
0.51197886 0.13947047 0.040593866
0.51200491 0.14032732 0.040588643
0.51203096 0.14118417 0.040583421
0.51121747 0.14226556 0.040031582
0.51124358 0.143124 0.040026352
0.51126969 0.14398244 0.040021122
0.5112958 0.14484088 0.040015891
0.51048261 0.14593023 0.039464008
0.51050872 0.14679025 0.039458767
0.51053488 0.1476503 0.039453525
0.50972188 0.14874601 0.038901597
0.50974804 0.14960764 0.038896348
0.50977427 0.15046927 0.038891099
0.50980043 0.15133089 0.038885847
0.50898761 0.15243459 0.038333841
0.49591926 0.093816072 0.030372053
0.49594617 0.094701588 0.030366657
0.49681437 0.095453382 0.030908588
0.49684122 0.096337304 0.030903202
0.4968681 0.097221226 0.030897815
0.49857712 0.097828157 0.031987082
0.49860391 0.09870889 0.031981714
0.49863067 0.099589624 0.031976346
0.49949837 0.1003271 0.032518335
0.4995251 0.10120624 0.032512974
0.49955183 0.10208538 0.032507617
0.50041938 0.10281646 0.033049677
0.50044608 0.10369401 0.033044331
0.50131345 0.10442034 0.033586383
0.50134003 0.10529629 0.033581045
0.50136667 0.10617226 0.03357571
0.50223386 0.1068922 0.034117803
0.50226045 0.10776657 0.034112476
0.50228703 0.10864093 0.034107149
0.50315398 0.1093545 0.034649279
0.5031805 0.11022728 0.034643959
0.50320703 0.11110006 0.034638643
0.50407386 0.11180726 0.035180815
0.50410032 0.11267844 0.035175506
0.50412679 0.11354963 0.035170197
0.50415325 0.11442081 0.035164889
0.50417978 0.11529198 0.03515958
0.50504631 0.11598962 0.035701841
0.50507271 0.11685921 0.035696544
0.50509918 0.11772881 0.035691246
0.50512558 0.11859839 0.035685945
0.50599182 0.11928808 0.036228221
0.50601822 0.12015607 0.036222935
0.50604463 0.12102407 0.036217645
0.50607097 0.12189206 0.036212355
0.50693703 0.12257379 0.036754679
0.50696337 0.12344019 0.0367494
0.50698966 0.1243066 0.036744121
0.507016 0.125173 0.036738843
0.50788176 0.12584676 0.037281219
0.50790805 0.12671156 0.037275948
0.50793433 0.12757638 0.037270676
0.50796062 0.1284412 0.037265409
0.5079869 0.129306 0.037260137
0.50885242 0.12997021 0.03780257
0.50887865 0.13083342 0.037797309
0.50890487 0.13169664 0.037792049
0.5089311 0.13255987 0.037786789
0.50979638 0.13321608 0.038329303
0.50982261 0.13407771 0.038324054
0.51068771 0.13472918 0.038866568
0.51071382 0.13558921 0.038861327
0.51073998 0.13644925 0.038856085
0.51076609 0.13730928 0.038850844
0.51163095 0.13795277 0.039393403
0.51165706 0.13881122 0.039388172
0.51168317 0.13966966 0.039382942
0.51170927 0.1405281 0.039377708
0.51173532 0.14138654 0.039372478
0.51176143 0.14224496 0.039367247
0.51178753 0.14310342 0.039362017
0.51181364 0.14396186 0.039356787
0.51183969 0.14482029 0.039351553
0.51102751 0.14590961 0.038798437
0.51105368 0.14676964 0.038793195
0.51107979 0.14762968 0.038787954
0.51026779 0.14872536 0.038234796
0.51029402 0.14958698 0.038229544
0.51032019 0.15044861 0.038224295
0.50950837 0.15155068 0.037671063
0.5095346 0.15241389 0.037665803
0.49306485 0.092533045 0.027503598
0.4947727 0.093167134 0.028595161
0.49648035 0.093794838 0.029686762
0.49650726 0.094680361 0.029681366
0.49737445 0.095432185 0.030224534
0.4974013 0.096316114 0.030219147
0.49826831 0.097063169 0.030762307
0.49829513 0.097945496 0.03075693
0.49916196 0.098687775 0.03130012
0.49918872 0.099568509 0.031294752
0.49921551 0.10044925 0.031289387
0.50008214 0.10118517 0.031832617
0.5001089 0.1020643 0.031827256
0.5001356 0.10294345 0.031821899
0.50100207 0.10367298 0.032365203
0.50102878 0.10455054 0.032359857
0.50189507 0.10527529 0.032903153
0.50192171 0.10615126 0.032897815
0.50194836 0.10702721 0.032892477
0.50281447 0.1077456 0.03343581
0.50284106 0.10861997 0.033430483
0.50286758 0.10949434 0.033425156
0.50289416 0.1103687 0.033419829
0.50376004 0.11107913 0.033963211
0.50378656 0.11195191 0.033957891
0.50381309 0.11282468 0.033952575
0.50383961 0.11369745 0.033947255
0.50470525 0.11439992 0.03449069
0.50473177 0.1152711 0.034485381
0.50475824 0.11614228 0.034480073
0.5047847 0.11701347 0.034474764
0.50481117 0.11788465 0.034469455
0.50567657 0.11857755 0.035012979
0.50570303 0.11944714 0.035007682
0.50572944 0.12031672 0.035002381
0.5057559 0.12118632 0.034997083
0.506621 0.12187125 0.035540622
0.50664735 0.12273925 0.035535332
0.50667375 0.12360725 0.035530042
0.50753868 0.12428582 0.036073621
0.50756496 0.12515223 0.036068343
0.50759131 0.12601863 0.03606306
0.50761765 0.12688504 0.036057781
0.507644 0.12775144 0.036052503
0.50850862 0.12842046 0.036596142
0.50853491 0.12928526 0.03659087
0.50856119 0.13015008 0.036585603
0.50858748 0.1310149 0.036580332
0.50945187 0.13167594 0.037124015
0.50947809 0.13253917 0.037118755
0.50950432 0.13340238 0.037113495
0.50953054 0.1342656 0.037108235
0.51039475 0.13491867 0.037652001
0.51042092 0.1357803 0.037646752
0.51044714 0.13664193 0.037641499
0.51131105 0.13728866 0.038185272
0.51133722 0.1381487 0.038180031
0.51136333 0.13900872 0.038174789
0.51138949 0.13986875 0.038169552
0.51225317 0.14050752 0.038713373
0.51227927 0.14136595 0.038708143
0.51230538 0.14222439 0.038702913
0.51233143 0.14308284 0.038697679
0.51235753 0.14394128 0.038692448
0.51154631 0.14502895 0.038138106
0.51157248 0.145889 0.038132865
0.51159859 0.14674902 0.038127623
0.51162475 0.14760906 0.038122382
0.51165086 0.14846909 0.038117141
0.51083994 0.14956632 0.037562743
0.51086617 0.15042795 0.03755749
0.51089233 0.15128957 0.037552241
0.5109185 0.15215121 0.037546992
0.51010782 0.15325642 0.036992513
0.49108449 0.091996826 0.025169643
0.49362999 0.092511661 0.026813377
0.49617517 0.09301696 0.028457139
0.49620211 0.093904063 0.028451733
0.49706835 0.094659127 0.028996075
0.49793452 0.095410995 0.029540475
0.49796137 0.096294917 0.029535089
0.49798825 0.097178839 0.029529702
0.49885419 0.097924344 0.030074107
0.49888101 0.098806672 0.030068729
0.4997468 0.099547394 0.03061316
0.49977356 0.10042813 0.030607792
0.49980032 0.10130887 0.030602425
0.5006659 0.10204323 0.031146897
0.50069267 0.10292237 0.03114154
0.50071937 0.10380152 0.031136183
0.50158483 0.1045295 0.031680729
0.50161147 0.10540704 0.03167538
0.50163817 0.1062846 0.031670034
0.50250334 0.10700621 0.032214578
0.50252998 0.10788217 0.03220924
0.50255662 0.10875813 0.032203905
0.5034216 0.10947338 0.032748491
0.50344819 0.11034773 0.032743163
0.50347477 0.11122211 0.032737836
0.50350136 0.11209648 0.032732509
0.50352794 0.11297084 0.032727178
0.50439262 0.11367653 0.033271827
0.50441921 0.1145493 0.033266507
0.50444573 0.11542208 0.033261187
0.50531024 0.11612139 0.033805873
0.5053367 0.11699258 0.033800565
0.50536323 0.11786376 0.033795256
0.50538969 0.11873494 0.033789948
0.50541615 0.11960613 0.033784639
0.50628042 0.12029587 0.034329414
0.50630689 0.12116546 0.034324117
0.50633329 0.12203505 0.034318816
0.50635976 0.12290464 0.034313519
0.50722373 0.12358643 0.034858309
0.50725013 0.12445443 0.034853019
0.50727648 0.12532243 0.034847729
0.50814033 0.12599786 0.03539256
0.50816661 0.12686427 0.035387281
0.50819296 0.12773067 0.035382003
0.5082193 0.12859707 0.035376724
0.50824565 0.12946346 0.035371441
0.50910914 0.13012934 0.035916332
0.50913543 0.13099416 0.035911061
0.50916171 0.13185897 0.035905793
0.509188 0.13272378 0.035900522
0.51005125 0.13338168 0.036445461
0.51007754 0.1342449 0.036440201
0.51010376 0.13510813 0.036434941
0.51012999 0.13597134 0.036429681
0.51099306 0.13662128 0.036974698
0.51101923 0.13748291 0.036969446
0.51104546 0.13834453 0.036964197
0.51190829 0.13898811 0.037509222
0.5119344 0.13984813 0.03750398
0.51196057 0.14070816 0.037498739
0.51198667 0.1415682 0.037493497
0.51201284 0.14242823 0.037488259
0.51203901 0.14328827 0.037483018
0.51206511 0.14414831 0.037477776
0.51209128 0.14500834 0.037472535
0.51211739 0.14586838 0.037467293
0.51214355 0.1467284 0.037462056
0.51133353 0.14782241 0.03690644
0.51135969 0.14868404 0.036901191
0.51138592 0.14954567 0.036895938
0.51141208 0.1504073 0.036890689
0.5106023 0.15150928 0.036334995
0.51146448 0.15213054 0.036880188
0.51065475 0.15323572 0.036324475
0.49249107 0.091849685 0.025026668
0.4950335 0.092363045 0.026674112
0.4958989 0.093124516 0.027219649
0.49676421 0.093882799 0.027765209
0.49762943 0.094637901 0.028310787
0.49765635 0.095523417 0.028305391
0.49852148 0.096273728 0.028851029
0.49854833 0.09715765 0.028845642
0.49857521 0.098041572 0.028840255
0.49944007 0.098785512 0.029385902
0.4994669 0.099667847 0.029380525
0.50033164 0.10040702 0.029926201
0.5003584 0.10128776 0.029920835
0.50038517 0.1021685 0.029915467
0.50124967 0.10290129 0.030461179
0.50127643 0.10378044 0.030455822
0.50130314 0.10465959 0.030450465
0.50216752 0.10538601 0.03099625
0.50219423 0.10626356 0.030990902
0.50222087 0.10714111 0.030985555
0.50308502 0.10786117 0.031531349
0.50311166 0.10873713 0.03152601
0.50313824 0.10961309 0.031520672
0.50316489 0.11048905 0.031515334
0.5040288 0.11120114 0.032061175
0.50405538 0.11207552 0.032055847
0.50408196 0.11294989 0.03205052
0.50410855 0.11382425 0.032045189
0.50413513 0.11469861 0.032039862
0.50499874 0.11540116 0.032585759
0.50502527 0.11627393 0.032580439
0.50505179 0.1171467 0.032575123
0.50507832 0.11801948 0.032569803
0.50594169 0.11871406 0.033115752
0.50596815 0.11958524 0.033110444
0.50599462 0.12045641 0.033105135
0.50602114 0.1213276 0.033099823
0.50688428 0.1220142 0.033645853
0.50691074 0.1228838 0.033640552
0.50693715 0.12375338 0.033635255
0.50696361 0.12462297 0.033629954
0.50782651 0.12530163 0.034175996
0.50785285 0.12616962 0.03417071
0.50787926 0.12703761 0.03416542
0.50874192 0.1277099 0.034711502
0.50876826 0.12857629 0.034706224
0.50879461 0.12944269 0.034700941
0.50882095 0.1303091 0.034695663
0.5088473 0.13117552 0.034690384
0.50970966 0.13183823 0.035236526
0.50973594 0.13270305 0.035231255
0.50976223 0.13356785 0.035225987
0.50978857 0.13443267 0.035220716
0.50981486 0.13529748 0.035215445
0.51067692 0.13595064 0.035761643
0.51070321 0.13681388 0.035756383
0.51072943 0.13767709 0.035751123
0.51159137 0.13832387 0.036297392
0.5116176 0.1391855 0.036292143
0.51164377 0.14004712 0.036286894
0.51250547 0.14068754 0.036833171
0.51253164 0.14154759 0.036827929
0.5125578 0.14240761 0.036822688
0.51258391 0.14326765 0.036817446
0.51261008 0.1441277 0.036812209
0.51263618 0.14498772 0.036806967
0.51266235 0.14584775 0.036801726
0.51268846 0.14670777 0.036796484
0.5118795 0.14780176 0.036239639
0.51190567 0.14866339 0.036234386
0.51193184 0.149525 0.036229137
0.51195806 0.15038665 0.036223885
0.51114923 0.15148859 0.035666957
0.51117545 0.15235181 0.035661697
0.51120168 0.15321502 0.035656437
0.49473312 0.091577016 0.02543837
0.49643499 0.09221451 0.02653731
0.49729934 0.092974424 0.02708409
0.49732631 0.093861528 0.027078684
0.49735329 0.094748639 0.027073277
0.49821743 0.095502183 0.027620099
0.49824435 0.096387699 0.027614703
0.4991084 0.09713646 0.028161583
0.49913529 0.098020382 0.028156197
0.49916214 0.098904304 0.028150812
0.50002593 0.099646695 0.028697701
0.50005275 0.10052902 0.028692324
0.50091642 0.10126664 0.029239241
0.50094324 0.10214738 0.029233873
0.50097001 0.10302812 0.029228507
0.50183344 0.10375936 0.029775461
0.5018602 0.10463851 0.029770104
0.5018869 0.10551766 0.029764747
0.50191361 0.1063968 0.02975939
0.50277692 0.10712007 0.030306429
0.50280356 0.10799763 0.030301081
0.50283027 0.10887517 0.030295733
0.50369328 0.1095921 0.030842775
0.50371993 0.11046804 0.030837437
0.50374657 0.11134401 0.030832099
0.50377315 0.11221997 0.03082676
0.5037998 0.11309593 0.030821424
0.50466257 0.11380329 0.031368528
0.50468916 0.11467765 0.0313632
0.50471568 0.11555202 0.03135787
0.50474226 0.11642638 0.031352542
0.50476885 0.11730076 0.031347215
0.50563133 0.11799856 0.031894371
0.50565785 0.11887132 0.031889055
0.50568438 0.11974411 0.031883735
0.50654662 0.12043553 0.032430936
0.50657314 0.12130672 0.032425627
0.50659961 0.1221779 0.032420319
0.50662607 0.12304907 0.03241501
0.50665253 0.12392025 0.032409701
0.5075146 0.12460212 0.032956988
0.507541 0.12547171 0.03295169
0.50756747 0.1263413 0.032946389
0.50759387 0.1272109 0.032941092
0.50845563 0.12788481 0.0334884
0.50848198 0.1287528 0.03348311
0.50934356 0.12942192 0.034030445
0.50936991 0.13028833 0.034025162
0.50939626 0.13115475 0.034019884
0.5094226 0.13202114 0.034014605
0.50944895 0.13288756 0.034009326
0.51031023 0.13354713 0.034556717
0.51033652 0.13441193 0.034551445
0.5103628 0.13527673 0.034546178
0.51038909 0.13614155 0.034540907
0.51125014 0.13679318 0.035088349
0.51127636 0.13765639 0.035083089
0.51130259 0.13851961 0.035077829
0.51132888 0.13938282 0.035072569
0.51218975 0.14002647 0.03562009
0.51221591 0.14088808 0.035614841
0.51224208 0.14174972 0.035609588
0.51310271 0.14238699 0.03615712
0.51312888 0.14324702 0.036151879
0.51315498 0.14410707 0.036146637
0.51318115 0.14496709 0.036141396
0.51320726 0.14582713 0.036136154
0.51239926 0.14691947 0.035578087
0.51242542 0.1477811 0.035572834
0.51245159 0.14864272 0.035567585
0.51247782 0.14950435 0.035562333
0.51166993 0.15060467 0.035004187
0.51169616 0.15146789 0.034998927
0.51172245 0.15233111 0.034993667
0.51174867 0.15319432 0.034988407
0.5117749 0.15405755 0.034983143
0.4969711 0.091304503 0.025854969
0.49783447 0.092066042 0.026402975
0.49786144 0.092953153 0.026397567
0.49788842 0.093840256 0.026392162
0.49791536 0.094727375 0.026386756
0.49877852 0.095480956 0.026934808
0.49880543 0.096366465 0.026929412
0.49883235 0.097251981 0.026924016
0.49969536 0.097999185 0.02747214
0.49972221 0.098883107 0.027466753
0.49974909 0.099767029 0.027461367
0.50061184 0.10050787 0.028009497
0.50063866 0.10139021 0.028004121
0.50150126 0.10212626 0.028552279
0.50152802 0.103007 0.028546913
0.50155479 0.10388774 0.028541546
0.50158161 0.10476848 0.028536178
0.50244397 0.10549658 0.029084386
0.50247067 0.10637572 0.029079029
0.50249738 0.10725486 0.029073672
0.50335962 0.10797659 0.029621953
0.50338632 0.10885414 0.029616605
0.50341296 0.10973169 0.029611258
0.50343966 0.11060923 0.02960591
0.50430161 0.11132301 0.030154206
0.50432819 0.11219896 0.030148868
0.50435483 0.11307493 0.030143529
0.50438148 0.11395089 0.030138191
0.50440806 0.11482684 0.030132854
0.50526971 0.11553106 0.030681206
0.50529629 0.11640542 0.030675879
0.50532287 0.11727979 0.03067055
0.50534946 0.11815416 0.030665223
0.50537604 0.11902852 0.030659894
0.50540262 0.11990289 0.030654566
0.50626391 0.12059595 0.031202987
0.50629044 0.12146873 0.031197669
0.50631696 0.1223415 0.031192351
0.50717807 0.12302819 0.031740811
0.50720459 0.12389937 0.031735502
0.50723106 0.12477056 0.031730194
0.50725752 0.12564173 0.031724885
0.50811845 0.12632045 0.032273427
0.50814486 0.12719005 0.032268129
0.50817132 0.12805963 0.032262828
0.50819772 0.12892921 0.032257531
0.50905836 0.12959999 0.032806087
0.50908476 0.13046798 0.032800797
0.50994521 0.13113397 0.033349384
0.50997156 0.13200037 0.033344105
0.5099979 0.13286678 0.033338826
0.51002425 0.13373318 0.033333544
0.51005059 0.13459958 0.033328265
0.51091075 0.13525601 0.033876911
0.51093704 0.13612083 0.03387164
0.51096332 0.13698564 0.033866368
0.51098961 0.13785045 0.033861101
0.51184958 0.13849892 0.034409791
0.51187581 0.13936213 0.034404531
0.51190203 0.14022535 0.034399271
0.51192826 0.14108856 0.034394011
0.51278806 0.14172906 0.034942787
0.51281422 0.14259067 0.034937534
0.51284045 0.14345232 0.034932286
0.51286662 0.14431393 0.034927033
0.51289278 0.14517556 0.034921784
0.51291901 0.14603719 0.034916531
0.51294518 0.14689882 0.034911282
0.51297134 0.14776044 0.034906033
0.51299757 0.14862207 0.034900781
0.51302373 0.1494837 0.034895532
0.51221693 0.15058398 0.03433615
0.51224315 0.15144719 0.03433089
0.51226938 0.15231042 0.034325629
0.5122956 0.15317363 0.034320369
0.51232183 0.15403685 0.034315109
0.4983696 0.091157667 0.025721855
0.49839658 0.092044778 0.02571645
0.49842355 0.092931889 0.025711043
0.49845049 0.093818992 0.025705637
0.49847746 0.094706103 0.025700232
0.49850443 0.095593214 0.025694827
0.4985314 0.096480317 0.025689421
0.49939343 0.097230755 0.026238726
0.49942034 0.098116264 0.02623333
0.49944726 0.09900178 0.026227934
0.50030917 0.09974584 0.026777308
0.50033605 0.10062976 0.026771924
0.50119776 0.10136905 0.027321296
0.50122452 0.10225138 0.027315918
0.50125134 0.10313371 0.027310543
0.50211287 0.10386663 0.027859954
0.50213963 0.10474737 0.027854588
0.50216639 0.1056281 0.02784922
0.50302774 0.10635465 0.028398668
0.50305444 0.10723379 0.028393311
0.50308114 0.10811294 0.028387953
0.50310791 0.10899208 0.028382596
0.50396901 0.10971065 0.02893213
0.50399566 0.1105882 0.028926782
0.50402236 0.11146575 0.028921435
0.504049 0.11234331 0.028916087
0.50490987 0.11305393 0.029465633
0.50493652 0.11392989 0.029460294
0.5049631 0.11480584 0.029454956
0.50498974 0.1156818 0.029449619
0.50501639 0.11655776 0.029444281
0.5058769 0.11725883 0.029993886
0.50590348 0.11813319 0.029988559
0.50593007 0.11900756 0.02998323
0.50595665 0.11988194 0.029977903
0.50598323 0.12075629 0.029972574
0.50600976 0.12163067 0.029967247
0.50686997 0.12232057 0.030516921
0.5068965 0.12319335 0.030511601
0.50692302 0.12406612 0.030506283
0.50778306 0.12474967 0.031055996
0.50780952 0.12562086 0.031050688
0.50783598 0.12649202 0.031045379
0.50786251 0.12736322 0.031040069
0.50872231 0.12803878 0.031589862
0.50874871 0.12890837 0.031584565
0.50877517 0.12977795 0.031579264
0.50880158 0.13064755 0.031573966
0.50966114 0.13131517 0.032123774
0.50968748 0.13218316 0.032118484
0.51054686 0.13284601 0.032668326
0.51057321 0.13371241 0.032663044
0.51059955 0.13457881 0.032657765
0.5106259 0.13544521 0.032652486
0.51065224 0.13631162 0.032647207
0.51151133 0.1369649 0.033197101
0.51153761 0.13782971 0.03319183
0.5115639 0.13869452 0.033186562
0.51159018 0.13955933 0.033181291
0.51244903 0.14020465 0.033731237
0.51247525 0.14106786 0.033725977
0.51250148 0.14193109 0.033720717
0.5125277 0.14279431 0.033715457
0.51255393 0.14365754 0.033710197
0.51341254 0.14429328 0.034260232
0.51343876 0.14515491 0.034254979
0.51346493 0.14601654 0.03424973
0.51349115 0.14687815 0.034244481
0.51351732 0.14773978 0.034239229
0.51271141 0.14883684 0.033678632
0.51273763 0.14970006 0.033673372
0.51359588 0.15032467 0.034223478
0.51279008 0.15142649 0.033662852
0.51281631 0.15228972 0.033657592
0.5128426 0.15315293 0.033652332
0.51203704 0.15426113 0.033091702
0.5112316 0.1553725 0.032531053
0.4980703 0.090373188 0.024484871
0.4980973 0.091261886 0.024479454
0.49895868 0.092023507 0.025029922
0.49898565 0.092910618 0.025024517
0.49817833 0.093927987 0.024463208
0.49903956 0.094684832 0.025013706
0.49906653 0.095571943 0.025008298
0.4990935 0.096459053 0.025002893
0.49912044 0.097346157 0.024997488
0.49998143 0.098095037 0.025548035
0.50000834 0.098980553 0.025542639
0.50003529 0.09986607 0.025537243
0.5008961 0.10060857 0.026087862
0.50092298 0.1014925 0.026082477
0.50094986 0.10237642 0.02607709
0.50181043 0.10311256 0.026627712
0.50183725 0.10399488 0.026622336
0.50269771 0.10472625 0.02717299
0.50272447 0.10560698 0.027167624
0.50275123 0.10648772 0.027162256
0.50361151 0.10721271 0.027712947
0.50363821 0.10809186 0.02770759
0.50366497 0.108971 0.027702233
0.50369167 0.10985015 0.027696876
0.50371838 0.11072929 0.027691519
0.50457841 0.11144471 0.028242301
0.50460505 0.11232227 0.028236954
0.50463176 0.11319982 0.028231608
0.5054915 0.11390889 0.028782398
0.50551814 0.11478484 0.028777059
0.50554478 0.1156608 0.028771723
0.50557137 0.11653677 0.028766384
0.50559801 0.11741272 0.028761046
0.50562465 0.11828869 0.028755708
0.5056513 0.11916464 0.028750371
0.50651067 0.11986097 0.029301235
0.50653726 0.12073533 0.029295908
0.50656378 0.1216097 0.029290579
0.50659037 0.12248407 0.029285252
0.50661695 0.12335844 0.029279923
0.50747603 0.12404519 0.029830851
0.50750256 0.12491798 0.029825531
0.50752914 0.12579076 0.029820213
0.50755566 0.12666352 0.029814895
0.50841451 0.12734233 0.030365868
0.50844097 0.12821351 0.030360557
0.50846744 0.12908469 0.030355249
0.50932616 0.12975711 0.030906295
0.50935256 0.13062671 0.030900996
0.50937903 0.1314963 0.030895697
0.51023751 0.13216235 0.031446751
0.51026386 0.13303035 0.031441461
0.51029027 0.13389835 0.031436171
0.51114851 0.13455804 0.031987261
0.51117486 0.13542444 0.031981979
0.5112012 0.13629085 0.0319767
0.51122755 0.13715725 0.031971421
0.51208556 0.13780898 0.032522559
0.51211184 0.1386738 0.032517292
0.51213813 0.1395386 0.03251202
0.51216441 0.14040342 0.032506753
0.5121907 0.14126822 0.032501481
0.51304841 0.1419104 0.033052679
0.5130747 0.14277361 0.033047419
0.51310092 0.14363684 0.033042159
0.51312715 0.14450006 0.033036899
0.51315337 0.14536327 0.033031639
0.5131796 0.1462265 0.033026379
0.51320589 0.1470897 0.033021118
0.51323211 0.14795293 0.033015858
0.51325834 0.14881614 0.033010598
0.51328456 0.14967936 0.033005338
0.51331079 0.15054259 0.033000078
0.51333708 0.1514058 0.032994818
0.5133633 0.15226902 0.032989558
0.5125587 0.15337558 0.032427702
0.51258498 0.1542404 0.032422431
0.51178056 0.15535173 0.031860549
0.5109762 0.15646626 0.031298649
0.42698041 0.074253894 -0.023394536
0.42701155 0.075277969 -0.023400776
0.42704266 0.076302052 -0.023407018
0.49863338 0.09035188 0.023797112
0.49866042 0.091240585 0.023791697
0.49868742 0.092129283 0.023786282
0.49871442 0.09301798 0.023780866
0.49874145 0.093906686 0.023775451
0.49876845 0.094795384 0.023770034
0.49962863 0.095550679 0.024321778
0.49965557 0.096437782 0.024316372
0.49968255 0.097324893 0.024310965
0.49970952 0.098212004 0.02430556
0.49973649 0.099099107 0.024300154
0.50059634 0.099844836 0.024851952
0.50062329 0.10073035 0.024846556
0.50148302 0.1014713 0.025398418
0.5015099 0.10235523 0.025393032
0.50153679 0.10323914 0.025387645
0.50239635 0.10397373 0.025939511
0.50242317 0.10485607 0.025934134
0.50244993 0.10573839 0.025928758
0.50330931 0.10646661 0.026480662
0.50333607 0.10734734 0.026475295
0.50336283 0.10822808 0.026469929
0.5033896 0.10910882 0.026464561
0.50424874 0.10982907 0.027016515
0.50427544 0.11070821 0.027011158
0.50430214 0.11158736 0.027005801
0.50432891 0.11246651 0.027000442
0.50518781 0.11317878 0.02755248
0.50521445 0.11405633 0.027547132
0.50524116 0.11493389 0.027541785
0.50609982 0.1156398 0.028093824
0.5061264 0.11651576 0.028088488
0.50615305 0.11739172 0.028083149
0.50617969 0.11826769 0.028077811
0.50620627 0.11914364 0.028072473
0.50623292 0.12001961 0.028067136
0.50625956 0.12089556 0.028061798
0.5062862 0.12177152 0.02805646
0.50714439 0.1224631 0.02860859
0.50717098 0.12333747 0.028603263
0.50719756 0.12421184 0.028597934
0.50722414 0.1250862 0.028592607
0.50725073 0.12596057 0.028587278
0.50810868 0.1266426 0.029139465
0.5081352 0.12751538 0.029134145
0.50816172 0.12838815 0.029128827
0.50901943 0.1290638 0.029681053
0.50904596 0.12993498 0.029675743
0.50907242 0.13080616 0.029670434
0.50993001 0.13147545 0.030222733
0.50995642 0.13234502 0.030217435
0.50998288 0.13321462 0.030212136
0.51084024 0.13387753 0.030764438
0.51086664 0.13474554 0.030759148
0.51089299 0.13561353 0.030753858
0.51175016 0.13627008 0.0313062
0.51177651 0.13713647 0.031300921
0.51180285 0.13800289 0.031295642
0.5118292 0.13886929 0.031290364
0.51268607 0.13951786 0.031842753
0.51271236 0.14038268 0.031837486
0.51273865 0.14124748 0.031832214
0.51276493 0.1421123 0.031826943
0.51279122 0.1429771 0.031821676
0.51364785 0.14361614 0.032374121
0.51367414 0.14447936 0.032368861
0.51370037 0.14534257 0.032363601
0.51372659 0.1462058 0.032358341
0.51375282 0.14706901 0.032353081
0.51377904 0.14793223 0.032347821
0.51380533 0.14879546 0.032342561
0.51383156 0.14965867 0.0323373
0.51385778 0.15052189 0.03233204
0.51388401 0.15138511 0.03232678
0.51308042 0.15249003 0.031763706
0.5131067 0.15335485 0.031758435
0.51230317 0.15446456 0.031195328
0.51232952 0.15533096 0.031190049
0.51069653 0.15669353 0.030069061
0.5098933 0.1578128 0.029505864
0.50909019 0.15893525 0.028942682
0.50745767 0.16031376 0.027821595
0.50582528 0.16169862 0.026700435
0.50502259 0.16283382 0.026137177
0.49836406 0.090454392 0.022551028
0.49839112 0.091344684 0.022545602
0.49841818 0.092234977 0.022540176
0.49927753 0.092996679 0.023093112
0.49930453 0.093885377 0.023087695
0.49933156 0.094774082 0.023082281
0.49935856 0.09566278 0.023076864
0.4993856 0.096551485 0.023071449
0.50024462 0.097303621 0.023624441
0.50027162 0.098190732 0.023619035
0.50029856 0.099077843 0.02361363
0.50032556 0.099964947 0.023608224
0.50118434 0.10070913 0.024161264
0.50121129 0.10159465 0.024155868
0.50207001 0.10233404 0.024708971
0.50209683 0.10321795 0.024703585
0.50212371 0.10410188 0.024698198
0.5021506 0.10498581 0.024692811
0.50300902 0.10571724 0.025245931
0.50303584 0.10659957 0.025240554
0.50306267 0.1074819 0.025235178
0.50392091 0.10820697 0.025788335
0.50394768 0.10908771 0.025782967
0.50397444 0.10996845 0.025777601
0.5040012 0.11084917 0.025772234
0.50485921 0.11156628 0.02632544
0.50488591 0.11244543 0.026320083
0.50491267 0.11332457 0.026314724
0.50493938 0.11420372 0.026309367
0.50579715 0.11491285 0.026862657
0.50582385 0.1157904 0.026857309
0.50585049 0.11666795 0.026851961
0.5058772 0.1175455 0.026846614
0.50590384 0.11842307 0.026841266
0.50676131 0.11912264 0.02739458
0.50678796 0.1199986 0.027389241
0.5068146 0.12087456 0.027383903
0.50684118 0.12175052 0.027378567
0.50686783 0.12262648 0.027373228
0.50689447 0.12350244 0.02736789
0.50692105 0.1243784 0.027362552
0.50777817 0.12506524 0.027915943
0.50780475 0.12593962 0.027910614
0.50783134 0.12681398 0.027905287
0.50785786 0.12768835 0.027899958
0.50871474 0.12836722 0.028453397
0.50874126 0.12924001 0.028448079
0.50876778 0.13011277 0.028442761
0.50962442 0.13078529 0.028996238
0.50965089 0.13165647 0.028990928
0.50967735 0.13252765 0.02898562
0.51053387 0.13319378 0.029539168
0.51056033 0.13406336 0.029533871
0.51058674 0.13493295 0.029528571
0.51144302 0.13559271 0.030082125
0.51146936 0.13646072 0.030076837
0.51149577 0.13732871 0.030071547
0.51235181 0.13798212 0.030625142
0.51237816 0.13884851 0.030619862
0.5124045 0.13971491 0.030614583
0.51243085 0.14058132 0.030609302
0.51328665 0.14122675 0.031162946
0.51331294 0.14209157 0.031157676
0.51333922 0.14295638 0.031152405
0.51336551 0.14382119 0.031147135
0.51339179 0.144686 0.031141866
0.51341808 0.14555082 0.031136595
0.51344436 0.14641562 0.031131325
0.51347065 0.14728042 0.031126056
0.51349694 0.14814524 0.031120786
0.51352322 0.14901006 0.031115515
0.51354951 0.14987487 0.031110246
0.51357579 0.15073968 0.031104976
0.51360208 0.15160449 0.031099707
0.51362836 0.15246931 0.031094436
0.51365465 0.15333411 0.031089166
0.51285219 0.15444379 0.030524829
0.51204979 0.15555663 0.029960472
0.51124752 0.15667269 0.029396094
0.5104453 0.15779191 0.028831666
0.50881463 0.15916556 0.027708145
0.50801271 0.16029276 0.0271437
0.50721085 0.16142313 0.026579237
0.50640905 0.16255671 0.026014717
0.50560743 0.16369346 0.025450215
0.50480586 0.16483338 0.024885694
0.49809673 0.09055683 0.021302477
0.49895522 0.091323338 0.021856613
0.49898228 0.092213631 0.021851189
0.49900934 0.09310393 0.021845764
0.49903643 0.093994223 0.021840338
0.49906349 0.094884522 0.021834914
0.49992168 0.095641479 0.02238911
0.49994868 0.096530177 0.022383694
0.49997571 0.097418882 0.022378279
0.50000268 0.098307572 0.022372864
0.50086069 0.099056572 0.022927105
0.50088763 0.099943675 0.0229217
0.50091457 0.10083079 0.022916295
0.50177234 0.10157342 0.023470579
0.50179929 0.10245893 0.023465183
0.50182617 0.10334444 0.023459787
0.50268382 0.10408068 0.024014141
0.50271064 0.10496461 0.024008755
0.50273752 0.10584853 0.024003368
0.5027644 0.10673247 0.023997981
0.50362176 0.10746074 0.024552353
0.50364852 0.10834308 0.024546975
0.50367534 0.10922541 0.0245416
0.50453252 0.10994733 0.025096009
0.50455928 0.11082806 0.025090642
0.50458604 0.1117088 0.025085276
0.5046128 0.11258954 0.025079908
0.50546968 0.1133035 0.025634365
0.50549644 0.11418264 0.025629006
0.50552315 0.11506178 0.025623649
0.50554985 0.11594093 0.025618292
0.50557661 0.11682007 0.025612935
0.50643325 0.11752446 0.026167488
0.50645989 0.11840203 0.02616214
0.50648659 0.11927957 0.026156792
0.50651324 0.12015713 0.026151445
0.50653994 0.12103467 0.026146097
0.50739622 0.12172952 0.026700668
0.50742286 0.12260547 0.026695332
0.50744951 0.12348145 0.026689993
0.50747609 0.12435739 0.026684655
0.50750273 0.12523335 0.026679318
0.50752938 0.12610933 0.02667398
0.50838536 0.12679301 0.027228622
0.50841188 0.12766738 0.027223295
0.50843847 0.12854175 0.027217966
0.50846505 0.12941612 0.027212638
0.5093208 0.13009185 0.02776733
0.50934732 0.13096462 0.027762011
0.51020288 0.13163558 0.028316729
0.51022941 0.13250676 0.02831142
0.51025587 0.13337795 0.028306112
0.51111132 0.13404252 0.028860906
0.51113772 0.1349121 0.028855607
0.51116419 0.13578169 0.028850308
0.51119059 0.13665128 0.028845008
0.51204574 0.13730791 0.029399814
0.51207215 0.1381759 0.029394524
0.51209849 0.1390439 0.029389236
0.51295346 0.13969414 0.029944083
0.51297981 0.14056055 0.029938802
0.51300615 0.14142695 0.029933523
0.51303244 0.14229335 0.029928243
0.51305878 0.14315975 0.029922964
0.51391345 0.14380045 0.030477868
0.51393974 0.14466527 0.030472599
0.51396602 0.14553007 0.03046733
0.51399231 0.14639489 0.030462058
0.5140186 0.1472597 0.030456789
0.51404488 0.14812452 0.030451519
0.51407117 0.14898932 0.03044625
0.51409745 0.14985414 0.030440979
0.51412374 0.15071894 0.030435709
0.51415002 0.15158376 0.03043044
0.51334846 0.1526902 0.029864889
0.51337481 0.1535566 0.029859608
0.51257342 0.15466784 0.029294027
0.51259977 0.15553583 0.029288739
0.51097083 0.15689985 0.028162776
0.51016968 0.15802063 0.027597139
0.50936866 0.1591446 0.027031481
0.50856775 0.16027175 0.026465803
0.5077669 0.16140209 0.025900109
0.50696611 0.16253562 0.025334356
0.5061655 0.16367234 0.024768624
0.50536495 0.16481222 0.024202868
0.50539178 0.16569455 0.024197493
0.4978314 0.090659194 0.020051429
0.49868897 0.091427334 0.02060682
0.49954641 0.092192292 0.021162201
0.49957347 0.093082584 0.021156775
0.49960053 0.093972877 0.021151351
0.49962759 0.094863176 0.021145925
0.49965465 0.095753469 0.021140499
0.49968171 0.096643761 0.021135075
0.50053883 0.097397573 0.021690521
0.50056583 0.098286264 0.021685105
0.50059283 0.099174969 0.02167969
0.5014497 0.099922404 0.022235177
0.50147671 0.10080951 0.022229772
0.50150365 0.10169663 0.022224367
0.50153059 0.10258374 0.022218961
0.50238729 0.10332321 0.022774495
0.50241417 0.10420873 0.022769099
0.50244111 0.10509425 0.022763703
0.50329763 0.10582734 0.02331931
0.50332451 0.10671127 0.023313923
0.50335133 0.10759518 0.023308538
0.50337821 0.10847911 0.023303151
0.50423443 0.10920426 0.023858774
0.50426126 0.11008658 0.023853399
0.50428808 0.11096891 0.023848021
0.50514412 0.11168768 0.024403682
0.50517088 0.11256842 0.024398314
0.50519764 0.11344916 0.024392948
0.50522441 0.1143299 0.024387581
0.50608021 0.1150407 0.024943288
0.50610691 0.11591985 0.024937931
0.50613362 0.116799 0.024932574
0.50616038 0.11767814 0.024927218
0.50618708 0.11855729 0.024921861
0.50704265 0.11925853 0.025477661
0.50706929 0.12013609 0.025472313
0.50709599 0.12101363 0.025466967
0.50712264 0.12189119 0.02546162
0.50714934 0.12276874 0.025456272
0.50717598 0.12364629 0.025450924
0.50803113 0.12433639 0.026006762
0.50805777 0.12521236 0.026001424
0.50808442 0.12608832 0.025996085
0.508111 0.12696427 0.025990747
0.50813764 0.12784024 0.02598541
0.50899249 0.12852079 0.026541302
0.50901908 0.12939516 0.026535975
0.50904566 0.13026951 0.026530646
0.50990033 0.1309437 0.02708658
0.50992686 0.13181648 0.027081262
0.50995338 0.13268925 0.027075944
0.51080787 0.13335706 0.027631914
0.51083434 0.13422823 0.027626606
0.5108608 0.13509943 0.027621297
0.51171517 0.13576084 0.028177341
0.51174158 0.13663043 0.028172042
0.51176804 0.13750002 0.028166743
0.51179445 0.1383696 0.028161444
0.51264846 0.13902308 0.028717503
0.51267487 0.13989107 0.028712213
0.51270127 0.14075908 0.028706923
0.51355511 0.14140618 0.029263023
0.51358145 0.14227258 0.029257743
0.5136078 0.14313897 0.029252464
0.51363409 0.1440054 0.029247183
0.51366043 0.1448718 0.029241905
0.51368678 0.1457382 0.029236624
0.51371312 0.14660461 0.029231345
0.51373947 0.14747101 0.029226067
0.51376575 0.14833741 0.029220786
0.5137921 0.14920381 0.029215507
0.51381844 0.15007022 0.029210227
0.51384479 0.15093663 0.029204948
0.51387113 0.15180303 0.029199667
0.51389748 0.15266943 0.029194389
0.51309699 0.15377903 0.028627584
0.51312339 0.15464702 0.028622294
0.51232308 0.15576139 0.028055463
0.51152283 0.15687898 0.027488578
0.5107227 0.15799971 0.02692171
0.50992268 0.15912363 0.026354818
0.50912279 0.16025075 0.025787909
0.50832295 0.16138105 0.025220979
0.50752318 0.16251455 0.024653997
0.50672352 0.16365123 0.02408703
0.50675035 0.16453195 0.024081662
0.50595081 0.16567339 0.023514668
0.49756813 0.090761483 0.018797945
0.49925411 0.09140595 0.019916601
0.4992812 0.092297837 0.019911166
0.49930832 0.093189724 0.019905731
0.49933544 0.09408161 0.019900296
0.50019169 0.09484183 0.020456936
0.50021875 0.095732123 0.020451512
0.50024581 0.096622415 0.020446086
0.50027287 0.097512707 0.020440662
0.50029993 0.098402999 0.020435236
0.50115591 0.09915366 0.020991934
0.50118291 0.10004237 0.02098652
0.50120997 0.10093106 0.020981105
0.50206572 0.10167536 0.021537842
0.50209272 0.10256246 0.021532437
0.50211966 0.10344958 0.021527031
0.50214666 0.10433669 0.021521624
0.50300217 0.10507302 0.022078412
0.50302911 0.10595853 0.022073016
0.50305599 0.10684405 0.022067619
0.50308293 0.10772955 0.022062223
0.50393832 0.10845792 0.022619093
0.50396514 0.10934184 0.022613706
0.50399202 0.11022577 0.022608321
0.50484711 0.11094776 0.023165194
0.50487393 0.11183009 0.023159817
0.50490075 0.11271243 0.023154441
0.50575572 0.11342804 0.023711354
0.50578249 0.11430879 0.023705987
0.50580925 0.11518952 0.023700619
0.50583601 0.11607026 0.023695253
0.50669068 0.11677792 0.024252214
0.50671738 0.11765707 0.024246857
0.50674415 0.11853621 0.0242415
0.50677085 0.11941536 0.024236143
0.50679755 0.1202945 0.024230784
0.50682431 0.12117364 0.024225427
0.50767869 0.12187015 0.024782492
0.50770533 0.1227477 0.024777144
0.50773203 0.12362526 0.024771797
0.50775868 0.1245028 0.024766449
0.50778538 0.12538035 0.024761101
0.5086394 0.12606733 0.025318189
0.50866604 0.12694328 0.02531285
0.50869268 0.12781924 0.025307514
0.50871933 0.12869519 0.025302175
0.5095731 0.12937419 0.025859311
0.50959969 0.13024855 0.025853982
0.50962627 0.13112293 0.025848655
0.50965285 0.13199729 0.025843326
0.51050639 0.13266832 0.026400514
0.51053292 0.13354109 0.026395196
0.51055944 0.13441387 0.026389876
0.5114128 0.13507853 0.0269471
0.51143932 0.1359497 0.026941791
0.51146579 0.1368209 0.026936483
0.51149225 0.13769208 0.026931174
0.51234543 0.13834876 0.027488478
0.5123719 0.13921836 0.027483178
0.5123983 0.14008795 0.027477879
0.51242477 0.14095753 0.02747258
0.51327765 0.14160626 0.028029904
0.513304 0.14247426 0.028024614
0.5133304 0.14334226 0.028019326
0.51335675 0.14421026 0.028014036
0.51338315 0.14507826 0.028008746
0.51423573 0.14571743 0.028566126
0.51426208 0.14658384 0.028560845
0.51428843 0.14745024 0.028555566
0.51431477 0.14831664 0.028550286
0.51434112 0.14918303 0.028545007
0.5143674 0.15004945 0.028539727
0.51439375 0.15091586 0.028534448
0.51442009 0.15178226 0.028529167
0.51362062 0.15289022 0.027961142
0.51364696 0.15375821 0.027955852
0.51284766 0.15487096 0.027387796
0.51287407 0.15574054 0.027382497
0.51207483 0.15685809 0.026814381
0.51127571 0.15797879 0.026246279
0.51047671 0.15910268 0.025678154
0.50967783 0.16022974 0.025110012
0.50887901 0.16136001 0.024541851
0.50808024 0.16249347 0.023973636
0.50810695 0.16337262 0.023968279
0.50730836 0.16451083 0.023400068
0.50733513 0.16539158 0.023394702
0.50736189 0.16627233 0.023389336
0.49730685 0.090863682 0.017542001
0.49899083 0.091509834 0.018663075
0.49984634 0.092276454 0.019220944
0.49987343 0.093168341 0.019215509
0.49990055 0.094060227 0.019210074
0.49992767 0.094952114 0.019204639
0.50078285 0.095710777 0.019762523
0.50080991 0.096601069 0.019757098
0.50083697 0.097491361 0.019751674
0.50086403 0.098381653 0.019746248
0.50089109 0.099271953 0.019740824
0.50174606 0.10002106 0.020298764
0.50177306 0.10090975 0.020293349
0.50180006 0.10179847 0.020287935
0.50265479 0.1025412 0.020845914
0.50268179 0.1034283 0.020840509
0.50270873 0.10431542 0.020835103
0.50273567 0.10520253 0.020829698
0.50276268 0.10608964 0.020824293
0.50278962 0.10697675 0.020818885
0.50364405 0.10770833 0.021376932
0.50367093 0.10859385 0.021371536
0.50369787 0.10947936 0.02136614
0.50455213 0.11020457 0.021924263
0.50457895 0.11108848 0.021918876
0.50460583 0.11197241 0.021913489
0.50463271 0.11285634 0.021908103
0.50548667 0.1135736 0.02246624
0.50551349 0.11445593 0.022460863
0.50636727 0.11516841 0.023019029
0.50639409 0.11604915 0.023013661
0.50642085 0.11692987 0.023008294
0.50644761 0.11781061 0.023002928
0.50647438 0.11869135 0.02299756
0.50732791 0.11939428 0.023555782
0.50735462 0.12027343 0.023550425
0.50738132 0.12115256 0.023545066
0.50740808 0.12203172 0.023539709
0.50743479 0.12291086 0.023534352
0.50828809 0.12360422 0.024092669
0.50831473 0.12448176 0.024087321
0.50834143 0.12535931 0.024081973
0.50836807 0.12623687 0.024076626
0.50839478 0.12711443 0.024071278
0.50924772 0.12779823 0.024629619
0.5092743 0.12867419 0.024624281
0.50930095 0.12955016 0.024618942
0.50932759 0.13042611 0.024613606
0.51018029 0.13110197 0.025171993
0.51020688 0.13197634 0.025166666
0.51023346 0.13285069 0.025161337
0.51025999 0.13372506 0.02515601
0.51111245 0.13439295 0.025714446
0.51113898 0.13526572 0.025709128
0.5111655 0.1361385 0.02570381
0.51201779 0.13680001 0.026262283
0.51204425 0.1376712 0.026256975
0.51207078 0.13854237 0.026251664
0.51209724 0.13941355 0.026246356
0.51294929 0.1400671 0.026804917
0.51297575 0.14093669 0.026799617
0.51300216 0.14180626 0.026794318
0.51302862 0.14267586 0.026789019
0.51305503 0.14354545 0.02678372
0.51308143 0.14441504 0.02677842
0.51393312 0.14505744 0.027337013
0.51395953 0.14592543 0.027331725
0.51398593 0.14679344 0.027326435
0.51401228 0.14766143 0.027321145
0.51403868 0.14852943 0.027315855
0.51406503 0.14939742 0.027310567
