# .PCD v0.7 - Point Cloud Data file format
VERSION 0.7
FIELDS x y z
SIZE 4 4 4
TYPE F F F
COUNT 1 1 1
WIDTH 1362
HEIGHT 1
VIEWPOINT 0 0 0 1 0 0 0
POINTS 1362
DATA ascii
0.41337365 0.040984407 0.03635893
0.41340342 0.04196389 0.036352962
0.41343319 0.042943373 0.036346994
0.41256824 0.043959741 0.03585593
0.41259804 0.044940814 0.035849951
0.41262788 0.045921892 0.035843976
0.41176316 0.046944629 0.035352901
0.41179302 0.047927298 0.03534691
0.41092846 0.048954811 0.034855809
0.41006398 0.049985513 0.034364678
0.4091996 0.0510194 0.033873536
0.40922961 0.052006844 0.033867519
0.40836531 0.053045511 0.033376321
0.40839538 0.05403455 0.033370294
0.40753129 0.055077992 0.032879092
0.40617168 -0.010327404 0.032510865
0.40620181 -0.0093367742 0.032504831
0.40623191 -0.0083461441 0.032498792
0.40626201 -0.007355514 0.032492757
0.40629214 -0.0063648839 0.032486722
0.40632224 -0.0053742537 0.032480683
0.40635234 -0.0043836199 0.032474648
0.40638247 -0.0033929897 0.03246861
0.40641257 -0.0024023559 0.032462575
0.40733859 -0.001375312 0.032942392
0.40736863 -0.0003862755 0.032936364
0.40829456 0.00063599332 0.033416238
0.40832457 0.0016234436 0.033410221
0.40835461 0.0026108865 0.033404201
0.40928027 0.0036267857 0.033884089
0.41020584 0.0046394942 0.034363993
0.41023576 0.0056237569 0.034357995
0.41116118 0.0066316919 0.034837928
0.41119108 0.0076143574 0.034831941
0.41122094 0.0085970247 0.034825955
0.41214618 0.0095985904 0.035305925
0.41217598 0.010579664 0.035299946
0.41310114 0.011576451 0.035779983
0.41313091 0.012555935 0.035774011
0.41316068 0.013535418 0.035768043
0.41319045 0.0145149 0.035762075
0.41322023 0.015494381 0.035756107
0.41325 0.016473865 0.03575014
0.41327977 0.017453346 0.035744168
0.41330954 0.01843283 0.0357382
0.41333932 0.019412311 0.035732232
0.41336909 0.020391794 0.035726264
0.41339886 0.021371277 0.035720292
0.41253382 0.022352567 0.035228208
0.41256365 0.023333643 0.035222229
0.41259348 0.024314716 0.03521625
0.41262329 0.025295792 0.03521027
0.41265312 0.026276868 0.035204291
0.41268292 0.027257942 0.035198316
0.41271275 0.028239017 0.035192337
0.41274258 0.029220093 0.035186358
0.41277239 0.030201167 0.035180379
0.41280222 0.031182243 0.0351744
0.41283202 0.032163318 0.035168424
0.4137561 0.033125065 0.03564867
0.41378587 0.034104548 0.035642702
0.41381565 0.035084028 0.035636734
0.41384542 0.036063511 0.035630763
0.41387519 0.037042994 0.035624795
0.41390496 0.038022477 0.035618827
0.41393474 0.03900196 0.035612859
0.41396451 0.03998144 0.035606887
0.41310042 0.040992994 0.035114616
0.41313022 0.041974068 0.035108637
0.41316006 0.042955145 0.035102662
0.41318989 0.043936219 0.035096683
0.41321969 0.044917293 0.035090704
0.41235593 0.045938399 0.034598406
0.41238582 0.046921071 0.034592416
0.41241568 0.047903735 0.03458643
0.4115521 0.048931215 0.034094092
0.41068864 0.049961876 0.033601735
0.41071862 0.050947729 0.033595726
0.40985528 0.05198317 0.033103343
0.40988529 0.052970614 0.033097323
0.4099153 0.053958062 0.033091307
0.40905213 0.054999877 0.032598857
0.40908217 0.055988915 0.032592829
0.40676925 -0.011341785 0.031750269
0.40679938 -0.010351155 0.031744234
0.40682948 -0.0093605248 0.031738199
0.40685958 -0.0083698947 0.031732161
0.40688971 -0.0073792641 0.031726126
0.40691981 -0.006388634 0.031720087
0.40694991 -0.0053980039 0.031714052
0.40787506 -0.0043661376 0.032195069
0.40701014 -0.0034167401 0.031701978
0.40704024 -0.0024261062 0.03169594
0.40796527 -0.0013990243 0.032176986
0.40799531 -0.00040998778 0.032170959
0.40892023 0.00061231939 0.032652073
0.40895024 0.0015997697 0.032646053
0.40898025 0.0025872125 0.032640036
0.40990493 0.0036031501 0.033121157
0.40993488 0.0045889993 0.033115149
0.41085941 0.0056001595 0.033596292
0.41088933 0.0065844203 0.033590294
0.41181371 0.0075907982 0.034071468
0.41184357 0.008573465 0.034065481
0.41187343 0.0095561352 0.034059495
0.41190332 0.010538802 0.034053504
0.41282743 0.011537218 0.03453473
0.41285726 0.012518294 0.034528751
0.4128871 0.01349937 0.034522776
0.4129169 0.014480444 0.034516796
0.41294673 0.015461519 0.034510817
0.41297653 0.016442595 0.034504838
0.41300637 0.017423671 0.034498859
0.4130362 0.018404745 0.034492884
0.41217214 0.019382812 0.033999611
0.412202 0.02036548 0.033993624
0.41223186 0.021348149 0.033987638
0.41226172 0.022330815 0.033981647
0.41229162 0.023313483 0.033975661
0.41232148 0.024296151 0.033969671
0.41235134 0.02527882 0.033963684
0.4123812 0.026261486 0.033957694
0.41241106 0.027244154 0.033951707
0.41244096 0.028226821 0.033945721
0.41247082 0.029209489 0.03393973
0.41250068 0.030192157 0.033933744
0.41253054 0.031174826 0.033927754
0.41256043 0.032157492 0.033921767
0.4125903 0.03314016 0.03391578
0.41262016 0.034122828 0.03390979
0.41354313 0.035083022 0.03439125
0.41357294 0.036064096 0.034385271
0.41360277 0.037045173 0.034379292
0.41273963 0.038053501 0.033885837
0.4136624 0.039007321 0.034367334
0.41369224 0.039988399 0.034361359
0.41372204 0.040969472 0.03435538
0.41375187 0.041950546 0.034349401
0.41288897 0.042966839 0.033855896
0.41291884 0.043949507 0.03384991
0.4129487 0.044932175 0.03384392
0.41297859 0.04591484 0.033837933
0.41300845 0.046897508 0.033831947
0.41214585 0.047923356 0.033338383
0.41217574 0.048907615 0.033332385
0.4113133 0.049938239 0.032838803
0.41134328 0.050924093 0.032832794
0.41048095 0.051959496 0.032339174
0.41140318 0.052895799 0.03282078
0.41054097 0.053934388 0.032327142
0.41057098 0.054921832 0.032321125
0.40970886 0.0559652 0.031827424
0.40973893 0.056954239 0.031821396
0.40739694 -0.011365536 0.030983627
0.40742707 -0.010374906 0.03097759
0.40745717 -0.0093842754 0.030971553
0.40748727 -0.0083936453 0.030965518
0.4075174 -0.0074030152 0.030959481
0.4075475 -0.006412385 0.030953445
0.4075776 -0.0054217549 0.030947408
0.40760773 -0.0044311211 0.030941371
0.40763783 -0.0034404907 0.030935334
0.40856189 -0.002411773 0.031417608
0.40859193 -0.0014227366 0.031411581
0.408622 -0.00043370007 0.031405553
0.4095459 0.00058864511 0.031887893
0.40957591 0.0015760954 0.031881876
0.40960592 0.0025635383 0.03187586
0.41052958 0.0035795139 0.032358207
0.41055956 0.0045653628 0.032352198
0.41058952 0.0055512195 0.032346193
0.41151297 0.0065608225 0.032828581
0.41154289 0.0075450819 0.032822583
0.41157281 0.0085293408 0.032816585
0.41160274 0.0095136045 0.032810587
0.41252595 0.010515243 0.033293027
0.41255581 0.01149791 0.033287041
0.41258571 0.012480579 0.033281051
0.41261557 0.013463247 0.033275064
0.41264543 0.014445914 0.033269074
0.41267529 0.015428581 0.033263087
0.41270515 0.01641125 0.033257101
0.41273504 0.017393919 0.03325111
0.41276491 0.018376583 0.033245124
0.41279477 0.019359253 0.033239134
0.41282463 0.02034192 0.033233147
0.41285452 0.02132459 0.033227161
0.41199166 0.022308988 0.032732617
0.41202158 0.023293249 0.032726619
0.4120515 0.024277508 0.032720622
0.41208142 0.025261769 0.032714624
0.41211131 0.02624603 0.032708626
0.41214123 0.027230291 0.032702629
0.41217116 0.02821455 0.032696631
0.41220108 0.02919881 0.032690633
0.412231 0.030183071 0.032684635
0.41226092 0.031167332 0.032678638
0.41318306 0.032133933 0.03316129
0.41321293 0.033116601 0.033155303
0.41324279 0.03409927 0.033149313
0.41327268 0.035081938 0.033143327
0.41330254 0.036064606 0.033137336
0.4133324 0.037047271 0.03313135
0.41336226 0.038029939 0.03312536
0.41339216 0.039012607 0.033119373
0.41342202 0.039995275 0.033113386
0.41345188 0.040977944 0.033107396
0.41348174 0.041960612 0.03310141
0.4135116 0.04294328 0.033095419
0.4135415 0.043925945 0.033089433
0.41357136 0.044908617 0.033083443
0.41360122 0.045891281 0.033077456
0.41363108 0.046873949 0.03307147
0.4127695 0.047899757 0.032576673
0.41279942 0.048884019 0.032570675
0.41282934 0.049868278 0.032564677
0.41196793 0.050900456 0.032069847
0.41199788 0.051886309 0.032063838
0.41113663 0.052923266 0.031568982
0.41116664 0.053910714 0.031562965
0.41119665 0.054898158 0.031556945
0.41122669 0.055885606 0.031550929
0.41036561 0.056930527 0.031055992
0.40802464 -0.011389286 0.03021699
0.40805474 -0.010398656 0.030210953
0.40808487 -0.009408026 0.030204916
0.40811497 -0.0084173959 0.03019888
0.40814507 -0.0074267653 0.030192843
0.4081752 -0.0064361352 0.030186806
0.4082053 -0.005445505 0.030180769
0.4082354 -0.0044548712 0.030174732
0.4091585 -0.0034245255 0.03065823
0.40918857 -0.0024354854 0.030652205
0.40921861 -0.0014464488 0.030646177
0.40924868 -0.00045741239 0.030640149
0.41017157 0.00056497101 0.031123724
0.41020158 0.0015524213 0.031117706
0.41023159 0.002539864 0.031111689
0.41026163 0.0035273107 0.031105671
0.41118422 0.0045417272 0.031589266
0.41121417 0.0055275839 0.031583257
0.41124415 0.0065134368 0.031577252
0.41216657 0.007521484 0.03206088
0.41219646 0.0085057439 0.032054882
0.41222638 0.0094900066 0.032048885
0.4122563 0.010474266 0.032042887
0.41228622 0.011458525 0.032036889
0.41231614 0.012442788 0.032030892
0.41234607 0.013427047 0.032024894
0.41237596 0.014411306 0.032018896
0.41240588 0.015395568 0.032012898
0.4124358 0.016379828 0.032006901
0.41246572 0.01736409 0.032000903
0.41249564 0.018348349 0.031994905
0.41252556 0.01933261 0.031988908
0.41255549 0.020316869 0.031982906
0.41258538 0.02130113 0.031976908
0.4126153 0.022285391 0.031970911
0.41264522 0.023269651 0.031964913
0.41267514 0.02425391 0.031958915
0.4118135 0.025244644 0.031463109
0.41184345 0.026230497 0.0314571
0.41187343 0.027216349 0.031451095
0.41190338 0.028202202 0.031445086
0.41193333 0.029188056 0.031439077
0.41196331 0.030173909 0.031433072
0.41288456 0.031143734 0.031916931
0.41291448 0.032127995 0.031910934
0.41294441 0.033112254 0.031904936
0.4129743 0.034096513 0.031898938
0.41300422 0.035080776 0.03189294
0.41303414 0.036065035 0.031886943
0.41306406 0.037049297 0.031880945
0.41309398 0.038033556 0.031874947
0.41312391 0.039017815 0.03186895
0.4131538 0.040002078 0.031862952
0.41318372 0.040986337 0.031856954
0.41321364 0.041970599 0.031850956
0.41324356 0.042954858 0.031844959
0.41327348 0.043939117 0.031838961
0.41330341 0.04492338 0.031832963
0.41333333 0.045907639 0.031826966
0.41336322 0.046891902 0.031820968
0.41339314 0.047876161 0.03181497
0.41342306 0.04886042 0.031808972
0.41256261 0.049890969 0.03131292
0.41259259 0.050876822 0.031306911
0.41262254 0.051862672 0.031300906
0.4117623 0.052899595 0.030804811
0.41179231 0.053887039 0.030798793
0.41182232 0.054874483 0.030792776
0.41185236 0.055861931 0.030786758
0.41099229 0.056906816 0.030290589
0.40865234 -0.011413037 0.029450351
0.40868244 -0.010422407 0.029444315
0.40871254 -0.0094317766 0.029438278
0.40874267 -0.0084411465 0.029432241
0.40877277 -0.0074505159 0.029426204
0.4088029 -0.0064598857 0.029420169
0.408833 -0.0054692556 0.029414132
0.4088631 -0.0044786218 0.029408095
0.40978518 -0.0034482381 0.029892821
0.40981525 -0.0024591978 0.029886793
0.40984529 -0.0014701614 0.029880766
0.40987536 -0.00048112485 0.02987474
0.41079724 0.00054129673 0.030359546
0.41082725 0.001528747 0.030353529
0.41085729 0.0025161898 0.030347511
0.4108873 0.0035036365 0.030341495
0.41091731 0.0044910791 0.030335477
0.41094732 0.0054785279 0.03032946
0.41186881 0.0064898008 0.030814307
0.41189876 0.0074756518 0.0308083
0.41192874 0.0084615042 0.030802293
0.41195869 0.0094473595 0.030796286
0.41198868 0.010433212 0.030790277
0.41201863 0.011419065 0.03078427
0.41204861 0.01240492 0.030778263
0.41207856 0.013390771 0.030772256
0.41210854 0.014376624 0.030766247
0.41213849 0.015362477 0.03076024
0.41216847 0.016348332 0.030754233
0.41219842 0.017334184 0.030748226
0.41222841 0.018320035 0.030742217
0.41225836 0.01930589 0.03073621
0.41228834 0.020291742 0.030730203
0.41231829 0.021277595 0.030724194
0.41234824 0.022263449 0.030718187
0.41237822 0.023249302 0.03071218
0.41240817 0.024235154 0.030706173
0.41243815 0.025221007 0.030700164
0.41246811 0.02620686 0.030694157
0.41249809 0.027192714 0.03068815
0.41252804 0.028178567 0.030682143
0.41255802 0.029164419 0.030676134
0.41258797 0.030150272 0.030670127
0.41261795 0.031136125 0.03066412
0.4126479 0.032121979 0.030658113
0.41267788 0.033107832 0.030652104
0.41270784 0.034093685 0.030646097
0.41273782 0.035079539 0.03064009
0.41276777 0.036065392 0.030634083
0.41279775 0.037051242 0.030628074
0.4128277 0.038037095 0.030622067
0.41285765 0.039022949 0.03061606
0.41377747 0.039978478 0.031101242
0.41380739 0.040962741 0.031095244
0.41383731 0.041947 0.031089246
0.41386721 0.042931262 0.031083249
0.41389713 0.043915521 0.031077251
0.41392705 0.04489978 0.031071251
0.41395697 0.045884043 0.031065254
0.41398689 0.046868302 0.031059256
0.41312736 0.047895625 0.030561991
0.41315731 0.048881479 0.030555984
0.4131873 0.049867332 0.030549977
0.41321725 0.050853185 0.03054397
0.41235796 0.051888473 0.030046649
0.41238797 0.052875917 0.030040633
0.41241798 0.053863365 0.030034617
0.41155884 0.054905027 0.029537233
0.41158891 0.055894066 0.029531205
0.41161898 0.056883104 0.029525178
0.41076007 0.057931133 0.029027786
0.40931013 -0.010446157 0.02867767
0.40934023 -0.0094555272 0.028671633
0.40937036 -0.0084648971 0.028665598
0.40940046 -0.0074742669 0.028659562
0.40943056 -0.0064836363 0.028653525
0.40946069 -0.0054930062 0.028647488
0.40949079 -0.0045023724 0.028641451
0.41041186 -0.0034719505 0.02912741
0.41044194 -0.0024829104 0.029121382
0.41047198 -0.0014938738 0.029115357
0.41050205 -0.00050483737 0.029109329
0.41053212 0.00048420287 0.029103301
0.41056219 0.0014732431 0.029097276
0.41148296 0.0024925156 0.029583335
0.41151297 0.0034799622 0.029577317
0.41154298 0.0044674049 0.0295713
0.41157299 0.0054548532 0.029565282
0.411603 0.0064423 0.029559266
0.41163301 0.0074297446 0.029553248
0.41166303 0.0084171891 0.029547231
0.41169304 0.009404636 0.029541213
0.41172305 0.010392083 0.029535197
0.41175309 0.011379527 0.029529179
0.4117831 0.012366974 0.029523162
0.41270322 0.013367135 0.030009311
0.4127332 0.014352988 0.030003304
0.41276315 0.015338841 0.029997297
0.41279313 0.016324695 0.029991288
0.41193315 0.017304201 0.029493077
0.41196316 0.018291647 0.029487059
0.41199318 0.019279094 0.029481042
0.41202319 0.020266538 0.029475024
0.41205323 0.021253984 0.029469008
0.41208324 0.022241428 0.029462989
0.41211325 0.023228876 0.029456973
0.41214326 0.02421632 0.029450955
0.41217327 0.025203766 0.029444939
0.41220328 0.026191212 0.02943892
0.41223329 0.027178658 0.029432904
0.4122633 0.028166104 0.029426886
0.41229331 0.029153548 0.029420869
0.41232333 0.030140994 0.029414851
0.41235334 0.03112844 0.029408835
0.41238338 0.032115888 0.029402817
0.41241339 0.033103332 0.0293968
0.4124434 0.034090776 0.029390784
0.41247341 0.035078224 0.029384766
0.41250342 0.036065668 0.029378749
0.41253343 0.037053116 0.029372731
0.41345236 0.038013462 0.029859124
0.41348234 0.038999312 0.029853115
0.41351229 0.039985165 0.029847108
0.41354227 0.040971018 0.029841101
0.41357222 0.041956872 0.029835094
0.4136022 0.042942725 0.029829085
0.41363215 0.043928578 0.029823078
0.41366214 0.044914432 0.029817071
0.41369209 0.045900285 0.029811064
0.41372204 0.046886139 0.029805055
0.41375202 0.047871988 0.029799048
0.41378197 0.048857845 0.029793041
0.41381195 0.049843695 0.029787034
0.41295362 0.050877355 0.029288489
0.41298363 0.051864799 0.029282473
0.41301367 0.052852243 0.029276457
0.41215548 0.053892277 0.028777849
0.41218552 0.054881312 0.028771821
0.41221559 0.05587035 0.028765794
0.41135764 0.056916751 0.028267181
0.41049981 0.057966333 0.027768547
0.40815726 -0.010571864 0.026924711
0.4090777 -0.0095286621 0.027411832
0.40910786 -0.0085364422 0.027405785
0.40913802 -0.0075442181 0.027399739
0.41005826 -0.0065073869 0.027886892
0.41008836 -0.0055167568 0.027880855
0.41011849 -0.0045261229 0.027874818
0.41014859 -0.0035354928 0.027868783
0.41106859 -0.0025066223 0.028355984
0.41109866 -0.0015175859 0.028349956
0.41112873 -0.00052854948 0.028343931
0.4111588 0.00046049073 0.028337903
0.41118884 0.0014495309 0.028331876
0.41121891 0.0024385673 0.02832585
0.41124898 0.003427604 0.028319823
0.41127902 0.0044166441 0.028313795
0.41130909 0.0054056826 0.028307769
0.41133916 0.0063947206 0.028301742
0.41136923 0.0073837591 0.028295714
0.41139928 0.0083727958 0.028289689
0.41142935 0.0093618361 0.028283661
0.41234872 0.010368409 0.028771032
0.41237873 0.011355853 0.028765013
0.41240874 0.0123433 0.028758997
0.41243878 0.013330745 0.028752979
0.41246879 0.014318191 0.028746963
0.4124988 0.015305636 0.028740944
0.41252881 0.016293082 0.028734928
0.41255882 0.017280526 0.02872891
0.41258883 0.018267974 0.028722893
0.41261885 0.01925542 0.028716875
0.41264886 0.020242864 0.028710859
0.41267887 0.02123031 0.028704841
0.41182014 0.022219334 0.028205311
0.41185021 0.023208374 0.028199283
0.41188028 0.024197411 0.028193258
0.41191033 0.025186451 0.02818723
0.4119404 0.026175488 0.028181203
0.41197047 0.027164526 0.028175177
0.41200054 0.028153565 0.02816915
0.41203058 0.029142603 0.028163122
0.41206065 0.030131642 0.028157096
0.41209072 0.03112068 0.028151069
0.41212079 0.032109719 0.028145041
0.41303903 0.033079658 0.028632635
0.41306907 0.034067102 0.028626617
0.41309908 0.03505455 0.028620601
0.41312909 0.036041994 0.028614582
0.4131591 0.037029441 0.028608566
0.41318911 0.038016886 0.028602548
0.41321912 0.039004333 0.028596532
0.41324914 0.039991777 0.028590513
0.41327915 0.040979221 0.028584497
0.41330916 0.041966669 0.028578479
0.41333917 0.042954113 0.028572462
0.41336921 0.043941561 0.028566446
0.41339922 0.044929005 0.028560428
0.41342923 0.045916449 0.028554412
0.41345924 0.046903897 0.028548393
0.41348925 0.047891341 0.028542377
0.41351926 0.048878789 0.028536359
0.41354927 0.049866233 0.028530343
0.41357929 0.050853681 0.028524324
0.4136093 0.051841125 0.028518308
0.41275209 0.052879523 0.028018476
0.41278213 0.053868562 0.028012449
0.4128122 0.0548576 0.028006421
0.41195524 0.055902369 0.027506584
0.41109833 0.056950323 0.027006727
0.41112849 0.057942543 0.027000681
0.40938488 0.059055783 0.026006948
0.40789768 -0.010646707 0.025661211
0.40792793 -0.0096513005 0.025655147
0.40884736 -0.00860806 0.026143495
0.4097667 -0.0075680069 0.026631862
0.40979686 -0.0065757832 0.026625816
0.41071606 -0.0055405074 0.027114213
0.41074619 -0.0045498735 0.027108176
0.41077629 -0.0035592434 0.027102139
0.41080639 -0.0025686095 0.027096102
0.41172534 -0.0015412985 0.027584547
0.41175541 -0.00055226195 0.02757852
0.41178548 0.00043677827 0.027572492
0.41181552 0.0014258184 0.027566466
0.41184559 0.0024148549 0.027560439
0.41187567 0.0034038913 0.027554411
0.41190571 0.0043929317 0.027548386
0.41193578 0.0053819702 0.027542358
0.41196585 0.0063710082 0.027536331
0.41199592 0.0073600467 0.027530305
0.41202596 0.0083490834 0.027524278
0.41205603 0.0093381237 0.02751825
0.4120861 0.010327161 0.027512224
0.41211614 0.0113162 0.027506197
0.41214621 0.01230524 0.027500169
0.41217628 0.013294277 0.027494144
0.41220635 0.014283315 0.027488116
0.41223639 0.015272354 0.027482089
0.41226646 0.016261393 0.027476061
0.41229653 0.01725043 0.027470035
0.41232657 0.018239468 0.027464008
0.41235664 0.019228507 0.02745798
0.41238672 0.020217545 0.027451955
0.41241679 0.021206584 0.027445927
0.41244683 0.022195622 0.0274399
0.4124769 0.023184661 0.027433874
0.41250697 0.024173699 0.027427847
0.41253704 0.025162738 0.027421819
0.41256708 0.026151776 0.027415793
0.41259715 0.027140815 0.027409766
0.41262722 0.028129853 0.027403738
0.41265726 0.02911889 0.027397713
0.41268733 0.030107928 0.027391685
0.4127174 0.031096967 0.027385658
0.41274747 0.032086007 0.027379632
0.41277751 0.033075046 0.027373604
0.41280758 0.034064084 0.027367577
0.41283765 0.035053123 0.027361551
0.4128677 0.036042161 0.027355524
0.41289777 0.0370312 0.027349496
0.41292784 0.038020238 0.027343469
0.41295791 0.039009277 0.027337443
0.41298795 0.039998312 0.027331416
0.41301802 0.04098735 0.027325388
0.41393483 0.041942995 0.027814303
0.41396487 0.042930439 0.027808284
0.41399488 0.043917887 0.027802268
0.41402489 0.044905331 0.027796252
0.4140549 0.045892775 0.027790233
0.41408491 0.046880223 0.027784217
0.41411492 0.047867667 0.027778199
0.41414493 0.048855115 0.027772183
0.41417494 0.049842559 0.027766164
0.41331863 0.050877735 0.02726512
0.4133487 0.051866774 0.027259093
0.41337878 0.052855812 0.027253065
0.4125227 0.053897355 0.026752014
0.4125528 0.054887988 0.026745977
0.41169688 0.05593431 0.026244896
0.41172704 0.056926534 0.026238849
0.40998533 0.058036506 0.025242675
0.41001558 0.059031915 0.02523661
0.40764007 -0.010721629 0.024395226
0.40767038 -0.0097246282 0.024389151
0.40858892 -0.0086797541 0.024878748
0.40950727 -0.0076380693 0.025368338
0.41042557 -0.0065995716 0.02585795
0.41045573 -0.0056073479 0.025851903
0.41137385 -0.0045736241 0.026341543
0.41140398 -0.0035829938 0.026335506
0.41143408 -0.0025923599 0.026329469
0.41146418 -0.0016017298 0.026323432
0.41149431 -0.00061109959 0.026317397
0.41152442 0.00037953057 0.02631136
0.41155452 0.0013701607 0.026305323
0.41158465 0.0023607945 0.026299287
0.41161475 0.0033514248 0.02629325
0.41164485 0.0043420549 0.026287213
0.41167498 0.0053326869 0.026281176
0.41170508 0.0063233171 0.026275139
0.41173518 0.0073139472 0.026269102
0.41176531 0.0083045773 0.026263067
0.41179541 0.0092952112 0.026257031
0.41182551 0.010285841 0.026250994
0.41185564 0.011276471 0.026244957
0.41188574 0.012267103 0.02623892
0.41191584 0.013257735 0.026232883
0.41194597 0.014248366 0.026226847
0.41197607 0.015238996 0.02622081
0.41200617 0.016229628 0.026214773
0.4120363 0.017220259 0.026208736
0.4120664 0.01821089 0.026202701
0.4120965 0.019201521 0.026196664
0.41212663 0.02019215 0.026190627
0.41215673 0.021182783 0.026184591
0.41218683 0.022173414 0.026178554
0.41221696 0.023164045 0.026172517
0.41224706 0.024154676 0.02616648
0.41227716 0.025145307 0.026160443
0.41230729 0.026135938 0.026154406
0.41233739 0.027126567 0.026148371
0.41236749 0.028117198 0.026142335
0.41239762 0.02910783 0.026136298
0.41242772 0.030098461 0.026130261
0.41245785 0.031089092 0.026124224
0.41248795 0.032079723 0.026118187
0.4134042 0.033051334 0.026608204
0.41343427 0.034040369 0.026602179
0.41346431 0.035029408 0.026596151
0.41349438 0.036018446 0.026590124
0.41352445 0.037007485 0.026584098
0.41355452 0.037996523 0.026578071
0.41358456 0.038985562 0.026572043
0.41361463 0.0399746 0.026566017
0.4136447 0.040963639 0.02655999
0.41367474 0.041952677 0.026553962
0.41370481 0.042941716 0.026547937
0.41373488 0.043930754 0.026541909
0.41376495 0.044919793 0.026535882
0.41379499 0.045908831 0.026529856
0.41382506 0.04689787 0.026523829
0.41385514 0.047886908 0.026517801
0.41388518 0.048875947 0.026511775
0.41391525 0.049864985 0.026505748
0.41394532 0.050854024 0.02649972
0.41397539 0.051843062 0.026493693
0.41312027 0.052882973 0.025991417
0.41315037 0.053873606 0.025985381
0.4131805 0.054864235 0.025979346
0.41232559 0.05591052 0.025477031
0.41147077 0.05695999 0.024974696
0.41061604 0.058012642 0.024472343
0.40887651 0.059128918 0.023473637
0.40802202 0.060189534 0.022971235
0.40628281 0.061316956 0.021972457
0.4064669 -0.011847903 0.022636028
0.4064973 -0.010847715 0.022629933
0.40741491 -0.0097980313 0.023120709
0.40833241 -0.0087515311 0.023611499
0.40924987 -0.0077082119 0.024102345
0.41016722 -0.0066680824 0.024593173
0.41108441 -0.0056311367 0.025084026
0.41111457 -0.0046389094 0.02507798
0.41114473 -0.0036466855 0.025071934
0.41206178 -0.0026161105 0.025562827
0.41209188 -0.0016254804 0.02555679
0.41212198 -0.00063485029 0.025550753
0.41215211 0.00035577986 0.025544716
0.41218221 0.00134641 0.025538679
0.41221231 0.0023370439 0.025532642
0.41224244 0.003327674 0.025526606
0.41227254 0.0043183044 0.025520569
0.41230264 0.0053089364 0.025514532
0.41233277 0.0062995665 0.025508497
0.41236287 0.0072901966 0.02550246
0.412393 0.0082808267 0.025496423
0.4124231 0.0092714606 0.025490386
0.4124532 0.010262091 0.02548435
0.41248333 0.011252721 0.025478313
0.41251343 0.012243353 0.025472276
0.41254354 0.013233985 0.025466239
0.41257367 0.014224615 0.025460202
0.41260377 0.015215245 0.025454167
0.41263387 0.016205877 0.02544813
0.412664 0.017196508 0.025442094
0.4126941 0.018187139 0.025436057
0.4127242 0.01917777 0.02543002
0.41275433 0.020168399 0.025423983
0.41278443 0.021159032 0.025417946
0.41281453 0.022149663 0.025411909
0.41284466 0.023140294 0.025405873
0.41287476 0.024130926 0.025399836
0.41290486 0.025121557 0.025393801
0.41293499 0.026112188 0.025387764
0.41296509 0.027102817 0.025381727
0.41299519 0.028093448 0.02537569
0.41302532 0.029084079 0.025369653
0.41305542 0.03007471 0.025363617
0.41308552 0.031065341 0.02535758
0.41311565 0.032055974 0.025351543
0.41314575 0.033046603 0.025345506
0.41317585 0.034037236 0.025339471
0.41320598 0.035027865 0.025333434
0.41323608 0.036018498 0.025327398
0.41326618 0.037009127 0.025321361
0.41329631 0.03799976 0.025315324
0.41332641 0.03899039 0.025309287
0.41335654 0.039981022 0.02530325
0.41338664 0.040971652 0.025297213
0.41341674 0.041962281 0.025291177
0.41344687 0.042952914 0.025285142
0.41347697 0.043943547 0.025279105
0.41350707 0.044934176 0.025273068
0.41442168 0.04588512 0.025764445
0.41445175 0.046874158 0.025758417
0.41448182 0.047863197 0.025752392
0.41362754 0.0488967 0.025248921
0.41365764 0.049887329 0.025242884
0.41368774 0.050877962 0.025236847
0.41371787 0.051868591 0.02523081
0.41374797 0.052859224 0.025224775
0.41289398 0.053902283 0.024721246
0.41292414 0.054894507 0.0247152
0.41207027 0.055942345 0.024211641
0.41121653 0.056993369 0.023708072
0.41036281 0.058047581 0.023204442
0.40950924 0.059104975 0.022700833
0.40777194 0.060227539 0.021699648
0.40691859 0.061292898 0.021195957
0.40518165 0.062426612 0.020194704
0.40432855 0.063499935 0.019690998
0.40259188 0.064644799 0.018689649
0.40438062 -0.014039987 0.02037997
0.40529749 -0.012980702 0.020871921
0.40532801 -0.011977331 0.020865805
0.40624478 -0.010922825 0.021357812
0.40716144 -0.0098715099 0.021849805
0.40896413 -0.0087754335 0.022839939
0.40899444 -0.0077784327 0.022833863
0.40991086 -0.0067366692 0.023325946
0.41082713 -0.0056980918 0.023818018
0.41085732 -0.0047042742 0.023811962
0.41177344 -0.003670474 0.024304068
0.4118036 -0.0026782502 0.024298022
0.41183376 -0.0016860301 0.024291975
0.41186392 -0.00069380627 0.024285929
0.41189408 0.00029841752 0.024279883
0.41192424 0.0012906414 0.024273837
0.4119544 0.0022828651 0.024267791
0.41198456 0.003275089 0.024261743
0.41201472 0.0042673126 0.024255697
0.41204488 0.0052595367 0.024249651
0.41207504 0.0062517603 0.024243604
0.4121052 0.0072439844 0.024237558
0.41213536 0.0082362061 0.024231512
0.41216549 0.0092284316 0.024225466
0.41219565 0.010220655 0.02421942
0.41222581 0.011212878 0.024213374
0.41225597 0.012205103 0.024207328
0.41228613 0.013197327 0.02420128
0.41231629 0.014189549 0.024195233
0.41234645 0.015181772 0.024189187
0.41237661 0.016173998 0.024183141
0.41240677 0.01716622 0.024177095
0.41243693 0.018158443 0.024171049
0.41246709 0.019150669 0.024165003
0.41249725 0.020142892 0.024158956
0.41252741 0.021135116 0.02415291
0.41255757 0.022127338 0.024146862
0.41258773 0.023119563 0.024140816
0.41261789 0.024111787 0.02413477
0.41264805 0.02510401 0.024128724
0.41267821 0.026096234 0.024122678
0.41270837 0.027088456 0.024116632
0.41273853 0.028080679 0.024110585
0.41276869 0.029072905 0.024104539
0.41368312 0.030050961 0.024596985
0.41371322 0.03104159 0.024590949
0.41374332 0.032032222 0.024584912
0.41377345 0.033022854 0.024578875
0.41380355 0.034013484 0.024572838
0.41383365 0.035004117 0.024566801
0.41297981 0.036018468 0.024062214
0.41389388 0.036985379 0.024554728
0.41392398 0.037976008 0.024548691
0.41395411 0.038966641 0.024542656
0.41398421 0.03995727 0.024536619
0.41401431 0.040947903 0.024530582
0.41404444 0.041938532 0.024524545
0.41407454 0.042929165 0.024518508
0.41410464 0.043919794 0.024512472
0.41413477 0.044910427 0.024506435
0.41416487 0.045901056 0.024500398
0.414195 0.046891689 0.024494361
0.4142251 0.047882318 0.024488324
0.4142552 0.048872951 0.024482289
0.41428533 0.049863581 0.024476252
0.41431543 0.05085421 0.024470216
0.41346234 0.051894046 0.023965472
0.4134925 0.05288627 0.023959426
0.41352266 0.053878494 0.02395338
0.41266978 0.054924704 0.0234486
0.41269997 0.055918518 0.023442544
0.41096422 0.057026677 0.022438958
0.41099453 0.058023676 0.022432882
0.40925911 0.059141386 0.021429261
0.4084067 0.060203522 0.020924387
0.40667158 0.061332382 0.019920671
0.40581942 0.062402479 0.019415746
0.40408468 0.063542485 0.018411992
0.40323269 0.064620554 0.01790699
0.40149829 0.065771706 0.016903169
0.4041014 -0.015126587 0.019109072
0.40413201 -0.014120027 0.019102938
0.40504792 -0.013059111 0.019596107
0.40507847 -0.01205415 0.019589985
0.40599427 -0.010998014 0.020083187
0.40779519 -0.0098954896 0.021075768
0.40782559 -0.008895305 0.021069674
0.40962619 -0.007802336 0.022062287
0.40965649 -0.0068053352 0.022056211
0.41057184 -0.0057651233 0.022549544
0.41060209 -0.0047697122 0.022543477
0.41151723 -0.0037342838 0.0230368
0.41154745 -0.0027404663 0.023030745
0.41157767 -0.0017466526 0.023024689
0.41249263 -0.00071759516 0.023518052
0.41252279 0.00027462863 0.023512006
0.41255295 0.0012668525 0.02350596
0.41258308 0.0022590763 0.023499914
0.41261324 0.0032513 0.023493867
0.4126434 0.0042435238 0.023487819
0.41267356 0.0052357474 0.023481773
0.41270372 0.0062279715 0.023475727
0.41273388 0.0072201951 0.023469681
0.41276404 0.0082124174 0.023463635
0.4127942 0.0092046428 0.023457589
0.41194016 0.010179142 0.022952016
0.41197035 0.011172958 0.022945961
0.41200057 0.012166777 0.022939904
0.41203076 0.013160593 0.022933848
0.41206098 0.014154408 0.022927793
0.41297516 0.015157984 0.02342131
0.41300532 0.01615021 0.023415264
0.41303548 0.017142432 0.023409218
0.41306564 0.018134655 0.023403171
0.4130958 0.019126879 0.023397125
0.41312596 0.020119103 0.023391079
0.41315612 0.021111326 0.023385033
0.41318628 0.02210355 0.023378987
0.41321644 0.023095774 0.023372941
0.4132466 0.024087997 0.023366893
0.41327676 0.025080221 0.023360847
0.41330692 0.026072444 0.0233548
0.41333708 0.027064668 0.023348754
0.41336724 0.028056892 0.023342708
0.4133974 0.029049115 0.023336662
0.41342756 0.030041339 0.023330616
0.41345772 0.031033562 0.02332457
0.41348788 0.032025788 0.023318524
0.41351801 0.033018012 0.023312476
0.41354817 0.034010235 0.023306429
0.41357833 0.035002459 0.023300383
0.41360849 0.035994682 0.023294337
0.41363865 0.036986906 0.023288291
0.41366881 0.03797913 0.023282245
0.41369897 0.038971353 0.023276199
0.41372913 0.039963577 0.023270153
0.41375929 0.040955801 0.023264106
0.41378945 0.041948024 0.02325806
0.41381961 0.042940248 0.023252012
0.41384977 0.043932471 0.023245966
0.41387993 0.044924695 0.02323992
0.41391009 0.045916919 0.023233874
0.41394025 0.046909142 0.023227828
0.41397041 0.047901366 0.023221781
0.41400057 0.04889359 0.023215735
0.41403073 0.049885813 0.023209689
0.41406089 0.050878037 0.023203643
0.41409105 0.05187026 0.023197597
0.41323906 0.052913241 0.022691607
0.41326928 0.053907059 0.02268555
0.41241744 0.054954819 0.022179533
0.41156566 0.056005772 0.021673458
0.41159594 0.057002772 0.021667382
0.41074437 0.058058497 0.021161314
0.40989286 0.059117407 0.020655222
0.40815961 0.060241416 0.019649073
0.40730834 0.061308287 0.019142933
0.40645719 0.062378347 0.01863678
0.40560612 0.063451588 0.018130606
0.40475518 0.064528018 0.017624406
0.40302268 0.065677509 0.016618103
0.40040889 0.066904835 0.015111686
0.40385476 -0.015208293 0.017829597
0.40476978 -0.01414416 0.01832398
0.40480036 -0.0131376 0.018317847
0.40571526 -0.012078243 0.018812258
0.40663001 -0.01102207 0.019306695
0.40666053 -0.010018699 0.01930058
0.40757519 -0.0089673046 0.019795073
0.40848973 -0.0079190955 0.020289551
0.40940416 -0.0068740747 0.02078405
0.41031849 -0.0058322372 0.021278575
0.4112328 -0.0047935774 0.021773139
0.41126305 -0.0037981698 0.021767074
0.41217715 -0.002764293 0.022261646
0.41220737 -0.0017704794 0.02225559
0.41223755 -0.00077666191 0.022249535
0.41226777 0.00021715186 0.022243477
0.41229799 0.0012109693 0.022237422
0.41232818 0.0022047868 0.022231366
0.4123584 0.0031986006 0.022225309
0.41238859 0.004192418 0.022219254
0.41241881 0.0051862355 0.022213198
0.41244903 0.0061800512 0.022207143
0.41247922 0.0071738665 0.022201085
0.41250944 0.0081676822 0.02219503
0.41253963 0.0091614993 0.022188975
0.41256985 0.010155316 0.022182917
0.41260007 0.011149131 0.022176862
0.41263026 0.012142951 0.022170806
0.41266048 0.013136766 0.022164749
0.41269067 0.014130581 0.022158694
0.41272089 0.015124397 0.022152638
0.41275111 0.016118215 0.022146581
0.4127813 0.01711203 0.022140525
0.41281152 0.018105846 0.02213447
0.41284171 0.019099664 0.022128413
0.41287193 0.020093478 0.022122357
0.41290212 0.021087296 0.022116302
0.41293234 0.022081112 0.022110246
0.41296256 0.023074929 0.022104189
0.41299275 0.024068745 0.022098133
0.41302297 0.025062561 0.022092078
0.41305315 0.026056377 0.022086021
0.41308337 0.027050193 0.022079965
0.41311359 0.02804401 0.02207391
0.41402608 0.029025327 0.022568796
0.41405624 0.030017551 0.02256275
0.4140864 0.031009775 0.022556704
0.41323441 0.032019272 0.022049684
0.41326463 0.03301309 0.022043629
0.41329482 0.034006909 0.022037573
0.41332504 0.035000723 0.022031516
0.41335523 0.035994541 0.02202546
0.41338545 0.036988355 0.022019405
0.41341567 0.037982173 0.022013349
0.41344586 0.038975988 0.022007292
0.41347608 0.039969806 0.022001237
0.41350627 0.04096362 0.021995181
0.41353649 0.041957438 0.021989124
0.41356671 0.042951252 0.021983068
0.4135969 0.04394507 0.021977013
0.41362712 0.044938885 0.021970956
0.41365731 0.045932703 0.0219649
0.41368753 0.046926517 0.021958845
0.41371772 0.047920335 0.021952787
0.41374794 0.048914153 0.021946732
0.41377816 0.049907967 0.021940676
0.41380835 0.050901785 0.021934619
0.41383857 0.0518956 0.021928564
0.41298765 0.052940138 0.021421326
0.4130179 0.053935546 0.02141526
0.41304815 0.054930955 0.021409195
0.41219735 0.055981871 0.020901898
0.41134673 0.057035964 0.020394601
0.41049621 0.058093239 0.019887291
0.40964577 0.059153706 0.019379962
0.40879536 0.060217358 0.018872581
0.40794513 0.061284196 0.018365206
0.40709496 0.062354214 0.01785782
0.4062449 0.063427418 0.017350413
0.40539497 0.064503811 0.01684298
0.40454507 0.065583393 0.016335502
0.4019343 0.066809006 0.014825427
0.40534636 -0.016181407 0.017557282
0.40537697 -0.015174851 0.017551148
0.40540755 -0.014168291 0.017545015
0.40543815 -0.013161733 0.017538881
0.40635201 -0.012102338 0.018034525
0.40638256 -0.011097373 0.018028401
0.40729627 -0.010042755 0.018524075
0.40820995 -0.0089913225 0.019019801
0.40912348 -0.0079430752 0.019515514
0.41003689 -0.0068980162 0.020011246
0.41095024 -0.0058561405 0.020506999
0.41098055 -0.004859136 0.020500923
0.41189378 -0.0038220349 0.020996736
0.41192403 -0.0028266276 0.02099067
0.41195428 -0.0018312165 0.020984605
0.41198453 -0.0008358091 0.020978538
0.41201481 0.00015959829 0.020972474
0.41204506 0.0011550094 0.020966407
0.41207531 0.0021504168 0.02096034
0.41210556 0.0031458279 0.020954276
0.41213581 0.0041412353 0.020948209
0.41216609 0.0051366463 0.020942144
0.41219634 0.0061320537 0.020936077
0.41222659 0.007127461 0.020930013
0.41225684 0.0081228707 0.020923946
0.41228712 0.0091182813 0.020917881
0.41231737 0.010113689 0.020911815
0.41234761 0.011109098 0.02090575
0.41237786 0.012104509 0.020899683
0.41240811 0.013099917 0.020893618
0.41243839 0.014095324 0.020887552
0.41246864 0.015090734 0.020881487
0.41249889 0.016086144 0.02087542
0.41252914 0.017081551 0.020869356
0.41255942 0.018076962 0.020863289
0.41258967 0.019072371 0.020857224
0.41261992 0.020067777 0.020851158
0.41265017 0.021063188 0.020845093
0.41268042 0.022058597 0.020839026
0.4127107 0.023054006 0.02083296
0.41274095 0.024049414 0.020826895
0.41365269 0.025038734 0.021322967
0.41368288 0.02603255 0.02131691
0.4137131 0.027026365 0.021310855
0.41374329 0.028020183 0.021304799
0.41377351 0.029013999 0.021298742
0.4138037 0.030007815 0.021292686
0.41383392 0.031001631 0.021286631
0.41386414 0.031995445 0.021280574
0.41301325 0.033008095 0.020772303
0.4130435 0.034003504 0.020766238
0.41307375 0.034998912 0.020760171
0.413104 0.035994321 0.020754106
0.41313428 0.03698973 0.02074804
0.41316453 0.037985139 0.020741975
0.41319478 0.038980547 0.020735908
0.41322502 0.039975956 0.020729844
0.41325527 0.040971365 0.020723777
0.41328555 0.041966774 0.020717712
0.4133158 0.042962186 0.020711645
0.41334605 0.043957591 0.020705579
0.4133763 0.044953004 0.020699514
0.41340658 0.045948409 0.020693447
0.41343683 0.046943821 0.020687383
0.41346708 0.047939226 0.020681316
0.41349733 0.048934639 0.020675251
0.41352758 0.049930047 0.020669185
0.41355786 0.050925456 0.02066312
0.41358811 0.051920865 0.020657053
0.41361836 0.052916273 0.020650988
0.41276848 0.053963959 0.020142471
0.41279879 0.054960962 0.020136395
0.41194913 0.056013428 0.019627882
0.41197947 0.057012022 0.019621797
0.41112995 0.058069259 0.019113254
0.41028053 0.059129685 0.01860469
0.40943113 0.060193304 0.018096076
0.40858188 0.0612601 0.017587475
0.40773275 0.062330082 0.017078854
0.40776333 0.063336641 0.01707272
0.40691435 0.064411402 0.016564066
0.40518588 0.065559149 0.015552837
0.40345761 0.066713259 0.014541604
0.39909118 0.068092681 0.012022656
0.37541065 0.072194159 -0.0015592581
0.40683606 -0.017151257 0.017287407
0.40598416 -0.01620554 0.016778311
0.40601474 -0.015198983 0.016772177
0.40604535 -0.014192425 0.016766043
0.40607592 -0.013185865 0.01675991
0.40610653 -0.012179306 0.016753776
0.40701935 -0.011121467 0.017250665
0.40793204 -0.010066811 0.017747572
0.40796253 -0.0090634385 0.017741457
0.40887517 -0.0080135614 0.018238425
0.40978763 -0.0069668707 0.018735381
0.41069999 -0.0059233629 0.019232357
0.41161227 -0.0048830393 0.019729352
0.41164258 -0.0038860382 0.019723276
0.41167289 -0.0028890371 0.0197172
0.41258502 -0.0018550816 0.020214267
0.41261527 -0.00085967424 0.0202082
0.41264552 0.00013573316 0.020202134
0.41267577 0.0011311442 0.020196069
0.41270602 0.0021265517 0.020190002
0.4127363 0.0031219628 0.020183938
0.41276655 0.0041173701 0.020177871
0.4127968 0.0051127812 0.020171806
0.41282704 0.0061081885 0.02016574
0.41285732 0.0071035959 0.020159675
0.41288757 0.0080990056 0.020153608
0.41291782 0.0090944162 0.020147543
0.41294807 0.010089824 0.020141477
0.41209713 0.011068987 0.019632144
0.41212744 0.01206599 0.019626068
0.41303885 0.013076052 0.020123281
0.4130691 0.014071459 0.020117214
0.41309935 0.015066869 0.020111149
0.4131296 0.01606228 0.020105083
0.41315988 0.017057687 0.020099018
0.41319013 0.018053096 0.020092951
0.41322038 0.019048505 0.020086886
0.41325063 0.020043913 0.02008082
0.4132809 0.021039322 0.020074753
0.41331115 0.022034731 0.020068688
0.4133414 0.023030141 0.020062622
0.41337165 0.024025548 0.020056557
0.4134019 0.025020959 0.02005049
0.41343218 0.026016366 0.020044426
0.41346243 0.027011776 0.020038359
0.41349268 0.028007185 0.020032294
0.41352293 0.029002594 0.020026227
0.41355318 0.029998003 0.020020163
0.41358346 0.030993411 0.020014096
0.41361371 0.031988822 0.020008031
0.41364396 0.032984231 0.020001965
0.41367421 0.033979639 0.0199959
0.41370448 0.034975048 0.019989833
0.41373473 0.035970457 0.019983768
0.41376498 0.036965866 0.019977702
0.41379523 0.037961274 0.019971637
0.41382548 0.038956683 0.01996557
0.41385576 0.039952092 0.019959506
0.41388601 0.040947501 0.019953439
0.41391626 0.041942909 0.019947372
0.41394651 0.042938318 0.019941308
0.41397679 0.043933727 0.019935241
0.41400704 0.044929136 0.019929176
0.41403729 0.045924544 0.01992311
0.41406754 0.046919953 0.019917045
0.41409779 0.047915362 0.019910978
0.41412807 0.048910771 0.019904913
0.41415831 0.049906183 0.019898847
0.41330931 0.050949052 0.019389126
0.41333961 0.051946055 0.019383051
0.41336992 0.052943055 0.019376975
0.4134002 0.053940058 0.0193709
0.41255149 0.054990891 0.018861162
0.41258186 0.055989485 0.018855076
0.4126122 0.056988079 0.018848991
0.4117637 0.058045279 0.018339215
0.41091529 0.059105668 0.01782942
0.4100669 0.060169246 0.017319571
0.40921867 0.061236005 0.016809737
0.40837052 0.06230595 0.016299883
0.40840113 0.063312508 0.016293749
0.40755314 0.064387232 0.015783867
0.40670526 0.065465137 0.015273963
0.40497893 0.066617586 0.01426024
0.40149593 0.067922279 0.012238927
0.38223419 0.071635716 0.0011427857
0.37523988 0.073311813 -0.0028941336
0.40747282 -0.01717535 0.016509682
0.40750337 -0.016170388 0.016503558
0.40665254 -0.015223116 0.015993217
0.40668312 -0.014216556 0.015987083
0.40671372 -0.013209998 0.01598095
0.40762556 -0.012150526 0.016479062
0.4076561 -0.011145561 0.016472938
0.40768665 -0.010140595 0.016466813
0.4085983 -0.0090874946 0.016964965
0.4095099 -0.0080375792 0.017463166
0.41042137 -0.00699085 0.017961355
0.41133273 -0.0059473044 0.018459564
0.41136307 -0.0049487059 0.018453479
0.4122743 -0.0039099413 0.01895171
0.41230461 -0.0029129402 0.018945634
0.41233492 -0.0019159392 0.01893956
0.4123652 -0.00091893808 0.018933484
0.41239551 7.8062963e-05 0.018927408
0.41242582 0.0010750678 0.018921332
0.41245613 0.0020720689 0.018915258
0.41248643 0.0030690699 0.018909182
0.41251674 0.004066071 0.018903106
0.41254702 0.0050630737 0.018897032
0.41257733 0.006060075 0.018890956
0.41260764 0.0070570759 0.01888488
0.41263795 0.0080540767 0.018878805
0.41266826 0.0090510817 0.01887273
0.41269857 0.010048083 0.018866654
0.41272885 0.011045084 0.018860579
0.41275916 0.012042087 0.018854503
0.41278946 0.013039088 0.018848429
0.41281977 0.014036089 0.018842353
0.41285008 0.01503309 0.018836277
0.41288039 0.016030094 0.018830201
0.41291067 0.017027093 0.018824127
0.41294098 0.018024094 0.018818051
0.41297129 0.019021098 0.018811975
0.4130016 0.020018099 0.018805901
0.41303191 0.0210151 0.018799825
0.41306221 0.022012101 0.018793749
0.41309252 0.023009105 0.018787673
0.4131228 0.024006106 0.018781599
0.41315311 0.025003107 0.018775523
0.41318342 0.026000109 0.018769447
0.41321373 0.02699711 0.018763371
0.41324404 0.027994111 0.018757297
0.41327435 0.028991114 0.018751221
0.41330463 0.029988116 0.018745145
0.41333494 0.030985117 0.018739069
0.41336524 0.03198212 0.018732995
0.41339555 0.03297912 0.018726919
0.41342586 0.033976123 0.018720843
0.41345617 0.034973122 0.018714767
0.41348645 0.035970125 0.018708693
0.41351676 0.036967129 0.018702617
0.41354707 0.037964128 0.018696541
0.41357738 0.038961131 0.018690467
0.41360769 0.039958131 0.018684391
0.413638 0.040955134 0.018678315
0.4136683 0.041952133 0.018672239
0.41369858 0.042949136 0.018666165
0.41372889 0.04394614 0.018660089
0.4137592 0.044943139 0.018654013
0.41378951 0.045940142 0.018647937
0.41381982 0.046937142 0.018641863
0.41385013 0.047934145 0.018635787
0.41388041 0.048931148 0.018629711
0.41391072 0.049928147 0.018623635
0.41394103 0.050925151 0.018617561
0.41397133 0.05192215 0.018611485
0.41400164 0.052919153 0.018605409
0.41315389 0.053968355 0.018094454
0.41318423 0.054966949 0.018088369
0.41321459 0.055965543 0.018082283
0.41236702 0.057021115 0.017571284
0.41239744 0.0580213 0.017565189
0.41155002 0.059081651 0.017054159
0.41070265 0.060145192 0.016543079
0.40985543 0.061211914 0.01603201
0.40988597 0.062216874 0.016025888
0.40991652 0.063221842 0.016019763
0.40906951 0.064294934 0.015508656
0.40822259 0.065371208 0.01499753
0.40649822 0.066521987 0.013981355
0.40301919 0.067824945 0.011955119
0.40810961 -0.017199446 0.015731949
0.40814015 -0.016194483 0.015725825
0.4081707 -0.015189517 0.015719701
0.40820125 -0.014184551 0.015713578
0.40823179 -0.013179583 0.015707454
0.40826234 -0.01217462 0.015701329
0.40829289 -0.011169654 0.015695205
0.40920356 -0.010114922 0.01619458
0.40923408 -0.0091115506 0.016188465
0.41014466 -0.0080615971 0.016687894
0.41105512 -0.0070148297 0.017187318
0.41108552 -0.0060146414 0.017181221
0.41199583 -0.0049726474 0.017680675
0.41202617 -0.0039740526 0.01767459
0.41205651 -0.0029754618 0.017668504
0.41296664 -0.0019398425 0.018167989
0.41299695 -0.00094284141 0.018161913
0.41302723 5.415962e-05 0.018155837
0.41305754 0.0010511643 0.018149761
0.41308784 0.0020481655 0.018143687
0.41311815 0.0030451666 0.018137611
0.41314846 0.0040421677 0.018131536
0.41317877 0.0050391704 0.01812546
0.41320908 0.0060361717 0.018119385
0.41323936 0.0070331725 0.01811331
0.41326967 0.0080301734 0.018107234
0.41329998 0.0090271784 0.018101158
0.41333029 0.01002418 0.018095084
0.4133606 0.01102118 0.018089008
0.4133909 0.012018183 0.018082932
0.41342118 0.013015185 0.018076856
0.41345149 0.014012186 0.018070782
0.41260287 0.014999236 0.017558971
0.41351211 0.01600619 0.01805863
0.41354242 0.01700319 0.018052556
0.41357273 0.018000191 0.01804648
0.41360301 0.018997194 0.018040404
0.41363332 0.019994196 0.018034328
0.41366363 0.020991197 0.018028254
0.41369393 0.021988198 0.018022178
0.41372424 0.022985201 0.018016102
0.41375455 0.023982201 0.018010026
0.41378483 0.024979204 0.018003952
0.41381514 0.025976205 0.017997876
0.41384545 0.026973207 0.0179918
0.41387576 0.027970208 0.017985724
0.41390607 0.028967211 0.01797965
0.41393638 0.029964212 0.017973574
0.41396669 0.030961214 0.017967498
0.41399696 0.031958215 0.017961424
0.41314921 0.032973934 0.017449439
0.41317958 0.033972528 0.017443353
0.41320992 0.034971122 0.017437268
0.41324028 0.035969716 0.017431183
0.41327062 0.036968309 0.017425098
0.41330099 0.037966903 0.017419012
0.41333133 0.038965501 0.017412927
0.41336167 0.039964095 0.017406842
0.41339204 0.040962689 0.017400756
0.41342238 0.041961282 0.017394671
0.41345274 0.042959876 0.017388586
0.41348308 0.04395847 0.017382501
0.41351345 0.044957064 0.017376415
0.41354379 0.045955658 0.01737033
0.41357416 0.046954252 0.017364245
0.4136045 0.047952846 0.01735816
0.41363487 0.048951443 0.017352076
0.41366521 0.049950037 0.017345991
0.41369557 0.050948631 0.017339906
0.41372591 0.051947225 0.01733382
0.41375628 0.052945819 0.017327735
0.41378662 0.053944413 0.01732165
0.41381696 0.054943006 0.017315565
0.41297036 0.055996951 0.016803341
0.41300079 0.056997135 0.016797246
0.41303119 0.05799732 0.016791152
0.41218477 0.059057634 0.016278889
0.41133842 0.060121134 0.01576658
0.41136891 0.061124507 0.015760466
0.41052276 0.062192783 0.015248155
0.41055331 0.063197747 0.015242031
0.40970728 0.064270802 0.014729691
0.40886137 0.065347038 0.014217331
0.40713903 0.066497736 0.01319869
0.40629336 0.067581944 0.012686282
0.40106589 0.069041625 0.0096425591
0.40962586 -0.017162586 0.01546088
0.40965635 -0.016159214 0.015454766
0.40880746 -0.015213612 0.014941975
0.408838 -0.014208646 0.014935851
0.40886855 -0.013203676 0.014929727
0.40977833 -0.012145722 0.015430309
0.40980884 -0.011142351 0.015424195
0.40983933 -0.010138978 0.015418081
0.40986982 -0.0091356067 0.015411966
0.41077942 -0.008085615 0.015912635
0.41168886 -0.0070388094 0.016413284
0.41171926 -0.0060386211 0.01640719
0.41262856 -0.0049965889 0.016907874
0.4126589 -0.0039979941 0.016901789
0.41268924 -0.002999403 0.016895704
0.41271961 -0.0020008083 0.016889621
0.41274995 -0.0010022137 0.016883535
0.41278031 -3.6189253e-06 0.01687745
0.41281065 0.0009949758 0.016871365
0.41284102 0.0019935705 0.01686528
0.41287136 0.0029921615 0.016859194
0.41290173 0.0039907563 0.016853109
0.41293207 0.004989353 0.016847024
0.41296244 0.0059879455 0.016840938
0.41299278 0.0069865403 0.016834853
0.41302314 0.0079851327 0.016828768
0.41305348 0.0089837294 0.016822683
0.41308385 0.0099823242 0.016816597
0.41311419 0.010980917 0.016810512
0.41314453 0.011979514 0.016804427
0.4131749 0.012978107 0.016798342
0.41320524 0.013976702 0.016792256
0.4132356 0.014975294 0.016786171
0.41326594 0.01597389 0.016780086
0.41329631 0.016972484 0.016774002
0.41332665 0.017971078 0.016767917
0.41335702 0.018969674 0.016761832
0.41338736 0.019968266 0.016755747
0.41341773 0.020966861 0.016749661
0.41344807 0.021965455 0.016743576
0.41347843 0.022964049 0.016737491
0.41350877 0.023962643 0.016731406
0.41353911 0.024961239 0.01672532
0.41356948 0.025959831 0.016719235
0.41359982 0.026958426 0.01671315
0.41363019 0.02795702 0.016707065
0.41366053 0.028955614 0.016700979
0.41369089 0.029954208 0.016694894
0.41372123 0.030952804 0.016688809
