# .PCD v0.7 - Point Cloud Data file format
VERSION 0.7
FIELDS x y z
SIZE 4 4 4
TYPE F F F
COUNT 1 1 1
WIDTH 1392
HEIGHT 1
VIEWPOINT 0 0 0 1 0 0 0
POINTS 1392
DATA ascii
0.5152868 0.075165622 0.050343718
0.51446307 0.076110281 0.049800079
0.5144887 0.076952793 0.049794946
0.51451433 0.077795304 0.049789812
0.51538903 0.078529313 0.050323222
0.51456553 0.079480335 0.049779546
0.51459116 0.080322847 0.049774412
0.51461673 0.081165366 0.049769275
0.51464236 0.082007878 0.049764141
0.51466793 0.082850397 0.049759008
0.51384479 0.08381097 0.049215306
0.51387042 0.084655076 0.049210161
0.51389611 0.085499182 0.049205016
0.51307315 0.086466126 0.048661269
0.51309884 0.087311827 0.048656113
0.51227599 0.088283546 0.048112344
0.51230174 0.089130834 0.048107181
0.51147902 0.090107344 0.047563348
0.51065642 0.091087028 0.047019526
0.51068228 0.091937512 0.047014344
0.50985986 0.092921972 0.046470493
0.50903749 0.093909621 0.045926619
0.50821525 0.094900452 0.045382731
0.50739306 0.095894478 0.04483879
0.50657099 0.096891686 0.044294864
0.50574905 0.097892076 0.043750916
0.50492722 0.098895654 0.043206945
0.50410539 0.099902421 0.04266293
0.50328374 0.10091237 0.042118922
0.50161427 0.10207382 0.041036144
0.50079286 0.10309172 0.040492084
0.49997148 0.10411283 0.039947979
0.49915025 0.10513711 0.039403889
0.49832913 0.10616457 0.038859777
0.49750808 0.10719522 0.038315646
0.49583954 0.10838694 0.037232645
0.49586627 0.10926609 0.037227288
0.49504551 0.1103063 0.036683097
0.49422485 0.11134968 0.036138888
0.4934043 0.11239626 0.035594661
0.49258381 0.11344603 0.035050377
0.49176344 0.11449898 0.034506109
0.49094319 0.11555512 0.033961825
0.490123 0.11661443 0.033417519
0.48930293 0.11767694 0.032873195
0.48848292 0.11874263 0.032328811
0.48766306 0.11981151 0.031784445
0.48599628 0.12106056 0.030701134
0.48517665 0.12213738 0.030156722
0.48435706 0.12321743 0.029612252
0.48438448 0.12411886 0.02960676
0.48356509 0.12520367 0.029062299
0.4827458 0.12629165 0.028517818
0.48192659 0.12738281 0.027973318
0.48195413 0.12828903 0.027967796
0.51805937 0.064805456 0.051373199
0.51723599 0.065726176 0.050828505
0.51726151 0.066563912 0.050823402
0.51728696 0.067401648 0.050818294
0.51646376 0.068328738 0.05027356
0.51648927 0.069168068 0.050268445
0.51651478 0.070007391 0.050263334
0.51654029 0.070846729 0.050258219
0.51571739 0.071781777 0.049713437
0.51574296 0.072622702 0.049708311
0.51576853 0.073463619 0.049703188
0.51664233 0.074204043 0.05023776
0.51666784 0.075043373 0.050232645
0.51669335 0.075882696 0.05022753
0.51671886 0.076722026 0.050222415
0.51674438 0.077561356 0.050217301
0.51676995 0.078400686 0.050212186
0.51679546 0.079240017 0.050207071
0.51682097 0.080079339 0.050201956
0.51684648 0.08091867 0.050196841
0.51687199 0.081758 0.050191727
0.51604968 0.082713753 0.049646821
0.51607519 0.083554678 0.049641695
0.51525301 0.084515221 0.049096726
0.51527864 0.085357733 0.049091592
0.51445663 0.086323045 0.048546623
0.51448226 0.087167159 0.048541483
0.51366037 0.088137247 0.047996487
0.51368612 0.088982947 0.047991332
0.51286435 0.089957818 0.047446307
0.5120427 0.090935878 0.046901233
0.51122117 0.09191712 0.046356168
0.51039976 0.092901543 0.045811087
0.50957841 0.093889154 0.045265984
0.50875717 0.094879948 0.044720862
0.507936 0.095873937 0.044175688
0.50711495 0.096871108 0.043630522
0.50629401 0.09787146 0.04308534
0.5046261 0.099018507 0.042000152
0.5038054 0.10002682 0.041454922
0.50298476 0.10103832 0.040909678
0.50216424 0.102053 0.040364407
0.50134385 0.10307088 0.039819121
0.50052351 0.10409195 0.039273784
0.49885657 0.10526925 0.038188443
0.4980365 0.10629827 0.037643086
0.49721652 0.10733046 0.037097715
0.49639657 0.10836587 0.036552288
0.4955768 0.10940444 0.036006875
0.49475712 0.1104462 0.035461441
0.49393752 0.11149114 0.034915984
0.49311796 0.11253929 0.034370482
0.49229857 0.11359061 0.033824991
0.49232554 0.11447772 0.033819586
0.49066007 0.11570279 0.032733951
0.48984095 0.11676367 0.032188404
0.4890219 0.11782774 0.031642802
0.48820299 0.11889497 0.031097217
0.48738417 0.1199654 0.030551609
0.48656544 0.12103902 0.030005982
0.48574683 0.12211581 0.029460337
0.48492825 0.12319581 0.02891464
0.48410982 0.12427898 0.028368955
0.48329148 0.12536533 0.027823251
0.48247325 0.12645487 0.027277527
0.48250079 0.12736109 0.027272005
0.48168266 0.12845542 0.026726222
0.51941162 0.063867912 0.051272027
0.5185892 0.064785413 0.050726119
0.51861459 0.065621555 0.050721023
0.51779228 0.066543825 0.050175086
0.51781774 0.067381561 0.050169982
0.51784325 0.068219297 0.050164875
0.5178687 0.069057032 0.050159771
0.51704663 0.069987267 0.049613785
0.51707214 0.070826605 0.04960867
0.51709765 0.071665935 0.049603555
0.51797056 0.072407983 0.050139353
0.51799601 0.073245719 0.050134245
0.51802146 0.074083455 0.050129142
0.51804692 0.074921191 0.050124034
0.51807237 0.075758927 0.050118931
0.51809788 0.076596662 0.050113827
0.51812333 0.077434398 0.05010872
0.51814878 0.078272134 0.050103616
0.51817423 0.07910987 0.050098512
0.51819968 0.079947606 0.050093405
0.51822519 0.080785342 0.050088301
0.51825064 0.081623077 0.050083198
0.5182761 0.082460813 0.05007809
0.5174548 0.083416536 0.049531952
0.51748031 0.084255867 0.049526837
0.5166592 0.085216358 0.048980664
0.51668471 0.086057283 0.048975542
0.51586366 0.087022565 0.048429314
0.51504278 0.087991022 0.047883097
0.51422197 0.088962667 0.047336858
0.51424766 0.089808367 0.047331702
0.51342702 0.090784796 0.046785437
0.51176006 0.091896728 0.045697995
0.51093966 0.092881113 0.045151677
0.51011932 0.093868688 0.044605341
0.5092991 0.094859444 0.044058986
0.50763279 0.095992088 0.042971417
0.50681281 0.096990801 0.042425014
0.50599289 0.097992711 0.041878592
0.50517309 0.098997809 0.041332114
0.50435334 0.10000609 0.040785659
0.50353378 0.10101755 0.040239178
0.50186843 0.10218044 0.039151456
0.50104904 0.10319988 0.038604897
0.50022978 0.10422248 0.038058348
0.4994106 0.10524828 0.037511777
0.49859151 0.10627726 0.036965191
0.4969269 0.10746564 0.03587728
0.49610808 0.10850259 0.035330646
0.49613485 0.10938332 0.035325278
0.49447072 0.11058603 0.034237314
0.4944976 0.11146995 0.034231927
0.49367905 0.11251806 0.033685192
0.49286067 0.11356933 0.033138473
0.49204236 0.1146238 0.03259173
0.49122417 0.11568145 0.032044966
0.49040607 0.11674228 0.031498186
0.48958802 0.11780632 0.030951351
0.48877013 0.11887351 0.03040453
0.48710731 0.12011922 0.029316304
0.48628965 0.12119439 0.028769435
0.48547202 0.12227276 0.028222514
0.48465455 0.1233543 0.027675606
0.48383719 0.12443902 0.027128678
0.48301992 0.12552692 0.026581731
0.48220268 0.12661803 0.026034733
0.48223028 0.12752584 0.026029201
0.48141325 0.12862171 0.025482211
0.52076203 0.062933631 0.051173329
0.51994044 0.063847907 0.050626177
0.51996583 0.064682454 0.050621092
0.51914442 0.065601505 0.05007394
0.51916981 0.066437654 0.050068848
0.51919526 0.067273796 0.050063752
0.51922065 0.068109937 0.050058655
0.51924604 0.068946078 0.050053559
0.51927149 0.06978222 0.050048467
0.51845044 0.070712425 0.049501248
0.51932234 0.071454518 0.050038274
0.51934773 0.072290659 0.050033178
0.51937312 0.0731268 0.050028086
0.51939857 0.073962942 0.05002299
0.51942396 0.074799083 0.050017893
0.51944941 0.075635232 0.050012797
0.5194748 0.076471373 0.050007705
0.52034628 0.077200726 0.05054481
0.52037168 0.078035273 0.050539725
0.52039701 0.07886982 0.05053464
0.5204224 0.079704374 0.050529554
0.52044779 0.080538921 0.050524469
0.51962727 0.081488237 0.049977131
0.51965272 0.082324378 0.049972039
0.51967812 0.08316052 0.049966943
0.51885784 0.084116206 0.049419567
0.51803762 0.085075073 0.04887218
0.51806319 0.085914396 0.048867065
0.51724309 0.086878039 0.048319642
0.51642311 0.087844878 0.047772165
0.51560324 0.088814892 0.047224704
0.5147835 0.089788094 0.046677221
0.51396388 0.090764478 0.046129726
0.51314425 0.091744058 0.045582175
0.51147956 0.092860684 0.044492267
0.51066023 0.093848221 0.043944698
0.50899577 0.094976008 0.042854697
0.50817668 0.095971502 0.042307079
0.50735772 0.096970178 0.041759443
0.50653887 0.09797205 0.041211788
0.50572002 0.098977111 0.040664084
0.50490135 0.099985354 0.040116392
0.50323784 0.10114339 0.039026231
0.50241941 0.10215959 0.038478486
0.50160104 0.10317899 0.037930697
0.50078279 0.10420156 0.037382916
0.49911994 0.1053803 0.036292631
0.49830192 0.10641084 0.035744805
0.49748397 0.10744456 0.035196923
0.49666613 0.10848147 0.034649055
0.49584842 0.10952156 0.034101166
0.49503079 0.11056484 0.033553258
0.49421322 0.11161131 0.033005297
0.49339581 0.11266096 0.032457355
0.49257848 0.1137138 0.031909388
0.49176124 0.11476981 0.031361401
0.49094409 0.11582901 0.030813396
0.490127 0.11689141 0.030265344
0.48931006 0.11795698 0.0297173
0.4884932 0.11902574 0.029169235
0.48767647 0.12009768 0.028621152
0.4868598 0.12117282 0.02807305
0.4851993 0.12242961 0.026982263
0.48438287 0.12351271 0.026434112
0.48356655 0.12459897 0.025885941
0.4827503 0.12568845 0.025337718
0.48277789 0.12659627 0.025332186
0.48196182 0.12769051 0.024783975
0.48198944 0.12859991 0.024778431
0.52126449 0.0620807 0.05053379
0.52128983 0.062913656 0.050528716
0.52131516 0.063746616 0.050523639
0.52049458 0.064662449 0.049975242
0.52051997 0.065496996 0.049970157
0.5205453 0.06633155 0.049965072
0.5205707 0.067166097 0.049959987
0.52059609 0.068000652 0.049954899
0.52062142 0.068835199 0.049949814
0.52064681 0.069669753 0.049944729
0.52067214 0.070504308 0.049939644
0.52069753 0.071338855 0.049934559
0.52072293 0.072173409 0.049929474
0.52074826 0.073007956 0.049924389
0.52077365 0.073842511 0.0499193
0.52164429 0.074575067 0.050457653
0.52166957 0.075408027 0.050452579
0.5216949 0.076240987 0.050447501
0.52172023 0.077073947 0.050442427
0.52174556 0.077906907 0.05043735
0.52177083 0.078739859 0.050432276
0.52179617 0.079572819 0.050427198
0.52097654 0.080518916 0.049878616
0.52100194 0.081353471 0.049873531
0.52102727 0.082188018 0.049868446
0.52020794 0.08314047 0.04931986
0.52023333 0.083976619 0.049314767
0.51941413 0.084933855 0.048766151
0.51859498 0.085894279 0.048217513
0.51777595 0.086857878 0.047668859
0.51695698 0.08782468 0.047120154
0.51613814 0.088794656 0.04657146
0.51531941 0.089767821 0.046022747
0.51450074 0.090744168 0.045474015
0.51283783 0.091855951 0.044381641
0.51201946 0.092840254 0.043832861
0.5103569 0.093963176 0.042740453
0.50953871 0.094955467 0.042191591
0.50872064 0.095950924 0.041642744
0.50790268 0.096949562 0.041093875
0.50624073 0.098093197 0.04000131
0.50542301 0.099099807 0.039452393
0.50460535 0.1001096 0.038903452
0.50378782 0.10112258 0.038354501
0.5029704 0.10213874 0.037805524
0.50215304 0.1031581 0.037256494
0.50049204 0.10433199 0.036163777
0.49967495 0.10535929 0.03561474
0.49885795 0.1063898 0.035065677
0.49719742 0.10757962 0.03397283
0.49638066 0.10861808 0.033423718
0.49556401 0.10965972 0.032874584
0.4947474 0.11070457 0.032325406
0.49393094 0.11175258 0.031776235
0.49311456 0.11280378 0.031227045
0.49229828 0.11385818 0.030677842
0.49232534 0.11474846 0.030672416
0.49150923 0.11580763 0.030123178
0.49069312 0.11686999 0.029573886
0.48987719 0.11793552 0.029024614
0.48906136 0.11900424 0.028475318
0.48740262 0.12025139 0.027382154
0.48658699 0.12132809 0.026832776
0.48577148 0.12240796 0.026283411
0.48495609 0.12349102 0.025734032
0.48414075 0.12457725 0.025184628
0.48332551 0.12566669 0.024635173
0.48251039 0.12675929 0.024085736
0.48253804 0.12766871 0.024080195
0.48256567 0.12857811 0.024074653
0.52261198 0.061151311 0.050438732
0.52263725 0.061982676 0.050433666
0.52181762 0.062893689 0.0498841
0.5218429 0.063726649 0.049879022
0.52186823 0.064559601 0.049873948
0.52189356 0.065392561 0.049868871
0.52191889 0.066225521 0.049863797
0.52194417 0.067058474 0.049858719
0.5219695 0.067891434 0.049853642
0.52199483 0.068724394 0.049848568
0.52202016 0.069557354 0.04984349
0.52204543 0.070390314 0.049838416
0.52207077 0.071223266 0.049833339
0.5220961 0.072056226 0.049828265
0.52296573 0.072790429 0.050367806
0.522991 0.073621795 0.05036274
0.52301627 0.07445316 0.050357673
0.52304155 0.075284526 0.050352607
0.52306682 0.076115891 0.050347541
0.52309209 0.076947257 0.050342474
0.52311736 0.077778623 0.050337408
0.52314264 0.078609988 0.050332341
0.52316791 0.079441354 0.050327275
0.5223493 0.080385812 0.049777504
0.52237457 0.081218764 0.04977243
0.52155608 0.082168005 0.0492226
0.52158147 0.08300256 0.049217511
0.52076316 0.083956577 0.048667684
0.52078855 0.084792718 0.048662588
0.51997036 0.085751504 0.048112731
0.51915228 0.086713485 0.047562853
0.5174908 0.087804481 0.046468139
0.51667297 0.08877442 0.045918215
0.51585525 0.089747541 0.045368269
0.5150376 0.09072385 0.044818304
0.51337671 0.091835558 0.043723468
0.51255929 0.092819832 0.043173455
0.51089883 0.093942672 0.042078581
0.51008165 0.094934918 0.041528486
0.50926459 0.095930338 0.040978406
0.50844759 0.096928939 0.040428303
0.50678772 0.098072499 0.039333273
0.50597095 0.099079072 0.038783122
0.50515437 0.10008883 0.038232956
0.50349498 0.10124831 0.037137859
0.50267857 0.10226603 0.036587607
0.50186229 0.10328694 0.036037374
0.50104606 0.10431103 0.035487115
0.50023001 0.1053383 0.034936842
0.49857134 0.10652327 0.033841558
0.4977555 0.1075585 0.033291232
0.49609721 0.10875461 0.032195915
0.49612409 0.10963853 0.032190528
0.49446607 0.1108442 0.031095117
0.49449301 0.11173131 0.031089712
0.49367765 0.11278247 0.030539293
0.4928624 0.11383683 0.02998885
0.49204722 0.11489436 0.029438393
0.4912321 0.11595509 0.028887879
0.49041712 0.117019 0.028337378
0.48960227 0.11808608 0.027786862
0.48878747 0.11915635 0.027236322
0.4879728 0.12022982 0.026685769
0.48715815 0.12130648 0.026135158
0.48634365 0.12238631 0.025584565
0.48552927 0.12346933 0.025033947
0.48387313 0.12473711 0.023938159
0.48390073 0.12564492 0.023932626
0.48308662 0.12673749 0.023381956
0.48227262 0.12783325 0.022831261
0.52390707 0.058565639 0.050356228
0.52393228 0.05939541 0.050351173
0.52395749 0.060225185 0.050346114
0.5239827 0.061054956 0.050341059
0.52316397 0.061962742 0.049790278
0.52318925 0.062794112 0.049785212
0.52321452 0.063625477 0.049780145
0.52323979 0.064456843 0.049775079
0.52242136 0.065372586 0.04922425
0.52329034 0.066119574 0.049764946
0.52331561 0.06695094 0.04975988
0.52334088 0.067782298 0.049754813
0.52336615 0.068613663 0.049749751
0.52339143 0.069445036 0.049744684
0.5234167 0.070276402 0.049739618
0.52344197 0.071107768 0.049734551
0.52431059 0.071842007 0.050275326
0.5243358 0.072671779 0.050270271
0.52436101 0.07350155 0.050265212
0.52438623 0.074331321 0.050260156
0.52441144 0.075161099 0.050255101
0.52443671 0.075990871 0.050250042
0.52446193 0.076820649 0.050244987
0.52448714 0.07765042 0.050239932
0.52451235 0.078480192 0.050234873
0.52369463 0.079421416 0.049683888
0.52371991 0.080252782 0.049678825
0.52290237 0.081198797 0.04912781
0.5229277 0.082031757 0.049122732
0.52211022 0.082982548 0.048571657
0.52213562 0.083817102 0.048566572
0.52131838 0.084772669 0.048015501
0.5205012 0.085731424 0.047464412
0.51968414 0.086693361 0.046913303
0.51802462 0.087784283 0.045816123
0.5172078 0.088754185 0.045264967
0.5163911 0.089727268 0.044713791
0.51473206 0.090834118 0.043616515
0.5139156 0.091815174 0.043065287
0.51225698 0.092933156 0.041967981
0.51144075 0.093922168 0.041416705
0.50978243 0.095051318 0.040319294
0.50896639 0.096048288 0.039767973
0.50815052 0.097048454 0.03921663
0.50733465 0.098051809 0.038665235
0.50651896 0.099058338 0.038113851
0.50570333 0.10006806 0.037562452
0.50404596 0.10122746 0.036464889
0.50323057 0.10224514 0.035913408
0.5024153 0.10326602 0.035361938
0.50075841 0.10444134 0.034264278
0.49994338 0.10547017 0.033712763
0.49828678 0.10665665 0.032615002
0.49747199 0.10769343 0.032063439
0.49665728 0.10873342 0.031511854
0.49584267 0.10977659 0.030960215
0.49502817 0.11082293 0.030408593
0.49421376 0.11187246 0.029856944
0.49339944 0.11292519 0.029305285
0.49258524 0.11398109 0.028753605
0.49261236 0.11487298 0.02874817
0.49179825 0.11593367 0.028196422
0.49098426 0.11699753 0.027644692
0.49017042 0.11806459 0.027092939
0.48935664 0.11913482 0.026541172
0.48854294 0.12020825 0.025989383
0.48772934 0.12128487 0.025437539
0.48691586 0.12236466 0.024885714
0.48526165 0.12362758 0.023787519
0.48444834 0.12471534 0.023235613
0.48363522 0.12580629 0.022683714
0.48282215 0.1269004 0.022131801
0.52440757 0.057715971 0.049719129
0.52443284 0.058545742 0.049714074
0.52445805 0.059375517 0.049709018
0.52448326 0.060205288 0.049703959
0.52450848 0.061035063 0.049698904
0.52453369 0.061864834 0.049693849
0.5245589 0.062694609 0.04968879
0.52458411 0.06352438 0.049683735
0.52376658 0.064436913 0.049131695
0.52379185 0.065268278 0.049126629
0.52381712 0.066099636 0.049121562
0.52384239 0.066931002 0.049116496
0.52471024 0.067673244 0.049658455
0.52473545 0.068503015 0.049653396
0.52476066 0.069332786 0.049648341
0.52478594 0.070162565 0.049643286
0.52481115 0.070992336 0.049638227
0.52567869 0.071725026 0.050180245
0.52570385 0.072553203 0.050175197
0.52572906 0.073381379 0.050170153
0.52575421 0.074209563 0.050165106
0.52577937 0.075037748 0.050160058
0.52580458 0.075865924 0.05015501
0.52582973 0.076694109 0.050149966
0.52585489 0.077522285 0.050144918
0.52503812 0.078460291 0.049592718
0.52506334 0.07929007 0.049587663
0.52424669 0.080232851 0.049035437
0.52427197 0.081064224 0.049030371
0.5234555 0.082011782 0.048478115
0.52263904 0.082962543 0.047925811
0.52266443 0.083797097 0.047920726
0.52184814 0.084752627 0.047368418
0.52019042 0.085833907 0.046268869
0.51937443 0.086797394 0.045716517
0.5185585 0.087764084 0.045164112
0.51774269 0.088733941 0.044611722
0.51608557 0.089835934 0.043512046
0.51526994 0.090813763 0.042959575
0.51361322 0.091926903 0.041859828
0.51279789 0.092912689 0.041307341
0.51114142 0.094036989 0.040207494
0.51032633 0.09503074 0.039654959
0.50951135 0.096027672 0.039102405
0.50869644 0.097027794 0.038549826
0.50788158 0.098031111 0.037997197
0.50622594 0.099180877 0.036897231
0.50541145 0.10019215 0.036344588
0.50459695 0.10120661 0.035791926
0.50378257 0.10222425 0.035239212
0.50212753 0.10339473 0.034139115
0.50131345 0.10442034 0.033586383
0.4996587 0.10560197 0.032486189
0.49884483 0.10663553 0.031933412
0.49719051 0.1078283 0.030833179
0.49637681 0.10886984 0.03028032
0.4955633 0.10991456 0.029727474
0.49474984 0.11096246 0.029174609
0.49393651 0.11201355 0.028621718
0.49396357 0.11290384 0.028616292
0.49315035 0.11395971 0.028063379
0.49233723 0.11501876 0.027510414
0.49152422 0.11608101 0.026957462
0.4907113 0.11714642 0.026404485
0.49073857 0.11804309 0.02639902
0.4899258 0.11911328 0.025846019
0.48911312 0.12018667 0.025292998
0.48746058 0.12143998 0.024192365
0.48664817 0.12252132 0.023639295
0.48583585 0.12360585 0.023086207
0.48418379 0.12487508 0.021985475
0.4833717 0.12596758 0.021432338
0.48339939 0.12687857 0.021426788
0.52493334 0.057696078 0.049076978
0.52495855 0.058525849 0.049071923
0.52498382 0.059355624 0.049066868
0.52500904 0.060185395 0.049061809
0.52503425 0.06101517 0.049056754
0.52505946 0.061844941 0.049051698
0.52508467 0.062674716 0.049046639
0.52510989 0.063504487 0.049041584
0.5251351 0.064334258 0.049036529
0.52516037 0.06516403 0.04903147
0.52518559 0.065993808 0.049026415
0.5252108 0.066823579 0.04902136
0.52607757 0.067564264 0.049564559
0.52610278 0.068392448 0.049559511
0.52612793 0.069220625 0.049554463
0.52615309 0.070048809 0.049549419
0.5261783 0.070876993 0.049544372
0.52704477 0.071608119 0.050087631
0.52706993 0.072434708 0.050082594
0.52709502 0.073261291 0.050077554
0.52712017 0.074087881 0.050072517
0.52714527 0.074914463 0.050067481
0.52717042 0.075741053 0.050062444
0.52719551 0.076567642 0.050057407
0.52722067 0.077394232 0.050052371
0.52640486 0.078330606 0.049498953
0.52558911 0.079270177 0.048945513
0.52561432 0.080099948 0.048940457
0.52479875 0.081044286 0.048386987
0.52398324 0.081991814 0.047833499
0.52316785 0.082942531 0.047279961
0.52235258 0.083896436 0.046726435
0.52153736 0.084853515 0.046172887
0.52072227 0.085813783 0.04561932
0.5199073 0.086777233 0.045065738
0.51825184 0.087869599 0.043963622
0.5174371 0.088841014 0.043409988
0.51662242 0.089815617 0.042856336
0.5149675 0.090923905 0.041754123
0.51415312 0.091906473 0.041200422
0.51249856 0.093025908 0.040098172
0.51168436 0.09401644 0.039544389
0.51087028 0.095010154 0.038990621
0.51005626 0.096007049 0.03843683
0.50840235 0.097147197 0.037334424
0.50758857 0.098152056 0.036780588
0.50677496 0.099160105 0.036226731
0.50596142 0.10017134 0.035672855
0.50430804 0.1013322 0.034570321
0.5034948 0.10235138 0.034016397
0.50268155 0.10337377 0.033462454
0.50102878 0.10455054 0.032359857
0.49937612 0.10573368 0.031257186
0.49856329 0.1067688 0.030703165
0.49775058 0.10780711 0.030149123
0.49609843 0.10900619 0.029046355
0.49612537 0.10989328 0.029040949
0.49531296 0.11094116 0.028486852
0.49450061 0.1119922 0.027932733
0.49368837 0.11304644 0.027378596
0.4928762 0.11410387 0.026824404
0.49290335 0.11499734 0.026818959
0.49209136 0.11605955 0.026264774
0.49127945 0.11712492 0.025710566
0.49046764 0.1181935 0.025156341
0.48965594 0.11926524 0.024602097
0.4896833 0.1201651 0.024596613
0.48887169 0.12124164 0.024042308
0.5254339 0.05684641 0.048439886
0.52545911 0.057676181 0.048434827
0.52632546 0.058434427 0.048979152
0.52550954 0.059335727 0.048424717
0.52553481 0.060165502 0.048419658
0.52556002 0.060995273 0.048414603
0.52642614 0.061747145 0.048958965
0.52645129 0.062575333 0.048953917
0.5264765 0.06340351 0.048948873
0.52650166 0.064231686 0.048943825
0.52652681 0.06505987 0.048938777
0.52655202 0.065888047 0.04893373
0.52657717 0.066716231 0.048928685
0.52660233 0.067544408 0.048923638
0.52746803 0.068281949 0.049468089
0.52749318 0.069108531 0.049463052
0.52751827 0.069935128 0.049458016
0.52838379 0.070666291 0.050002541
0.52840889 0.071491279 0.049997516
0.52843398 0.072316274 0.049992487
0.52845907 0.073141269 0.049987461
0.52848411 0.073966265 0.049982432
0.5285092 0.07479126 0.049977407
0.52853429 0.075616255 0.049972378
0.52771926 0.076547824 0.049417719
0.52774441 0.077374414 0.049412683
0.52692956 0.07831075 0.048858032
0.52695477 0.079138935 0.048852984
0.52614009 0.080080055 0.048298307
0.52532554 0.081024356 0.047743604
0.52451104 0.081971847 0.047188886
0.5236966 0.082922526 0.046634112
0.52288234 0.083876386 0.046079352
0.52206814 0.084833428 0.045524575
0.52125406 0.085793659 0.044969775
0.51960057 0.086881168 0.043865222
0.51878673 0.087849364 0.043310378
0.51797295 0.088820741 0.042755511
0.51631993 0.089924172 0.041650862
0.51550639 0.090903521 0.041095946
0.51385373 0.092018098 0.039991263
0.51304048 0.093005396 0.039436299
0.51138812 0.094131134 0.038331512
0.51057506 0.095126405 0.037776504
0.50976217 0.096124858 0.037221473
0.50894928 0.097126499 0.03666639
0.50813657 0.098131321 0.036111318
0.50732392 0.099139333 0.035556231
0.50567251 0.10029532 0.034451291
0.5048601 0.1013113 0.033896122
0.50320899 0.10247844 0.032791115
0.50239688 0.10350238 0.032235932
0.50074607 0.10468066 0.031130826
0.49993417 0.10571256 0.03057559
0.4982838 0.106902 0.029470451
0.49747208 0.10794186 0.028915133
0.4966605 0.10898492 0.028359834
0.49584904 0.11003114 0.027804513
0.49503767 0.11108056 0.02724917
0.4942264 0.11213316 0.02669381
0.49425349 0.11302505 0.026688375
0.49344233 0.11408245 0.026132952
0.49263129 0.11514301 0.025577543
0.4926585 0.11603808 0.025572089
0.4918476 0.11710342 0.025016651
0.4910368 0.11817196 0.024461191
0.49022612 0.11924367 0.023905715
0.49025345 0.12014353 0.023900231
0.52595967 0.056826517 0.047797732
0.52682501 0.057586391 0.048343282
0.5260101 0.058486063 0.047787618
0.52603531 0.059315834 0.047782563
0.52690053 0.060070932 0.048328139
0.52692568 0.060899112 0.048323095
0.5269509 0.061727289 0.048318047
0.52697605 0.062555477 0.048312999
0.5270012 0.063383654 0.048307955
0.52702641 0.06421183 0.048302907
0.52789128 0.064955778 0.048848551
0.52791637 0.065782368 0.048843514
0.52794152 0.06660895 0.048838478
0.52796668 0.06743554 0.048833441
0.52799177 0.06826213 0.048828404
0.5288564 0.068996519 0.049374141
0.52888149 0.069821514 0.049369112
0.52890658 0.07064651 0.049364086
0.52977097 0.071374528 0.04990983
0.52979594 0.072197929 0.049904812
0.52982098 0.073021337 0.049899794
0.52984601 0.073844731 0.049894776
0.52903193 0.074771479 0.049338948
0.52905703 0.075596474 0.049333923
0.52908212 0.076421469 0.049328893
0.52826816 0.077354595 0.048772994
0.52745432 0.078290895 0.048217114
0.52747953 0.079119079 0.048212066
0.52666587 0.080060162 0.047656152
0.52585232 0.081004426 0.04710022
0.52503884 0.081951872 0.046544265
0.52422541 0.082902513 0.045988262
0.52341217 0.083856344 0.04543227
0.5217604 0.084934205 0.044325344
0.52094734 0.085895993 0.0437693
0.52013439 0.08686097 0.043213211
0.5184831 0.087954767 0.042106185
0.51767039 0.088927694 0.041550081
0.5168578 0.089903824 0.040993921
0.51520699 0.091013543 0.039886799
0.51355642 0.09212964 0.038779639
0.51274413 0.093118511 0.038223401
0.51193202 0.094110556 0.037667178
0.51112002 0.095105782 0.037110932
0.51030809 0.096104197 0.036554668
0.50865823 0.097245783 0.035447322
0.50784659 0.098252162 0.034891009
0.50703502 0.099261716 0.034334678
0.50538558 0.10041923 0.033227235
0.5045743 0.10143676 0.032670852
0.50376302 0.10245747 0.032114457
0.50211418 0.1036309 0.031006945
0.50130314 0.10465959 0.030450465
0.49965462 0.10584416 0.029342888
0.49884388 0.10688081 0.028786391
0.49719563 0.10807653 0.027678715
0.49638513 0.10912114 0.02712217
0.49557471 0.11016893 0.026565608
0.49560177 0.11105923 0.026560182
0.49479151 0.11211178 0.026003588
0.4939813 0.11316755 0.025446942
0.49317122 0.11422648 0.024890309
0.49319842 0.11512155 0.024884855
0.49238849 0.11618527 0.024328196
0.49241576 0.11708193 0.024322731
0.49160597 0.11815043 0.023766041
0.49079627 0.11922209 0.023209332
0.48998663 0.12029697 0.02265257
0.52646023 0.055976849 0.047160637
0.52732462 0.056738354 0.047707405
0.52734977 0.057566535 0.047702361
0.52737492 0.058394715 0.047697313
0.52740014 0.059222896 0.047692265
0.52742529 0.060051076 0.047687221
0.52745044 0.060879257 0.047682174
0.52747566 0.061707433 0.047677126
0.52833962 0.062456202 0.048223976
0.52836478 0.063282788 0.048218939
0.52838987 0.064109378 0.048213903
0.52841502 0.06493596 0.048208866
0.52844012 0.06576255 0.04820383
0.52930391 0.066501752 0.048750769
0.529329 0.067326747 0.04874574
0.5293541 0.068151742 0.048740715
0.52937913 0.068976738 0.048735686
0.53024262 0.069707982 0.049282644
0.53026766 0.070531391 0.049277626
0.53029269 0.071354792 0.049272608
0.53031772 0.072178192 0.04926759
0.53034276 0.073001593 0.049262572
0.53036773 0.073824994 0.049257554
0.53039277 0.074648395 0.04925254
0.52957976 0.075576693 0.048695467
0.52960485 0.076401696 0.048690442
0.5287919 0.077334777 0.04813331
0.52797908 0.078271039 0.047576193
0.52716643 0.07921049 0.047019057
0.52635378 0.080153123 0.046461899
0.52554131 0.081098944 0.045904726
0.52556664 0.081931904 0.045899648
0.52391654 0.083000146 0.044790283
0.52310431 0.083955526 0.04423305
0.5222922 0.084914088 0.043675795
0.52064264 0.085998252 0.042566333
0.51983076 0.086964779 0.04200903
0.51901895 0.087934494 0.041451711
0.51736987 0.089034587 0.040342152
0.51655835 0.09001226 0.039784778
0.51574689 0.090993114 0.039227393
0.51409829 0.092109136 0.038117766
0.51328707 0.093097962 0.037560295
0.51247597 0.09408997 0.037002839
0.51082784 0.095221914 0.035893116
0.51001698 0.096221887 0.035335578
0.50920618 0.097225048 0.034778055
0.50839555 0.09823139 0.034220509
0.50674808 0.09938404 0.03311066
0.50593758 0.10039835 0.032553036
0.50429046 0.10156214 0.031443123
0.50348032 0.10258441 0.030885478
0.50183344 0.10375936 0.029775461
0.50102353 0.1047896 0.029217772
0.49937707 0.10597569 0.028107719
0.49856734 0.10701389 0.02754995
0.49775773 0.10805526 0.026992191
0.49694824 0.10909984 0.026434414
0.49613884 0.11014758 0.025876619
0.49532953 0.11119851 0.025318801
0.49452028 0.11225265 0.024760935
0.49371114 0.11330995 0.024203079
0.49373835 0.11420503 0.024197623
0.4929294 0.1152671 0.02363974
0.49212053 0.11633237 0.023081835
0.49214783 0.11723062 0.023076363
0.49133909 0.11830068 0.02251843
0.49136645 0.11920052 0.022512948
0.49055782 0.12027536 0.021954952
0.52782416 0.055890318 0.047071535
0.52784938 0.056718498 0.047066487
0.52787453 0.057546679 0.047061443
0.52789968 0.058374859 0.047056396
0.5279249 0.05920304 0.047051348
0.52795005 0.06003122 0.047046304
0.52881312 0.060783207 0.047594365
0.52883828 0.061609793 0.047589328
0.52886337 0.062436383 0.047584292
0.52888852 0.063262969 0.047579255
0.52891362 0.064089559 0.047574215
0.52977651 0.064831987 0.048122369
0.52980155 0.065656982 0.04811734
0.52982664 0.06648197 0.048112314
0.52985173 0.067306973 0.048107285
0.53071427 0.068041436 0.048655454
0.53073931 0.068864837 0.048650436
0.53076434 0.069688246 0.048645422
0.53078938 0.070511647 0.048640404
0.53081441 0.071335047 0.048635386
0.53083944 0.072158448 0.048630368
0.53086448 0.072981849 0.04862535
0.53088951 0.07380525 0.048620332
0.5300774 0.074731924 0.048062041
0.53010249 0.075556919 0.048057012
0.5292905 0.076488376 0.047498662
0.52931565 0.077314958 0.047493625
0.52850384 0.078251183 0.046935275
0.52769214 0.079190597 0.046376903
0.52688056 0.080133192 0.045818515
0.5260691 0.081078976 0.045260105
0.52525765 0.082027949 0.044701647
0.52444637 0.082980096 0.0441432
0.52363515 0.08393544 0.043584734
0.52198744 0.085014746 0.042472869
0.52117646 0.085978054 0.041914321
0.5195291 0.087068513 0.040802386
0.51871842 0.088039778 0.040243823
0.51790774 0.089014232 0.039685205
0.51626086 0.090120621 0.038573176
0.51545048 0.091103032 0.038014542
0.51380396 0.092220575 0.036902413
0.51299381 0.09321095 0.036343735
0.51218379 0.094204508 0.035785031
0.51137382 0.095201254 0.035226312
0.5097279 0.096339501 0.034114055
0.50891817 0.097344212 0.033555288
0.50810856 0.098352104 0.032996502
0.50646311 0.099506281 0.031884145
0.50565374 0.10052214 0.03132531
0.50484449 0.10154118 0.030766457
0.50319958 0.10271127 0.029654039
0.5023905 0.10373829 0.0290951
0.50074595 0.10491953 0.027982613
0.49993715 0.10595449 0.027423663
0.49829286 0.10714689 0.026311075
0.49748433 0.10818982 0.025752075
0.49667588 0.10923595 0.025193054
0.49586755 0.11028524 0.024634015
0.49589464 0.11117713 0.02462858
0.4950864 0.11223122 0.024069481
0.49427828 0.11328849 0.023510393
0.49347028 0.11434895 0.022951286
0.49266237 0.11541258 0.022392161
0.49268967 0.11631084 0.022386687
0.49188191 0.11737925 0.021827532
0.49190927 0.1182791 0.021822048
0.49193662 0.11917894 0.021816565
0.49112898 0.12025374 0.021257335
0.52834892 0.055870462 0.046430614
0.52837414 0.056698643 0.04642557
0.52839929 0.057526823 0.046420522
0.52842444 0.058355004 0.046415474
0.52928662 0.059110217 0.04696475
0.52931178 0.059936803 0.046959713
0.52933687 0.060763389 0.046954677
0.52936202 0.061589975 0.04694964
0.52938712 0.062416565 0.046944603
0.52941227 0.063243151 0.046939567
0.53027415 0.06398721 0.047488943
0.53029925 0.064812206 0.047483914
0.53032434 0.065637201 0.047478888
0.53034937 0.066462196 0.047473859
0.53121102 0.067198291 0.048023254
0.53123599 0.068021692 0.048018236
0.53126103 0.068845101 0.048013218
0.53128606 0.069668502 0.0480082
0.53131109 0.070491903 0.048003182
0.53133613 0.071315303 0.047998164
0.53136116 0.072138704 0.047993146
0.5313862 0.072962113 0.047988128
0.53141123 0.073785514 0.047983114
0.53060013 0.074712142 0.047423586
0.53062522 0.075537138 0.047418561
0.52981424 0.076468557 0.046858974
0.52900344 0.07740315 0.046299402
0.5281927 0.078340933 0.045739807
0.52821791 0.079170704 0.045734752
0.52740735 0.080113262 0.045175131
0.52659684 0.081059009 0.044615492
0.52578646 0.082007937 0.044055797
0.52414048 0.083077617 0.042941526
0.52333033 0.08403451 0.042381816
0.52168471 0.085115343 0.041267443
0.5208748 0.086080201 0.040707685
0.52006495 0.08704824 0.040147908
0.5184198 0.088144995 0.039033435
0.51761025 0.089120999 0.038473614
0.51680076 0.090100192 0.037913769
0.51515615 0.091212869 0.036799233
0.51434684 0.092200033 0.036239307
0.5135377 0.093190372 0.035679393
0.51189357 0.094318971 0.03456476
0.51108462 0.095317282 0.034004766
0.51027584 0.096318766 0.033444788
0.50946718 0.09732344 0.032884788
0.50782365 0.098472744 0.031770028
0.50701511 0.09948539 0.031209949
0.50537193 0.10064586 0.030095121
0.50456375 0.10166644 0.029535025
0.50292087 0.10283806 0.028420096
0.50211287 0.10386663 0.027859954
0.50047034 0.10504939 0.026744992
0.49966258 0.10608591 0.026184764
0.49885496 0.10712563 0.025624551
0.49721295 0.1083243 0.024509491
0.49640554 0.10937198 0.023949232
0.49643266 0.11026385 0.023943797
0.49562538 0.11131632 0.02338347
0.49481821 0.11237195 0.022823162
0.49401119 0.11343078 0.022262832
0.49320424 0.11449279 0.021702483
0.49323153 0.11539104 0.021697009
0.49242473 0.11645783 0.02113663
0.49245209 0.11735768 0.021131147
0.49164537 0.11842925 0.020570707
0.49167278 0.11933069 0.020565214
0.52887368 0.055850606 0.045789693
0.52889889 0.056678787 0.045784645
0.52892405 0.057506967 0.045779597
0.52978528 0.058263808 0.046330098
0.52981037 0.059090398 0.046325061
0.52983552 0.059916984 0.046320025
0.52986062 0.06074357 0.046314988
0.52988577 0.06157016 0.046309952
0.53074676 0.062317442 0.046860538
0.53077185 0.063142434 0.046855513
0.53079689 0.063967429 0.046850484
0.53082198 0.064792424 0.046845458
0.53168267 0.065531746 0.04739606
0.5317077 0.066355146 0.047391042
0.53173274 0.067178555 0.047386028
0.53175777 0.068001956 0.04738101
0.53178281 0.068825357 0.047375992
0.53180778 0.069648758 0.047370974
0.53183281 0.070472166 0.047365956
0.53185785 0.071295567 0.047360938
0.53188288 0.072118968 0.04735592
0.53190792 0.072942369 0.047350902
0.53109783 0.073867373 0.046790157
0.53112286 0.074692361 0.046785131
0.5303129 0.075622149 0.046224322
0.53033799 0.076448739 0.046219286
0.5295282 0.077383295 0.045658477
0.52871847 0.07832104 0.045097653
0.52790886 0.079261966 0.04453681
0.52709931 0.080206074 0.043975949
0.52628988 0.081153385 0.043415032
0.52548051 0.082103863 0.042854127
0.52467132 0.08305753 0.04229321
0.52302754 0.084133506 0.041176431
0.52221853 0.085095145 0.040615428
0.52140963 0.086059958 0.040054437
0.51976639 0.087151863 0.038937561
0.51895767 0.088124648 0.038376492
0.51731479 0.089227691 0.037259549
0.51650637 0.090208434 0.036698464
0.51486373 0.091322638 0.035581421
0.51405555 0.092311352 0.035020288
0.51324749 0.093303241 0.034459129
0.51243955 0.094298318 0.033897955
0.51079756 0.095433228 0.032780789
0.5099898 0.09643627 0.032219563
0.50834817 0.09758231 0.031102359
0.50754064 0.098593324 0.030541055
0.50673324 0.099607512 0.029979767
0.50509214 0.10076949 0.028862465
0.50428498 0.10179164 0.028301125
0.50264418 0.10296477 0.027183725
0.50183725 0.10399488 0.026622336
0.50019675 0.10517917 0.025504867
0.4993901 0.10621724 0.02494343
0.49858353 0.10725851 0.024381977
0.49777704 0.10830296 0.023820499
0.49697068 0.1093506 0.023259006
0.49616435 0.11040141 0.02269746
0.49535817 0.11145543 0.022135926
0.49455208 0.11251262 0.021574374
0.49457934 0.11340928 0.021568911
0.4937734 0.11447125 0.021007327
0.49296755 0.11553641 0.020445729
0.4929949 0.11643626 0.020440245
0.49218914 0.11750619 0.019878581
0.49221656 0.11840764 0.019873088
0.491411 0.11948235 0.019311428
0.52939844 0.055830751 0.045148775
0.53025877 0.056590814 0.045700483
0.53028387 0.057417404 0.045695446
0.53030902 0.05824399 0.04569041
0.53033412 0.05907058 0.045685373
0.53035927 0.059897169 0.045680337
0.53038436 0.060723752 0.0456753
0.5312444 0.061472666 0.046227112
0.53126949 0.062297661 0.046222087
0.53129458 0.06312266 0.046217058
0.53131962 0.063947648 0.046212032
0.53217936 0.064688601 0.04676386
0.53220439 0.065512009 0.046758842
0.53222942 0.06633541 0.046753824
0.53225446 0.067158811 0.046748806
0.53227949 0.067982212 0.046743788
0.53230453 0.068805613 0.04673877
0.53232956 0.069629021 0.046733752
0.53235459 0.070452422 0.046728734
0.53237957 0.071275823 0.046723716
0.5324046 0.072099224 0.046718702
0.53159547 0.073022597 0.046156731
0.53162056 0.073847592 0.046151705
0.53081149 0.074775741 0.045589671
0.53083664 0.07560233 0.045584634
0.53002775 0.076535262 0.045022607
0.52921903 0.077471368 0.044460557
0.52924424 0.078301139 0.044455502
0.52843565 0.079242028 0.043893427
0.52762711 0.080186106 0.043331329
0.52681863 0.081133373 0.042769179
0.52601033 0.082083814 0.042207047
0.52436846 0.083154932 0.041087832
0.5235604 0.084113345 0.040525649
0.52191883 0.085195616 0.039406337
0.52111101 0.086161986 0.038844105
0.52030325 0.087131545 0.038281854
0.51866215 0.088229746 0.037162442
0.51785463 0.089207262 0.036600143
0.51621395 0.090316601 0.035480697
0.51540667 0.091302097 0.034918316
0.5145995 0.092290767 0.034355946
0.5129593 0.093416035 0.033236407
0.51215231 0.094412677 0.032673955
0.51134551 0.095412493 0.032111522
0.50970578 0.096553683 0.030991878
0.50889921 0.097561464 0.030429397
0.50725973 0.098713815 0.029309655
0.50645339 0.099729553 0.028747123
0.50564718 0.10074849 0.028184569
0.50400823 0.10191676 0.027064729
0.5032022 0.10294365 0.026502131
0.50156367 0.10412307 0.02538226
0.49992523 0.10530887 0.024262315
0.49911961 0.1063485 0.023699634
0.49831411 0.10739133 0.023136936
0.49750867 0.10843732 0.02257422
0.49670333 0.10948653 0.02201145
0.4958981 0.11053889 0.021448694
0.49592531 0.11143397 0.02144324
0.49512023 0.11249112 0.020880457
0.49431524 0.11355146 0.020317649
0.49351037 0.11461498 0.019754827
0.49270552 0.1156817 0.019191949
0.49273294 0.11658315 0.019186456
0.49192828 0.11765463 0.018623585
0.49195573 0.11855766 0.018618083
0.49115124 0.11963392 0.018055182
0.53073227 0.054917824 0.045070872
0.53075737 0.055744413 0.045065835
0.53078252 0.056570999 0.045060799
0.53080761 0.057397585 0.045055762
0.53083277 0.058224171 0.045050725
0.53085786 0.059050761 0.045045685
0.53088301 0.059877351 0.045040648
0.5317421 0.060627893 0.045593683
0.53176713 0.061452884 0.045588657
0.53179222 0.062277883 0.045583628
0.53181732 0.063102879 0.045578603
0.5326761 0.063845463 0.046131652
0.53270108 0.064668864 0.046126634
0.53272611 0.065492265 0.046121616
0.53275114 0.066315666 0.046116598
0.53277618 0.067139067 0.046111584
0.53363466 0.0678721 0.046664692
0.53282624 0.068785876 0.046101548
0.53285128 0.069609277 0.04609653
0.53287631 0.070432685 0.046091512
0.53290135 0.071256086 0.046086494
0.53292632 0.07207948 0.046081476
0.5321182 0.073002815 0.045518275
0.53214329 0.073827811 0.045513246
0.53133523 0.074755922 0.044949982
0.53052735 0.075687222 0.044386733
0.53055251 0.076515406 0.044381686
0.5297448 0.077451475 0.043818407
0.52893716 0.078390732 0.043255106
0.52812958 0.079333179 0.04269179
0.52732205 0.080278814 0.042128418
0.52651471 0.08122763 0.041565061
0.52570748 0.082179628 0.041001685
0.52490032 0.083134808 0.040438287
0.52326059 0.084212229 0.039316535
0.52245367 0.08517538 0.038753089
0.52081436 0.08626394 0.037631307
0.52000761 0.087235056 0.037067778
0.51920104 0.088209353 0.036504269
0.51756221 0.089313842 0.035382386
0.51592356 0.090424702 0.034260433
0.51511735 0.09141174 0.033696841
0.51431125 0.092401966 0.033133231
0.51267302 0.093528762 0.032011181
0.51186717 0.094526947 0.031447522
0.51106143 0.095528312 0.030883843
0.50942373 0.09667103 0.029761728
0.50861818 0.097680368 0.02919797
0.50698084 0.098834224 0.028075788
0.50617558 0.099851519 0.027512012
0.50537038 0.10087201 0.026948217
0.50373352 0.1020418 0.025825903
0.50292856 0.10307024 0.02526206
0.50129199 0.10425119 0.02413968
0.50048733 0.1052876 0.02357579
0.49968272 0.10632719 0.023011878
0.49887821 0.10736998 0.022447949
0.49807382 0.10841594 0.021883998
0.49643803 0.10962237 0.020761464
0.49646524 0.11051743 0.02075601
0.49566111 0.11157296 0.020192001
0.4948571 0.11263166 0.019627975
0.49405318 0.11369356 0.019063927
0.4932493 0.11475865 0.018499827
0.49244559 0.1158269 0.017935742
0.49247304 0.11672994 0.017930239
0.49166945 0.11780299 0.017366124
0.49169692 0.11870761 0.017360611
0.49089351 0.11978543 0.016796468
0.53042281 0.054962859 0.04387198
0.53044796 0.055791043 0.043866932
0.53047311 0.056619219 0.043861885
0.53133136 0.057377767 0.044416074
0.53135651 0.058204357 0.044411037
0.53138161 0.059030946 0.044406001
0.53140676 0.059857532 0.044400964
0.53226483 0.060608111 0.044955231
0.53228986 0.061433107 0.044950202
0.53231496 0.062258102 0.044945177
0.53317279 0.063002318 0.045499448
0.53319782 0.063825719 0.045494433
0.53322285 0.06464912 0.045489416
0.53324783 0.065472528 0.045484398
0.53410542 0.06620878 0.046038721
0.53413039 0.067030586 0.04603371
0.53332293 0.067942731 0.045469344
0.53334796 0.068766132 0.045464326
0.533373 0.06958954 0.045459308
0.53339803 0.070412941 0.04545429
0.53342307 0.071236342 0.045449272
0.5326159 0.072158039 0.044884849
0.53264093 0.072983041 0.04487982
0.53183389 0.073909521 0.044315334
0.53185898 0.074736103 0.044310298
0.53105211 0.075667366 0.043745812
0.5302453 0.076601811 0.043181311
0.52943861 0.077539437 0.042616788
0.52946389 0.078370802 0.042611722
0.52865738 0.079313204 0.042047169
0.52785087 0.080258802 0.041482568
0.52704453 0.081207581 0.040917978
0.5254066 0.082275361 0.039793853
0.52460051 0.083232097 0.039229214
0.52379441 0.08419203 0.038664524
0.52215701 0.085275739 0.037540305
0.52135122 0.086243622 0.036975596
0.52054548 0.087214708 0.036410838
0.51890856 0.08831434 0.03528652
0.51727182 0.089420341 0.034162164
0.51646644 0.09040416 0.033597328
0.51566124 0.091391161 0.033032503
0.51402497 0.092513092 0.03190805
0.51322001 0.093508065 0.031343143
0.51158404 0.094641142 0.030218624
0.51077938 0.095644064 0.029653702
0.50997472 0.096650176 0.029088765
0.50833923 0.097799189 0.027964113
0.50753486 0.098813258 0.027399123
0.50589979 0.09997341 0.026274439
0.5050956 0.10099547 0.025709366
0.50346082 0.10216676 0.024584612
0.50265694 0.10319676 0.024019526
0.50102246 0.10437922 0.022894671
0.50021881 0.10541719 0.022329539
0.49941528 0.10645833 0.021764386
0.49861184 0.10750268 0.021199211
0.49780843 0.1085502 0.020633988
0.49700516 0.1096009 0.020068776
0.49620202 0.11065479 0.019503547
0.49539897 0.11171187 0.018938296
0.494596 0.11277213 0.018373026
0.49379307 0.1138356 0.017807705
0.49299031 0.11490223 0.017242396
0.49218765 0.11597203 0.01667707
0.49221513 0.11687667 0.016671557
0.49141261 0.11795126 0.016106199
0.49144015 0.11885748 0.016100677
0.49063772 0.11993686 0.015535259
0.53094757 0.054943003 0.043231063
0.53097272 0.055771187 0.043226015
0.53099787 0.056599364 0.043220967
0.53102309 0.057427544 0.043215923
0.53188026 0.058184538 0.043771349
0.53190535 0.059011128 0.043766312
0.53193051 0.059837714 0.043761276
0.53278756 0.060588334 0.044316776
0.53281265 0.061413329 0.044311747
0.53283769 0.062238324 0.044306722
0.53369451 0.062982574 0.044862229
0.53371954 0.063805975 0.044857211
0.53374457 0.064629383 0.044852193
0.53376961 0.065452784 0.044847175
0.53379458 0.066276185 0.044842158
0.53381962 0.067099586 0.04483714
0.53384465 0.067922987 0.044832122
0.53386968 0.068746395 0.044827107
0.53389472 0.069569796 0.044822089
0.53391975 0.070393197 0.044817071
0.53311354 0.071313269 0.04425142
0.53313863 0.072138257 0.044246394
0.53233248 0.07306312 0.043680683
0.53235763 0.073889703 0.043675646
0.53155172 0.074819334 0.043109942
0.53074586 0.075752139 0.042544216
0.53077108 0.076581918 0.042539157
0.5299654 0.077519506 0.041973405
0.52915984 0.078460276 0.04140763
0.52835429 0.079404242 0.040841803
0.52754891 0.08035139 0.040275991
0.52674359 0.081301719 0.03971016
0.52593839 0.082255237 0.039144307
0.52430266 0.08332932 0.038017645
0.5234977 0.084290802 0.037451744
0.52269286 0.085255466 0.036885824
0.52105755 0.086345471 0.035759069
0.52025294 0.087318093 0.035193101
0.51861805 0.088419244 0.034066305
0.51781368 0.089399837 0.033500291
0.51617908 0.090512142 0.032373399
0.51537496 0.091500692 0.03180733
0.51374072 0.09262415 0.03068037
0.51293683 0.093620665 0.030114254
0.51213306 0.094620369 0.029548123
0.5104993 0.095759735 0.028421097
0.50969571 0.096767411 0.027854882
0.5080623 0.097917929 0.026727788
0.50725901 0.098933555 0.026161559
0.5056259 0.10009524 0.025034362
0.50482285 0.10111883 0.024468085
0.50319016 0.10229165 0.023340855
0.50238729 0.10332321 0.022774495
0.50158453 0.10435795 0.022208149
0.49995232 0.1055467 0.021080822
0.49914983 0.1065894 0.020514427
0.4983474 0.1076353 0.01994798
0.49754509 0.10868438 0.019381545
0.4967429 0.10973664 0.018815093
0.4959408 0.11079208 0.018248618
0.49513882 0.11185072 0.017682128
0.49516615 0.11275056 0.017676644
0.49353504 0.11397754 0.016549049
0.49356249 0.11488058 0.016543547
0.49193174 0.11611709 0.015415932
0.49195927 0.11702332 0.015410409
0.49115774 0.11809947 0.014843777
0.49118534 0.11900729 0.014838245
0.49038401 0.12008821 0.014271615
0.53064114 0.054987926 0.042028472
0.53149748 0.055751331 0.042585094
0.53152263 0.056579508 0.042580049
0.53154784 0.057407688 0.042575002
0.53240401 0.058164719 0.043131661
0.53242916 0.058991309 0.043126624
0.53245425 0.059817899 0.043121587
0.53331029 0.060568552 0.043678321
0.53333539 0.061393548 0.043673296
0.53336042 0.062218543 0.043668266
0.53421623 0.062962838 0.044225004
0.53424126 0.063786238 0.044219989
0.53426629 0.064609639 0.044214971
0.53429133 0.06543304 0.044209953
0.53431636 0.066256441 0.044204935
0.53434139 0.06707985 0.044199917
0.53436637 0.06790325 0.044194899
0.5343914 0.068726651 0.044189882
0.53441644 0.069550052 0.044184864
0.53361118 0.070468493 0.043617994
0.53363627 0.071293488 0.043612968
0.53283113 0.072216712 0.043046031
0.53285623 0.073043302 0.043040995
0.53205127 0.073971294 0.042474069
0.53207648 0.074799478 0.042469021
0.53127164 0.075732246 0.041902062
0.53046691 0.07666821 0.041335087
0.52966231 0.077607356 0.040768091
0.52885771 0.078549691 0.040201038
0.52805328 0.079495199 0.039634004
0.52724898 0.080443896 0.039066948
0.52644473 0.081395783 0.038499877
0.52564061 0.082350858 0.03793278
0.52483648 0.083309114 0.037365634
0.52403253 0.084270559 0.036798503
0.52239919 0.085355707 0.035669338
0.52159548 0.086325116 0.035102125
0.51996243 0.08742141 0.033972897
0.51832962 0.088524073 0.032843631
0.51752627 0.089506224 0.032276336
0.51672304 0.090491556 0.03170906
0.5150907 0.091610149 0.030579695
0.51428765 0.092603453 0.030012334
0.51265568 0.093733191 0.028882902
0.51185292 0.094734453 0.028315527
0.51105028 0.095738888 0.02774813
0.50941873 0.096884564 0.02661857
0.50861633 0.097896963 0.026051125
0.50698519 0.099053785 0.024921529
0.50618297 0.10007416 0.024354002
0.50455213 0.10124213 0.023224337
0.50375021 0.10227046 0.022656798
0.50211966 0.10344958 0.021527031
0.50131798 0.10448588 0.020959442
0.50051641 0.10552535 0.020391835
0.49971497 0.10656802 0.019824207
0.49891353 0.10761388 0.019256527
0.49811223 0.10866292 0.018688859
0.49731106 0.10971513 0.018121174
0.49568164 0.11092928 0.016991226
0.49570897 0.11182914 0.016985742
0.49490803 0.11289091 0.016417967
0.49410725 0.11395589 0.015850203
0.49330655 0.11502404 0.015282418
0.49250594 0.11609536 0.014714616
0.49170539 0.1171699 0.014146763
0.49090496 0.1182476 0.013578919
0.49010465 0.11932849 0.013011059
0.49013233 0.12023949 0.013005507
0.4810535 0.12307186 0.0068141669
0.53116685 0.054968029 0.041386321
0.53119212 0.055797804 0.041381266
0.53121734 0.056627575 0.041376211
0.5320726 0.057387833 0.041934084
0.53209776 0.058216013 0.041929036
0.53212291 0.059044193 0.041923992
0.532978 0.05979808 0.042481899
0.53300315 0.060624667 0.042476863
0.53385812 0.06137377 0.04303484
0.53388315 0.062198766 0.043029815
0.53473794 0.062943093 0.043587785
0.53476298 0.063766494 0.043582767
0.53478801 0.064589895 0.043577749
0.53481305 0.065413304 0.043572731
0.53483808 0.066236705 0.043567713
0.53486311 0.067060106 0.043562695
0.53488815 0.067883506 0.043557681
0.53491312 0.068706907 0.043552663
0.53410888 0.069623724 0.042984568
0.53413391 0.070448712 0.042979542
0.534159 0.071273707 0.042974513
0.53335488 0.072196893 0.042406347
0.53255087 0.073123254 0.041838195
0.53257602 0.073951438 0.041833151
0.5317722 0.074882582 0.04126497
