# .PCD v0.7 - Point Cloud Data file format
VERSION 0.7
FIELDS x y z
SIZE 4 4 4
TYPE F F F
COUNT 1 1 1
WIDTH 1378
HEIGHT 1
VIEWPOINT 0 0 0 1 0 0 0
POINTS 1378
DATA ascii
0.45725989 0.067728288 0.018352335
0.45728859 0.068672739 0.01834658
0.45817128 0.069535591 0.018874276
0.45905381 0.070395268 0.01940196
0.45908242 0.07133653 0.019396223
0.45996481 0.072191425 0.019923937
0.45999336 0.073131092 0.019918211
0.46087563 0.073981211 0.020445947
0.46090412 0.074919283 0.02044023
0.46178627 0.075764626 0.020968033
0.46266827 0.07660678 0.021495823
0.4626967 0.077541672 0.021490125
0.46357855 0.07837905 0.022017945
0.46360692 0.079312347 0.022012258
0.46448863 0.080144949 0.0225401
0.46451697 0.081076652 0.022534423
0.46539852 0.081904478 0.0230623
0.4654268 0.082834587 0.023056632
0.46630827 0.08365763 0.023584571
0.46718958 0.084477492 0.024112491
0.46721777 0.085404411 0.024106843
0.46809894 0.086219497 0.024634799
0.46812707 0.087144829 0.024629159
0.46900809 0.087955132 0.025157144
0.46903619 0.08887887 0.025151515
0.46991706 0.089684397 0.025679529
0.47079793 0.090486735 0.026207587
0.47082588 0.091407292 0.026201978
0.47170654 0.092204854 0.02673004
0.47258708 0.092999227 0.02725812
0.47261497 0.093916602 0.027252531
0.47349536 0.0947062 0.027780641
0.47437572 0.095492609 0.028308798
0.47440353 0.096406788 0.028303226
0.47443131 0.097320974 0.028297655
0.47531143 0.09810102 0.028825825
0.47533917 0.099013612 0.028820263
0.47621912 0.099788882 0.029348461
0.47624683 0.10069987 0.02934291
0.47627452 0.10161088 0.02933736
0.47630221 0.10252187 0.029331807
0.47632989 0.10343287 0.029326256
0.47635758 0.10434387 0.029320704
0.47638527 0.10525487 0.029315153
0.47556108 0.10631434 0.028775776
0.4755888 0.10722693 0.028770214
0.47476476 0.10829119 0.028230807
0.47479254 0.10920537 0.028225236
0.47396857 0.1102744 0.027685773
0.47314477 0.11134661 0.027146317
0.47232103 0.11242201 0.026606843
0.47149742 0.11350059 0.026067348
0.47067386 0.11458237 0.025527807
0.46985042 0.11566731 0.024988273
0.43087089 0.05224609 0.0011566998
0.44806573 0.055100113 0.011822502
0.44980225 0.055946767 0.012885649
0.45068502 0.056846295 0.013414355
0.45156768 0.05774264 0.013943048
0.45245022 0.058635801 0.014471755
0.45247921 0.059589799 0.014465942
0.4533616 0.060478184 0.014994684
0.45339057 0.061430592 0.014988881
0.45427287 0.062314194 0.015517678
0.45430177 0.063265003 0.015511883
0.45518386 0.064143836 0.016040685
0.45521271 0.065093055 0.016034899
0.45609468 0.065967105 0.016563728
0.45612347 0.06691473 0.016557954
0.45700529 0.067784004 0.017086808
0.45788702 0.068650089 0.017615685
0.45791572 0.06959454 0.01760993
0.45879737 0.070455842 0.018138863
0.45967883 0.071313962 0.018667789
0.45970744 0.072255224 0.018662054
0.46058875 0.073108561 0.01919101
0.46061733 0.074048229 0.019185284
0.46149853 0.074896798 0.019714262
0.46152702 0.07583487 0.019708546
0.46240813 0.076678656 0.020237591
0.46328908 0.07751926 0.02076662
0.46331748 0.078454144 0.020760922
0.46419829 0.079289973 0.021289986
0.46422666 0.08022327 0.021284297
0.46510729 0.081054315 0.021813389
0.46513563 0.081986018 0.021807712
0.46601614 0.082812287 0.022336826
0.4660444 0.083742402 0.022331158
0.46692482 0.084563881 0.022860341
0.46780509 0.085382193 0.023389503
0.46783325 0.086309113 0.023383856
0.46871337 0.087122642 0.023913054
0.46874151 0.088047974 0.023907414
0.46962148 0.088856719 0.024436641
0.46964955 0.089780465 0.024431013
0.47052941 0.090584442 0.024960263
0.47140917 0.091385223 0.025489571
0.47228882 0.092182823 0.026018867
0.47231674 0.093101785 0.026013266
0.47319624 0.093894608 0.026542585
0.47322413 0.094811969 0.026536996
0.47410348 0.095600016 0.027066348
0.47498277 0.096384875 0.027595747
0.47501057 0.097299054 0.027590176
0.47503835 0.098213241 0.027584607
0.4759174 0.098991737 0.028114017
0.47594514 0.099904321 0.028108457
0.47597289 0.10081691 0.028102895
0.47685173 0.10158903 0.028632347
0.47687945 0.10250003 0.028626794
0.47690713 0.10341103 0.028621243
0.47693482 0.10432203 0.028615693
0.47696251 0.10523303 0.02861014
0.47613931 0.10629246 0.02806953
0.47616705 0.10720505 0.028063968
0.475344 0.10826927 0.027523328
0.47452101 0.10933667 0.026982641
0.47454885 0.11025245 0.02697706
0.47287539 0.11148101 0.025901269
0.47290331 0.11239998 0.025895668
0.47123012 0.11363811 0.02481978
0.47125816 0.11456025 0.024814161
0.47043574 0.11564517 0.024273401
0.4696134 0.11673328 0.023732614
0.42635274 0.051516812 -0.0028204818
0.43750063 0.052857358 0.0041314638
0.44608778 0.054278385 0.0094767315
0.44782257 0.055133075 0.010542328
0.44955713 0.055981398 0.011607931
0.45129153 0.056823347 0.012673605
0.45132062 0.057780534 0.012667772
0.4522022 0.058675326 0.013197702
0.45223126 0.059630916 0.01319188
0.45311269 0.060520928 0.013721845
0.45399404 0.06140776 0.014251824
0.45402297 0.062360168 0.01424602
0.45490423 0.063242212 0.014776067
0.45493311 0.064193025 0.014770273
0.45581415 0.065070301 0.01530031
0.45584303 0.06601952 0.015294527
0.45672393 0.066892013 0.015824599
0.45675272 0.067839645 0.015818825
0.4576335 0.068707362 0.016348921
0.45851415 0.06957189 0.016879035
0.45854285 0.07051634 0.01687328
0.45942342 0.071376085 0.017403463
0.46030384 0.072232656 0.017933626
0.46033245 0.07317391 0.017927891
0.46121272 0.074025705 0.018458089
0.46124128 0.074965365 0.018452363
0.46212143 0.075812377 0.018982584
0.46214992 0.076750457 0.018976867
0.46302995 0.077592686 0.019507157
0.46305841 0.078529164 0.01950145
0.46393827 0.079366617 0.02003173
0.464818 0.080200888 0.020562036
0.46484637 0.081134185 0.020556349
0.46572599 0.081963681 0.021086678
0.4657543 0.082895376 0.021081001
0.46663374 0.083720103 0.021611363
0.46666202 0.084650211 0.021605695
0.46754137 0.08547014 0.022136115
0.46842059 0.086286895 0.022666527
0.46844876 0.087213814 0.022660878
0.46932781 0.088025786 0.023191314
0.46935594 0.088951118 0.023185674
0.47023487 0.089758314 0.023716144
0.47111368 0.090562329 0.024246629
0.47114173 0.09148448 0.02424101
0.47202045 0.092283703 0.024771554
0.47289902 0.093079746 0.025302093
0.47292694 0.093998708 0.025296493
0.4738054 0.094789974 0.025827056
0.47383329 0.095707349 0.025821464
0.47471157 0.09649384 0.026352061
0.47558981 0.097277142 0.026882702
0.47561759 0.098191328 0.026877133
0.47564539 0.099105507 0.026871562
0.47652337 0.099882439 0.027402217
0.47655112 0.10079504 0.027396655
0.47657886 0.10170763 0.027391095
0.47660661 0.10262021 0.027385533
0.47663432 0.10353281 0.027379973
0.47751206 0.10430019 0.02791068
0.47668982 0.10535799 0.027368849
0.47671756 0.10627057 0.027363289
0.47589546 0.10733316 0.026821425
0.47592324 0.10824735 0.026815854
0.47510126 0.10931471 0.026273934
0.4742794 0.11038525 0.025732022
0.4743073 0.11130262 0.025726432
0.47348559 0.11237795 0.025184495
0.47181442 0.113616 0.024106147
0.47184244 0.11453815 0.024100527
0.47102103 0.11562302 0.023558533
0.4710491 0.11654676 0.023552904
0.47022784 0.11763643 0.023010874
0.46940666 0.11872926 0.022468831
0.42869237 0.051396709 -0.0025231293
0.43383402 0.052099206 0.0006923349
0.44241205 0.053552464 0.0060497355
0.44584858 0.054309595 0.0081916275
0.44758141 0.055165958 0.0092596803
0.449314 0.05601595 0.010327735
0.45104641 0.056859571 0.011395833
0.45107555 0.057818349 0.011389991
0.45195621 0.05871477 0.011921178
0.45283672 0.059608005 0.012452357
0.45286578 0.060563598 0.012446534
0.45374617 0.061452057 0.012977737
0.45462644 0.062337331 0.01350896
0.45465538 0.063289739 0.013503156
0.45553559 0.064170226 0.014034444
0.45556447 0.065121047 0.014028651
0.45644447 0.065996766 0.014559931
0.45647332 0.066945985 0.014554148
0.45735317 0.067816928 0.015085457
0.45738196 0.06876456 0.015079683
0.45826167 0.06963072 0.015611026
0.45914128 0.070493691 0.016142385
0.45916998 0.071438141 0.01613663
0.46004951 0.072296329 0.01666805
0.46092886 0.073151343 0.017199462
0.46095747 0.074092604 0.017193725
0.4618367 0.074942842 0.017725162
0.46186525 0.075882502 0.017719436
0.46274433 0.076727964 0.018250901
0.46277285 0.077666037 0.018245185
0.46365181 0.078506716 0.018776717
0.46368027 0.079443194 0.01877101
0.46455905 0.080279097 0.019302532
0.46543774 0.081111811 0.019834075
0.46546611 0.082045101 0.019828388
0.46634465 0.082873039 0.020359965
0.46637297 0.083804749 0.020354288
0.46725136 0.084627911 0.020885888
0.46727964 0.08555802 0.02088022
0.46815792 0.086376399 0.021411883
0.46903607 0.087191597 0.021943538
0.46906427 0.088118516 0.02193789
0.46994227 0.08892893 0.022469569
0.46997038 0.089854263 0.022463929
0.47084826 0.090659909 0.022995638
0.471726 0.091462366 0.023527369
0.47175404 0.092384517 0.023521751
0.47263172 0.093182184 0.024053538
0.47350925 0.093976676 0.024585314
0.47353718 0.094895639 0.024579715
0.47441456 0.095685355 0.025111524
0.47444242 0.096602723 0.025105935
0.47531965 0.097387657 0.025637768
0.47534749 0.098303437 0.025632188
0.47622463 0.099083588 0.026164083
0.47625244 0.099997774 0.026158512
0.47628021 0.10091195 0.02615294
0.47715712 0.10168575 0.026684849
0.47718483 0.10259833 0.026679287
0.47721258 0.10351092 0.026673727
0.47724032 0.10442352 0.026668165
0.47726807 0.10533611 0.026662605
0.47729579 0.1062487 0.026657043
0.47647473 0.10731124 0.026113946
0.47650251 0.10822543 0.026108375
0.47568151 0.10929275 0.025565222
0.4748607 0.11036326 0.025022082
0.47403994 0.11143695 0.024478916
0.47321931 0.11251382 0.023935737
0.47324729 0.11343437 0.023930127
0.47242674 0.11451604 0.023386886
0.47160634 0.11560088 0.022843653
0.47078604 0.11668891 0.022300407
0.47081417 0.11761424 0.022294767
0.46999401 0.11870704 0.021751491
0.47002217 0.11963397 0.021745844
0.46920216 0.12073154 0.021202533
0.46923038 0.12166005 0.021196874
0.43187889 0.051228777 -0.0016826951
0.43959671 0.05275907 0.0031486719
0.44302964 0.053529095 0.0052954191
0.44561145 0.054340735 0.0069040628
0.44734225 0.055198766 0.0079745352
0.44992355 0.055992886 0.0095832851
0.44995278 0.05695485 0.0095774233
0.45168304 0.057795364 0.010648002
0.45171219 0.058754142 0.01064216
0.45259181 0.059649006 0.011174589
0.45347127 0.060540687 0.011707012
0.4535003 0.06149628 0.011701189
0.45437965 0.062383186 0.012233634
0.45525888 0.063266903 0.0127661
0.45528781 0.064219311 0.012760296
0.45616695 0.065098248 0.013292823
0.45619583 0.066049062 0.013287028
0.45622474 0.066999875 0.013281235
0.45710364 0.06787245 0.013813768
0.45798242 0.068741836 0.014346327
0.45801121 0.069689468 0.014340552
0.45888987 0.07055407 0.014873134
0.45976841 0.071415491 0.015405735
0.45979711 0.072359942 0.015399979
0.46067557 0.07321658 0.015932642
0.46155387 0.074070036 0.016465291
0.46158248 0.075011298 0.016459556
0.46246064 0.075859971 0.016992241
0.46248919 0.076799646 0.016986515
0.46336722 0.077643543 0.017519223
0.46339574 0.078581616 0.017513506
0.46427366 0.079420738 0.018046275
0.46430212 0.080357216 0.018040569
0.46517983 0.08119157 0.018573334
0.46605748 0.082022727 0.01910612
0.46608582 0.082956024 0.019100433
0.46696332 0.083782412 0.019633254
0.46699163 0.084714115 0.019627577
0.46786898 0.08553572 0.02016042
0.46874627 0.086354136 0.020693315
0.4687745 0.08728265 0.020687656
0.46965158 0.088096291 0.02122055
0.47052857 0.08890675 0.021753462
0.47055671 0.089832082 0.021747822
0.47143355 0.090637766 0.022280769
0.47146162 0.091561504 0.022275141
0.47233835 0.092362404 0.02280811
0.47321501 0.093160115 0.023341132
0.47324297 0.094080672 0.023335522
0.47411945 0.094873607 0.02386854
0.47414738 0.095792569 0.023862941
0.47502369 0.096580729 0.024395989
0.47505158 0.097498104 0.024390398
0.47592777 0.098281488 0.024923481
0.47595561 0.099197261 0.024917901
0.47683167 0.099975854 0.025451038
0.47685945 0.10089003 0.025445467
0.47688726 0.10180422 0.025439898
0.47691503 0.1027184 0.025434326
0.47779083 0.10348905 0.025967481
0.47781855 0.10440164 0.025961919
0.47784629 0.10531423 0.025956359
0.47702619 0.10637514 0.025412044
0.47705397 0.10728933 0.025406472
0.47708175 0.10820352 0.025400901
0.47626179 0.1092708 0.024856515
0.47544196 0.11034127 0.024312135
0.47462222 0.11141492 0.023767743
0.4738026 0.11249175 0.023223329
0.472983 0.11357179 0.022678867
0.47216356 0.114655 0.022134416
0.47219163 0.11557873 0.022128787
0.47137237 0.11666672 0.0215843
0.47140047 0.11759205 0.02157866
0.47058132 0.11868481 0.021034151
0.47060952 0.11961174 0.021028504
0.46979049 0.12070928 0.020483965
0.46981871 0.12163779 0.020478306
0.4689998 0.12274012 0.019933706
0.43420941 0.05110902 -0.0013742807
0.437639 0.051903088 0.00077724864
0.4410682 0.052684415 0.0029288614
0.44364724 0.05350573 0.0045411089
0.44537631 0.054371797 0.0056140311
0.4479548 0.055175591 0.0072263852
0.44883385 0.056084827 0.0077599604
0.4505623 0.056931786 0.0088329678
0.45144105 0.057833064 0.0093665598
0.45231971 0.058731154 0.0099001704
0.45319828 0.059626058 0.01043384
0.4532274 0.060583241 0.010428007
0.45410579 0.061473373 0.010961667
0.45413485 0.062428962 0.010955843
0.45501313 0.063314311 0.011489532
0.45589128 0.064196475 0.01202324
0.45592022 0.065148883 0.012017437
0.45679829 0.06602627 0.012551206
0.45682719 0.066977084 0.012545412
0.4568561 0.067927897 0.012539619
0.45773393 0.068798915 0.013073395
0.45861167 0.069666743 0.01360719
0.45864046 0.070614375 0.013601416
0.45951805 0.071477428 0.014135241
0.46039554 0.072337292 0.014669085
0.46042424 0.073281743 0.014663329
0.46130165 0.074136823 0.015197235
0.46217889 0.07498873 0.015731128
0.4622075 0.075929984 0.015725393
0.46308461 0.076777115 0.016259314
0.46311316 0.077716783 0.016253589
0.46399012 0.07855913 0.016787538
0.46401864 0.079497203 0.016781822
0.46489549 0.080334768 0.017315835
0.46492395 0.081271246 0.017310128
0.46580061 0.082104042 0.017844137
0.46667719 0.082933649 0.018378166
0.46670556 0.083866946 0.018372478
0.46758199 0.084691778 0.018906541
0.4676103 0.08562348 0.018900864
0.46848658 0.086443529 0.019434951
0.46936283 0.087260388 0.019969089
0.46939105 0.088188909 0.019963432
0.47026709 0.089000992 0.020497566
0.47114301 0.089809895 0.021031722
0.47117114 0.090735234 0.021026082
0.47204694 0.091539361 0.021560267
0.47207502 0.092463098 0.021554638
0.47295067 0.093262441 0.022088852
0.47382626 0.094058596 0.022623116
0.47385424 0.094979152 0.022617506
0.47472966 0.095770538 0.023151768
0.47475758 0.0966895 0.023146167
0.47563285 0.09747611 0.023680458
0.47566074 0.098393477 0.023674868
0.47653586 0.099175304 0.024209188
0.47656369 0.10009108 0.024203608
0.47659153 0.10100686 0.024198027
0.47746649 0.10178231 0.024732418
0.4774943 0.10269649 0.024726847
0.47752208 0.10361067 0.024721276
0.47754985 0.10452486 0.024715705
0.47757766 0.10543904 0.024710134
0.47760543 0.10635322 0.024704564
0.47763321 0.10726741 0.024698993
0.47766101 0.1081816 0.024693422
0.47684205 0.10924884 0.024147803
0.47602323 0.11031927 0.023602195
0.4752045 0.11139289 0.023056569
0.47438589 0.11246968 0.022510923
0.47356731 0.11354967 0.021965226
0.47359532 0.11447182 0.021959607
0.47277695 0.11555658 0.021413913
0.47195867 0.11664453 0.020868199
0.4719868 0.11756987 0.020862561
0.47116864 0.11866259 0.020316817
0.47035059 0.1197585 0.019771054
0.47037882 0.12068702 0.019765398
0.46956089 0.12178771 0.019219574
0.46958914 0.12271782 0.019213906
0.43568698 0.051037323 -0.0016015425
0.43826365 0.051879454 1.431059e-05
0.44168884 0.052660931 0.0021708508
0.44341609 0.053535044 0.0032461593
0.44514319 0.054402784 0.0043215333
0.44771871 0.055208284 0.0059375772
0.4494454 0.056061685 0.0070130443
0.45032328 0.05696778 0.00754784
0.45120105 0.057870686 0.0080826562
0.45207876 0.058770411 0.0086174905
0.45295635 0.059666947 0.0091523454
0.45383388 0.060560293 0.0096872505
0.45386299 0.061517481 0.0096814176
0.45474035 0.062406052 0.010216321
0.45561758 0.063291438 0.010751243
0.45564657 0.06424544 0.010745429
0.45652369 0.065126054 0.011280376
0.45655265 0.066078454 0.011274572
0.45658159 0.067030869 0.011268768
0.45745856 0.067905098 0.01180379
0.45748746 0.068855919 0.011797996
0.45836425 0.069725379 0.012333015
0.4583931 0.070674598 0.012327231
0.4592697 0.071539283 0.01286228
0.46014625 0.072400779 0.013397347
0.46017501 0.073346816 0.013391582
0.46105137 0.074203543 0.013926679
0.46192771 0.075057067 0.014461828
0.46195638 0.075999923 0.014456082
0.46283251 0.076848678 0.014991228
0.46370855 0.077694252 0.015526392
0.46373713 0.078633919 0.015520667
0.46376568 0.079573587 0.015514941
0.46464154 0.080412783 0.016050145
0.46551734 0.081248797 0.0165854
0.4655458 0.082185276 0.016579693
0.4664214 0.083016515 0.017114945
0.46729693 0.083844572 0.017650217
0.4673253 0.084777869 0.01764453
0.46820065 0.085601144 0.01817983
0.46822897 0.086532846 0.018174153
0.4691042 0.087351337 0.018709477
0.46997938 0.088166647 0.019244859
0.4700076 0.08909516 0.0192392
0.47088256 0.089905694 0.019774579
0.47175747 0.090713046 0.020309977
0.47178558 0.091638379 0.020304337
0.47266033 0.092440948 0.020839764
0.47268841 0.093364693 0.020834135
0.47356299 0.094162479 0.021369591
0.47443753 0.094957083 0.0219051
0.47446552 0.09587764 0.02189949
0.47533986 0.096667461 0.022434995
0.47536778 0.097586431 0.022429394
0.47539574 0.098505393 0.022423794
0.4762699 0.099288851 0.022959339
0.47629777 0.10020622 0.022953747
0.47717178 0.1009849 0.023489321
0.47719961 0.10190067 0.02348374
0.47807354 0.10267457 0.024019374
0.47810131 0.10358875 0.024013802
0.47812912 0.10450294 0.024008231
0.47815689 0.10541712 0.02400266
0.47818467 0.1063313 0.023997091
0.47821248 0.10724549 0.02399152
0.47739446 0.10831111 0.023444677
0.4774223 0.10922688 0.023439096
0.47660449 0.11029728 0.022892255
0.47578678 0.11137085 0.022345396
0.47496918 0.11244761 0.021798518
0.47415161 0.11352757 0.021251585
0.47417963 0.11444971 0.021245968
0.47336227 0.11553443 0.020699039
0.47254497 0.11662235 0.020152092
0.47172779 0.11771344 0.019605126
0.47091073 0.11880772 0.01905814
0.47093895 0.11973624 0.019052481
0.47012195 0.1208353 0.018505435
0.47015023 0.12176541 0.018499767
0.47017848 0.12269552 0.018494099
0.46936175 0.12380096 0.017947052
0.43716255 0.050965704 -0.0018263377
0.43973616 0.051806357 -0.00020678069
0.44230947 0.052637447 0.0014128403
0.4440347 0.053511638 0.0024906097
0.4457598 0.054379452 0.0035684558
0.44748464 0.055240899 0.0046463027
0.44836169 0.056153398 0.0051822932
0.45008627 0.057003696 0.0062602465
0.45096308 0.057908233 0.0067962855
0.45183983 0.058809586 0.007332338
0.45271647 0.059707753 0.0078684157
0.45359299 0.060602736 0.0084045138
0.45446947 0.061494533 0.0089406623
0.45449859 0.062451717 0.0089348294
0.45537487 0.063338734 0.009470975
0.45625106 0.064222567 0.010007135
0.45628005 0.065176569 0.010001321
0.45630905 0.066130564 0.009995508
0.45718506 0.067008033 0.010531712
0.45721403 0.067960434 0.010525908
0.45808992 0.06883312 0.011062174
0.45811883 0.069783933 0.011056379
0.45899454 0.070651844 0.011592642
0.45902339 0.071601063 0.011586858
0.45989895 0.072464198 0.012123149
0.46077442 0.073324136 0.012659455
0.46080318 0.074270174 0.01265369
0.4616785 0.075125337 0.013190029
0.4625538 0.075977318 0.013726421
0.46258244 0.076920174 0.013720675
0.46345752 0.077767372 0.014257064
0.46433252 0.078611389 0.014793471
0.46436107 0.079551056 0.014787746
0.46438962 0.080490723 0.01478202
0.46526444 0.08132837 0.015318461
0.46613917 0.082162827 0.015854958
0.46616766 0.083099306 0.015849251
0.46704221 0.083928995 0.016385747
0.46791664 0.084755488 0.016922262
0.46794501 0.085688785 0.016916575
0.46881932 0.086510509 0.017453114
0.46969354 0.087329037 0.017989676
0.46972182 0.088259146 0.017984008
0.47059593 0.089072898 0.018520633
0.47146991 0.089883469 0.019057244
0.47149807 0.090810403 0.019051597
0.47237191 0.091616198 0.019588238
0.47240001 0.092541523 0.019582598
0.47327369 0.093342543 0.020119263
0.47330177 0.094266281 0.020113634
0.4741753 0.095062517 0.020650333
0.47504881 0.095855564 0.021187084
0.47507679 0.096776113 0.021181474
0.47595006 0.097564399 0.021718221
0.47597802 0.098483361 0.021712622
0.47600594 0.099402323 0.021707021
0.47687903 0.10018422 0.022243807
0.47690693 0.10110159 0.022238217
0.47777987 0.10187872 0.022775028
0.4778077 0.1027945 0.022769447
0.47783554 0.10371027 0.022763867
0.47870836 0.10448102 0.023300752
0.47873613 0.10539521 0.023295181
0.47876394 0.10630938 0.023289612
0.47879171 0.10722357 0.02328404
0.47797471 0.10828915 0.022735965
0.47800255 0.10920493 0.022730384
0.47718576 0.11027528 0.022182316
0.47636905 0.11134882 0.021634223
0.47639698 0.11226778 0.021628622
0.47558042 0.11334609 0.0210805
0.47476393 0.1144276 0.020532327
0.47394755 0.11551229 0.019984165
0.4731313 0.11660016 0.019435991
0.47231513 0.11769122 0.018887792
0.47149906 0.11878546 0.018339572
0.47152728 0.11971398 0.018333914
0.47071129 0.120813 0.017785635
0.47073957 0.12174311 0.017779967
0.47076783 0.12267322 0.017774299
0.46995211 0.12377862 0.017226011
0.43778923 0.050941993 -0.0025917424
0.4403598 0.051782757 -0.00096848543
0.44208327 0.052664984 0.00011170211
0.4446533 0.053488232 0.0017350657
0.44552964 0.054410327 0.0022722315
0.44725257 0.05527344 0.0033525676
0.44897527 0.056130182 0.0044329101
0.44985124 0.057039537 0.0049701538
0.45072713 0.057945706 0.0055074482
0.45160291 0.058848687 0.006044725
0.45247859 0.059748486 0.0065820264
0.45335415 0.0606451 0.0071193473
0.45422965 0.061538529 0.0076566818
0.45510507 0.062428765 0.008194074
0.45598036 0.063315824 0.0087314527
0.45600939 0.064271413 0.0087256301
0.45688453 0.065153696 0.0092630321
0.45691353 0.066107698 0.0092572188
0.45694253 0.0670617 0.0092514055
0.45781749 0.067937605 0.0097888531
0.45784643 0.068890013 0.0097830491
0.45872128 0.069761142 0.010320557
0.45875019 0.070711955 0.010314764
0.45962483 0.071578301 0.010852263
0.45965371 0.072527528 0.010846479
0.46052819 0.073389105 0.011384013
0.46140262 0.074247494 0.011921567
0.46143135 0.075193524 0.011915802
0.46230564 0.076047137 0.012453379
0.46317986 0.076897569 0.012991014
0.46320853 0.077840418 0.012985269
0.46408254 0.078686066 0.0135229
0.46495646 0.079528525 0.014060545
0.46498504 0.080468193 0.014054819
0.46501359 0.08140786 0.014049093
0.46588734 0.082243949 0.014586783
0.46676102 0.08307685 0.015124524
0.46678948 0.084013335 0.015118817
0.46766299 0.084841467 0.015656549
0.46853638 0.085666411 0.016194308
0.46940967 0.086488165 0.016732078
0.46943799 0.087419868 0.016726401
0.47031116 0.088236846 0.017264208
0.47033942 0.089166962 0.01725854
0.47121248 0.089979157 0.017796407
0.47208539 0.090788178 0.018334256
0.47211358 0.091715097 0.018328607
0.47298634 0.092519343 0.018866491
0.47301447 0.093444675 0.018860852
0.47388709 0.094244137 0.019398766
0.47391516 0.095167875 0.019393137
0.47478765 0.095962554 0.019931072
0.47481567 0.096884698 0.019925455
0.47568804 0.097674608 0.020463457
0.47571602 0.098595157 0.020457847
0.47658822 0.099380285 0.020995848
0.47661614 0.10029925 0.020990247
0.47664407 0.10121821 0.020984648
0.47751608 0.10199697 0.021522682
0.47754395 0.10291433 0.02151709
0.47841582 0.10368831 0.02205516
0.47844365 0.1046041 0.022049578
0.47847149 0.10551987 0.022043999
0.47849932 0.10643564 0.022038419
0.47852716 0.10735142 0.022032836
0.47855499 0.1082672 0.022027256
0.47858283 0.10918298 0.022021675
0.47776702 0.11025329 0.02147237
0.47695133 0.11132678 0.020923048
0.47697926 0.11224575 0.020917449
0.47616372 0.11332402 0.020368094
0.47534823 0.1144055 0.019818686
0.47453287 0.11549014 0.019269299
0.4737176 0.11657798 0.018719885
0.47290245 0.117669 0.018170452
0.47208738 0.11876319 0.017621005
0.47211561 0.11969172 0.017615346
0.47130063 0.12079071 0.017065832
0.47132891 0.12172081 0.017060166
0.47051415 0.12282457 0.016510654
0.47054246 0.12375628 0.016504977
0.44013765 0.051808544 -0.0022745093
0.44185913 0.052692439 -0.0011918648
0.44442621 0.053517394 0.00043518326
0.44530159 0.05444112 0.00097357255
0.44702256 0.055305902 0.0020563656
0.44874325 0.056164317 0.0031391652
0.44961825 0.057075299 0.0036776264
0.45133868 0.057922564 0.0047605261
0.45221344 0.058825586 0.0052990415
0.4530881 0.059725422 0.0058375709
0.45396268 0.060622074 0.0063761249
0.45483714 0.06151554 0.0069146929
0.45486629 0.062474318 0.0069088503
0.45574066 0.063363001 0.0074474853
0.45661488 0.064248502 0.0079861078
0.45664394 0.065204099 0.0079802843
0.45667297 0.066159695 0.0079744617
0.45754701 0.067038827 0.0085131163
0.45757601 0.067992821 0.008507303
0.4584499 0.068867177 0.009045993
0.45847884 0.069819584 0.0090401899
0.45935264 0.070689157 0.0095789349
0.45938155 0.07163997 0.0095731411
0.45941046 0.072590783 0.0095673474
0.46028399 0.073453993 0.010106105
0.46115744 0.074314013 0.010644877
0.46118626 0.075261645 0.010639102
0.46205956 0.076116882 0.011177909
0.46293277 0.076968946 0.011716729
0.46380594 0.077817813 0.012255606
0.46383458 0.078760661 0.012249861
0.46470755 0.079604752 0.01278873
0.46558043 0.080445662 0.013327624
0.46560898 0.081385329 0.013321898
0.46648172 0.082221456 0.013860815
0.46651024 0.083159529 0.013855099
0.46738288 0.083990879 0.014394083
0.46825534 0.084819049 0.014933049
0.46828377 0.08575394 0.014927352
0.46915612 0.086577326 0.015466353
0.47002834 0.087397531 0.016005367
0.47005668 0.088329233 0.01599969
0.47092876 0.089144662 0.016538739
0.47095704 0.09007477 0.016533071
0.47182903 0.090885416 0.017072182
0.47270089 0.09169288 0.017611273
0.47272906 0.092619799 0.017605625
0.47360078 0.093422487 0.018144751
0.47362891 0.09434782 0.018139113
0.47450048 0.095145725 0.018678263
0.47452855 0.096069463 0.018672634
0.47539997 0.096862592 0.019211819
0.47542799 0.09778475 0.0192062
0.47629932 0.098573089 0.019745441
0.4763273 0.099493645 0.019739831
0.47719842 0.10027722 0.020279074
0.47722635 0.10119618 0.020273475
0.4772543 0.10211514 0.020267874
0.47812521 0.10289234 0.020807151
0.47815311 0.10380971 0.020801561
0.4790239 0.10458214 0.021340871
0.47905174 0.10549791 0.021335291
0.47907957 0.10641368 0.02132971
0.47910741 0.10732947 0.02132413
0.47913525 0.10824525 0.021318549
0.47916308 0.10916102 0.021312969
0.47834828 0.1102313 0.020762429
0.47837618 0.11114866 0.020756839
0.47756153 0.11222372 0.020206276
0.47674701 0.11330196 0.019655688
0.47593251 0.11438338 0.019105053
0.47511816 0.115468 0.018554425
0.47430393 0.1165558 0.018003784
0.47348976 0.11764678 0.017453117
0.47267571 0.11874094 0.016902437
0.47186172 0.1198383 0.0163517
0.47188997 0.12076841 0.016346032
0.47107616 0.12187054 0.015795298
0.47110447 0.12280223 0.015789621
0.47113281 0.12373394 0.015783943
0.46947724 0.12501924 0.01468808
0.44163704 0.05271982 -0.0024979042
0.44420111 0.053546481 -0.00086716592
0.44507554 0.054471839 -0.00032755299
0.44679448 0.055338293 0.00075765909
0.44851327 0.056198373 0.0018429478
0.44938731 0.057110988 0.0023826326
0.45026127 0.05802042 0.0029223426
0.45197958 0.058864575 0.0040077283
0.45285326 0.059766043 0.004547481
0.45372689 0.060664322 0.0050872532
0.45460039 0.06155942 0.0056270505
0.45547381 0.062451333 0.0061668614
0.45550293 0.063410111 0.0061610187
0.45637625 0.064297237 0.0067008967
0.45640534 0.065254427 0.0066950638
0.45727846 0.066136785 0.0072349333
0.45730752 0.067092374 0.0072291102
0.45818049 0.067969948 0.0077690082
0.45820948 0.06892395 0.0077631949
0.45908234 0.069796748 0.0083031282
0.45911127 0.070749156 0.0082973242
0.459984 0.071617179 0.0088373125
0.46001291 0.072567992 0.0088315187
0.46004182 0.073518805 0.0088257249
0.46091428 0.074380457 0.0093657263
0.46178669 0.075238921 0.0099057406
0.46181551 0.076186553 0.0098999664
0.46268776 0.07704024 0.01044001
0.4635599 0.077890746 0.010980079
0.464432 0.078738056 0.011520194
0.46446067 0.079680905 0.011514449
0.46533257 0.080523446 0.01205456
0.4662044 0.081362799 0.012594697
0.46623296 0.082302466 0.012588971
0.46710461 0.083137043 0.013129132
0.46713313 0.084075116 0.013123415
0.4680047 0.084904909 0.013663642
0.46887612 0.085731521 0.014203851
0.46890455 0.086666413 0.014198154
0.46977583 0.087488249 0.014738392
0.47064701 0.088306896 0.015278655
0.47067535 0.089238599 0.015272978
0.47154638 0.090052471 0.015813265
0.47157466 0.090982586 0.015807597
0.47244561 0.091791667 0.01634795
0.4733164 0.092597581 0.016888285
0.47334456 0.093524501 0.016882636
0.47421521 0.094325632 0.017423
0.47424334 0.095250964 0.017417362
0.47511384 0.096047319 0.017957762
0.47514194 0.096971057 0.017952131
0.47601229 0.097762637 0.018492553
0.47604033 0.098684788 0.018486936
0.47691059 0.099471577 0.019027425
0.47693858 0.10039213 0.019021815
0.47780862 0.10117415 0.019562295
0.47783658 0.1020931 0.019556696
0.4778645 0.10301206 0.019551095
0.47873437 0.10378771 0.020091616
0.47876227 0.10470509 0.020086024
0.47963199 0.10547595 0.020626578
0.47965983 0.10639173 0.020620998
0.47968766 0.10730751 0.020615418
0.4797155 0.10822329 0.020609837
0.47974333 0.10913906 0.020604257
0.47892958 0.1102093 0.020052483
0.47895744 0.11112667 0.020046894
0.47814381 0.11220169 0.019495096
0.47817177 0.11312064 0.019489497
0.47735828 0.11420044 0.018937672
0.47654486 0.11528341 0.018385787
0.47489023 0.11653361 0.017287672
0.47407711 0.11762455 0.016735777
0.47326404 0.11871868 0.016183864
0.47245106 0.119816 0.015631894
0.4716382 0.12091649 0.015079942
0.47166651 0.1218482 0.015074264
0.47169483 0.12277989 0.015068586
0.47088218 0.12388676 0.014516589
0.46922868 0.12517358 0.013418256
0.44313428 0.05362799 -0.0027188074
0.44485152 0.05450248 -0.0016311451
0.44656846 0.055370603 -0.00054347038
0.4474417 0.056289628 -2.5910856e-06
0.44915837 0.057146598 0.0010851779
0.45003137 0.058057662 0.0016261115
0.45174766 0.058903489 0.0027139164
0.45262045 0.059806582 0.0032549247
0.45349309 0.060706496 0.0037959262
0.45436564 0.061603222 0.0043369415
0.4552381 0.062496766 0.0048779761
0.45611045 0.063387126 0.0054190299
0.45613959 0.064345896 0.0054131872
0.45701185 0.06523148 0.0059543084
0.45704094 0.066188663 0.0059484756
0.45791301 0.067069463 0.0064895875
0.45794204 0.068025053 0.0064837644
0.4579711 0.068980649 0.0064779413
0.45884296 0.069855079 0.0070190923
0.45887196 0.070809074 0.007013279
0.45974368 0.071678728 0.0075544594
0.45977265 0.072631136 0.0075486554
0.46064427 0.073496006 0.0080899028
0.46067315 0.074446827 0.0080841081
0.4615446 0.075306922 0.0086253472
0.46241593 0.076163828 0.0091666048
0.46244475 0.077111468 0.0091608297
0.46331593 0.077963598 0.0097021172
0.46418703 0.078812547 0.010243429
0.46505809 0.0796583 0.010784787
0.46508673 0.080601156 0.010779041
0.46595758 0.08144214 0.011320396
0.46682835 0.082279935 0.01186177
0.46685693 0.083219603 0.011856045
0.46772751 0.08405263 0.012397453
0.46775603 0.084990703 0.012391737
0.46862656 0.085818939 0.012933201
0.46949694 0.086643994 0.013474653
0.46952534 0.087578885 0.013468957
0.47039557 0.088399164 0.014010443
0.4712657 0.089216262 0.014551944
0.47129402 0.090147965 0.014546266
0.47216401 0.090960287 0.015087795
0.47219226 0.091890395 0.015082127
0.47306216 0.092697926 0.015623719
0.47393188 0.093502283 0.016165303
0.47396007 0.094429202 0.016159654
0.47482964 0.095228776 0.016701261
0.47485778 0.096154116 0.016695622
0.47488591 0.097079448 0.016689984
0.4757553 0.097872652 0.01723163
0.47662461 0.098662674 0.017773295
0.47665265 0.099584818 0.017767675
0.47752187 0.10037006 0.018309409
0.47754982 0.10129061 0.018303799
0.47841886 0.10207107 0.018845523
0.47844678 0.10299003 0.018839922
0.47847471 0.10390899 0.018834323
0.47934353 0.10468309 0.019376084
0.47937143 0.10560046 0.019370494
0.47939929 0.10651783 0.019364905
0.48026794 0.10728555 0.019906705
0.48029578 0.10820133 0.019901125
0.48032361 0.10911711 0.019895544
0.48035145 0.11003289 0.019889964
0.47953871 0.11110467 0.019336954
0.47872609 0.11217966 0.018783923
0.47875404 0.11309861 0.018778324
0.47794157 0.11417837 0.018225264
0.47712913 0.11526131 0.017672148
0.47631687 0.11634744 0.01711905
0.47550467 0.11743676 0.016565932
0.4738524 0.11869641 0.015465291
0.4730404 0.1197937 0.014912093
0.47306865 0.12072381 0.014906425
0.47225687 0.12182586 0.01435323
0.47228518 0.12275755 0.014347552
0.47147354 0.12386439 0.013794328
0.46982208 0.12515114 0.012693522
0.46649098 0.12680086 0.010497513
0.44462943 0.054533049 -0.0029372303
0.44634449 0.055402838 -0.0018470723
0.44721675 0.056323491 -0.0013049693
0.44893146 0.057182133 -0.00021473768
0.4498035 0.058094829 0.00032741373
0.45151782 0.058942322 0.0014176755
0.4523896 0.059847049 0.0019598755
0.45326132 0.060748592 0.0025021269
0.45413291 0.061646953 0.0030443657
0.45500439 0.062542126 0.0035866238
0.45587578 0.063434109 0.0041289073
0.45674708 0.064322911 0.0046712044
0.45677623 0.065281689 0.0046653617
0.45764744 0.066165715 0.0052077197
0.45767653 0.067122899 0.0052018869
0.45770562 0.068080083 0.005196054
0.45857659 0.068957739 0.005738419
0.45860562 0.069913328 0.0057325959
0.45947644 0.070786208 0.0062749898
0.45950544 0.07174021 0.0062691765
0.46037611 0.072608307 0.0068115997
0.46040505 0.073560715 0.0068057962
0.46127564 0.074424028 0.0073482804
0.46130455 0.075374842 0.0073424862
0.46217492 0.07623338 0.0078849681
0.46304518 0.077088743 0.0084274746
0.463074 0.078036375 0.0084216995
0.46394414 0.078886949 0.0089642294
0.46481416 0.079734348 0.0095067788
0.46568415 0.080578551 0.010049379
0.46571282 0.081521399 0.010043634
0.4665826 0.082360834 0.010586232
0.46745232 0.083197072 0.011128849
0.46748087 0.084136747 0.011123124
0.46835041 0.084968209 0.01166577
0.46921992 0.08579649 0.012208467
0.46924838 0.086732969 0.012202761
0.47011772 0.087556474 0.012745461
0.47014612 0.088491358 0.012739765
0.47101527 0.089310087 0.013282488
0.47188437 0.090125628 0.013825232
0.47191268 0.09105733 0.013819555
0.4727816 0.091868095 0.014362327
0.47280988 0.092798203 0.014356659
0.47367871 0.093604177 0.014899493
0.47454739 0.094406985 0.015442314
0.47457555 0.095333904 0.015436665
0.47544411 0.096131928 0.015979515
0.47547221 0.097057261 0.015973877
0.47550035 0.097982593 0.015968239
0.4763687 0.098774247 0.016511127
0.47723696 0.099562712 0.017054036
0.47726497 0.10048486 0.017048417
0.47813311 0.10126854 0.017591391
0.4781611 0.10218909 0.017585782
0.47902906 0.102968 0.018128749
0.47905698 0.10388696 0.018123148
0.47908491 0.10480592 0.018117549
0.47995269 0.10557847 0.018660555
0.47998056 0.10649583 0.018654965
0.48000845 0.1074132 0.018649373
0.48087603 0.10817938 0.019192418
0.48090386 0.10909515 0.019186838
0.4809317 0.11001093 0.019181257
0.48011997 0.11108268 0.018627014
0.47930837 0.11215762 0.01807275
0.47933632 0.11307658 0.018067149
0.47852483 0.1141563 0.017512858
0.47771344 0.1152392 0.016958507
0.47690216 0.1163253 0.016404176
0.476091 0.11741457 0.015849825
0.47444072 0.11867415 0.014746724
0.47362974 0.1197714 0.014192292
0.47281891 0.12087181 0.013637873
0.47284722 0.12180352 0.013632196
0.47287554 0.12273522 0.013626518
0.47206491 0.12384202 0.01307206
0.46957648 0.12530537 0.011419966
0.4662495 0.12695655 0.0092190197
0.44699383 0.056357283 -0.0026098085
0.44870654 0.057217594 -0.0015171577
0.44957763 0.058131918 -0.0009737506
0.45128998 0.05898108 0.00011896812
0.45216081 0.059887439 0.00066239166
0.45303154 0.060790613 0.0012058347
0.45390221 0.061690602 0.001749329
0.45477274 0.062587403 0.0022928107
0.45564318 0.063481025 0.0028363119
0.45651349 0.064371459 0.0033798327
0.4565427 0.065331832 0.0033739803
0.4574129 0.066217482 0.0039175302
0.45744202 0.06717626 0.0039116875
0.45831212 0.068057135 0.0044552987
0.45834121 0.069014326 0.0044494658
0.45921111 0.069890417 0.0049930736
0.45924017 0.070846014 0.0049872505
0.46010992 0.071717337 0.0055308873
0.46013892 0.072671339 0.005525074
0.46100852 0.073537879 0.00606874
0.46103749 0.074490286 0.0060629365
0.461907 0.07535205 0.006606664
0.46193588 0.076302856 0.0066008698
0.46280521 0.077159852 0.0071445941
0.46367443 0.078013651 0.0076883379
0.46454355 0.078864269 0.0082321018
0.46457231 0.079810306 0.0082263369
0.46544129 0.080656148 0.0087701287
0.46631023 0.081498794 0.0093139727
0.467179 0.082338266 0.0098578036
0.46720761 0.08327952 0.0098520676
0.46807626 0.084114216 0.010395928
0.46810484 0.085053883 0.010390203
0.46897331 0.085883796 0.010934091
0.46984178 0.086710513 0.011478033
0.46987024 0.087646991 0.011472326
0.4707385 0.088468947 0.012016264
0.4707669 0.08940383 0.012010567
0.47163501 0.090221003 0.012554534
0.47250304 0.091034994 0.01309852
0.47253135 0.091966696 0.013092843
0.47339922 0.092775904 0.013636858
0.47342747 0.093706019 0.01363119
0.47429526 0.094510436 0.014175267
0.47516289 0.095311686 0.014719332
0.47519106 0.096238606 0.014713683
0.47605854 0.097035073 0.015257776
0.47608668 0.097960413 0.015252138
0.47695398 0.098752104 0.015796259
0.47698209 0.099675834 0.01579063
0.47784927 0.10046275 0.016334781
0.47787729 0.10138489 0.016329164
0.47874439 0.10216703 0.016873375
0.47877237 0.10308758 0.016867766
0.47963926 0.10386493 0.017411975
0.47966719 0.10478389 0.017406376
0.47969514 0.10570285 0.017400775
0.48056182 0.10647384 0.017945023
0.48058972 0.10739121 0.017939433
0.48061761 0.10830858 0.017933844
0.48064548 0.10922594 0.017928254
0.48151195 0.10998897 0.01847255
0.48070127 0.11106069 0.017917072
0.48072913 0.11197806 0.017911483
0.4799186 0.11305454 0.017355977
0.47910812 0.11413422 0.01680045
0.47829774 0.11521709 0.016244873
0.47748747 0.11630315 0.015689308
0.4766773 0.11739239 0.015133725
0.47586724 0.1184848 0.014578121
0.47421908 0.1197491 0.013472491
0.47340924 0.12084948 0.012916839
0.47343758 0.12178119 0.012911161
0.47346589 0.12271288 0.012905484
0.47265625 0.12381963 0.012349793
0.46933296 0.12545952 0.010143981
0.46601006 0.12711214 0.0079380916
0.44848365 0.057252977 -0.0028220066
0.44935375 0.058168933 -0.0022774078
0.45106417 0.059019759 -0.001182206
0.45193404 0.059927754 -0.00063755875
0.45280379 0.060832556 -9.2892195e-05
0.45367345 0.061734177 0.00045179378
0.45454308 0.062632605 0.00099653122
0.45541257 0.06352786 0.001541256
0.45628193 0.064419925 0.0020860003
0.4571512 0.065308802 0.0026307581
0.45718041 0.066269174 0.0026249059
0.45804954 0.067153275 0.0031696986
0.45807868 0.068112053 0.003163856
0.45894772 0.06899137 0.00370871
0.45897681 0.069948554 0.0037028771
0.45984566 0.070823103 0.0042477283
0.45987469 0.071778692 0.0042419052
0.4607434 0.072648466 0.0047867852
0.4607724 0.07360246 0.0047809714
0.46164095 0.07446745 0.0053258808
0.46166989 0.075419858 0.0053200773
0.46253836 0.076280065 0.0058650477
0.46256724 0.077230878 0.0058592535
0.4634355 0.078086317 0.006404215
0.46430367 0.078938559 0.0069492022
0.46517175 0.079787627 0.0074942084
0.46520051 0.080733664 0.0074884435
0.46606842 0.081577942 0.0080334786
0.46693629 0.082419038 0.0085785659
0.46780401 0.083256952 0.0091236401
0.46783262 0.084198214 0.0091179041
0.46870023 0.085031353 0.0096630016
0.46872878 0.08597102 0.0096572749
0.46959624 0.086799376 0.010202408
0.4704636 0.087624542 0.010747592
0.47049209 0.088561021 0.010741885
0.47135928 0.089381419 0.011287066
0.47138768 0.090316303 0.011281369
0.47225475 0.091131926 0.011826579
0.4731217 0.091944359 0.012371808
0.47315001 0.092876062 0.012366131
0.47401685 0.09368372 0.012911384
0.4740451 0.094613828 0.012905716
0.47491181 0.095416695 0.013451036
0.47577837 0.096216381 0.013996343
0.47580656 0.097143307 0.013990695
0.47667298 0.097938225 0.014536031
0.47670111 0.098863557 0.014530392
0.47756737 0.099653691 0.015075757
0.47759545 0.10057743 0.015070128
0.47846159 0.10136279 0.01561552
0.47848961 0.10228493 0.0156099
0.47935566 0.10306551 0.016155357
0.47938365 0.10398606 0.016149746
0.48024946 0.10476186 0.0166952
0.48027742 0.10568082 0.016689599
0.48030534 0.10659979 0.016683999
0.48117098 0.10736921 0.017229492
0.48119888 0.10828659 0.0172239
0.48122674 0.10920395 0.01721831
0.48125464 0.11012132 0.017212721
0.48128253 0.11103869 0.017207131
0.4813104 0.11195607 0.017201539
0.48050088 0.11303251 0.0166448
0.4805288 0.11395148 0.016639201
0.4797194 0.11503271 0.016082432
0.47807276 0.116281 0.014974435
0.47726363 0.1173702 0.014417618
0.47645456 0.11846258 0.013860781
0.4756456 0.11955815 0.013303924
0.47483668 0.12065691 0.012747017
0.47402793 0.12175885 0.012190127
0.47321925 0.12286396 0.011633213
0.47241068 0.12397228 0.011076279
0.46992838 0.12543699 0.0094167804
0.46660951 0.12708946 0.0072059636
0.46161744 0.12911426 0.0038925176
0.45084038 0.059058368 -0.0024858408
0.4517093 0.059967987 -0.0019399701
0.4525781 0.060874425 -0.0013940857
0.45344681 0.061777677 -0.00084817607
0.45431539 0.062677741 -0.00030224709
0.45518395 0.06357462 0.00024373336
0.45605239 0.064468317 0.00078969542
0.45692068 0.065358825 0.0013356827
0.45694995 0.066320784 0.0013298207
0.45781812 0.067206517 0.0018758371
0.4578473 0.068166889 0.0018699848
0.45871532 0.069047846 0.0024160245
0.45874447 0.070006624 0.002410182
0.4596124 0.07088279 0.0029562886
0.46048018 0.071755782 0.0035023827
0.46050924 0.072711378 0.0034965596
0.46137688 0.073579587 0.0040426827
0.46140587 0.074533589 0.0040368694
0.46227336 0.075397022 0.0045830156
0.46314082 0.076257266 0.0051292195
0.46316972 0.077208087 0.0051234253
0.46403697 0.078063563 0.0056696259
0.46406582 0.079012781 0.0056638415
0.46493292 0.079863474 0.0062100715
0.46579993 0.080710977 0.006756315
0.46666685 0.081555299 0.0073025837
0.46669555 0.082499743 0.0072968286
0.46756238 0.083339289 0.0078431582
0.46842906 0.084175654 0.0083894702
0.46845767 0.085116908 0.0083837342
0.46932417 0.08594849 0.0089300806
0.46935275 0.086888157 0.0089243548
0.47021914 0.087714955 0.0094707301
0.47108546 0.088538572 0.010017154
0.47111392 0.089475051 0.010011448
0.47198007 0.090293892 0.010557871
0.47200847 0.091228783 0.010552174
0.47287446 0.092042841 0.011098624
0.47374037 0.092853725 0.011645094
0.47376868 0.093785428 0.011639416
0.47463444 0.094591528 0.012185918
0.47466272 0.095521636 0.01218025
0.47552836 0.096322946 0.01272681
0.47639388 0.097121082 0.01327336
0.47642204 0.098048009 0.013267712
0.47728741 0.098841377 0.013814288
0.47731555 0.099766701 0.013808649
0.47818077 0.10055529 0.014355255
0.47820884 0.10147902 0.014349625
0.47907391 0.10226282 0.014896263
0.47910196 0.10318498 0.014890644
0.47996694 0.10396399 0.015437339
0.47999489 0.10488454 0.01543173
0.4808597 0.10565879 0.015978426
0.48088762 0.10657775 0.015972827
0.48091555 0.10749671 0.015967226
0.48178014 0.1082646 0.016513959
0.48180804 0.10918196 0.016508367
0.4818359 0.11009933 0.016502777
0.4818638 0.1110167 0.016497187
0.48189169 0.11193407 0.016491598
0.48108315 0.11301048 0.015933627
0.48111108 0.11392945 0.015928026
0.48030269 0.11501063 0.015370024
0.47949436 0.11609503 0.014811974
0.47784993 0.11734802 0.013701513
0.47704187 0.11844036 0.013143446
0.47623393 0.11953589 0.012585357
0.47542602 0.12063461 0.012027219
0.47461829 0.12173651 0.01146909
0.47381061 0.12284159 0.010910945
0.47300306 0.12394986 0.010352781
0.46968788 0.12559104 0.0081370957
0.46637309 0.12724493 0.0059213419
0.46138713 0.1292711 0.0026004862
0.45319265 0.060851172 -0.0021446964
0.45322213 0.061821096 -0.0021506068
0.45408979 0.062722795 -0.0016034599
0.45495734 0.063621305 -0.0010562879
0.45582485 0.064516626 -0.00050906447
0.45669219 0.065408766 3.8140588e-05
0.45672148 0.06637232 3.2268948e-05
0.4575887 0.067259684 0.00057950889
0.45761794 0.068221651 0.00057364698
0.45848501 0.069104232 0.0011209103
0.45935199 0.069983631 0.0016681987
0.4593811 0.070942417 0.0016623562
0.46024799 0.071817033 0.0022097002
0.4611147 0.072688468 0.0027570371
0.46114376 0.073644057 0.002751214
0.46201035 0.074510716 0.0032985744
0.46203935 0.075464718 0.003292761
0.46290579 0.076326601 0.0038401561
0.46377218 0.077185288 0.0043875999
0.46380109 0.078136101 0.0043818061
0.46466726 0.07899002 0.0049292496
0.46553338 0.079840757 0.0054767099
0.46556216 0.080788381 0.0054709353
0.46642813 0.081634335 0.0060184249
0.46729398 0.0824771 0.0065659336
0.46732268 0.083421543 0.0065601785
0.46818843 0.084259532 0.0071077487
0.46905407 0.08509434 0.0076553058
0.46908268 0.086035602 0.0076495702
0.46994814 0.086865626 0.0081971567
0.46997669 0.087805294 0.00819143
0.47084203 0.088630542 0.0087390486
0.47170731 0.089452602 0.0092867156
0.47173578 0.09038908 0.0092810094
0.47260085 0.091206372 0.0098286737
0.47262925 0.092141256 0.0098229768
0.4734942 0.092953764 0.01037067
0.47435904 0.093763083 0.010918383
0.47438735 0.094694786 0.010912704
0.47525206 0.095499337 0.011460447
0.47528031 0.096429445 0.011454779
0.47614491 0.097229198 0.012002585
0.47700939 0.098025791 0.012550374
0.47703755 0.098952718 0.012544726
0.47790185 0.099744514 0.013092546
0.47792998 0.10066985 0.013086907
0.47879416 0.10145688 0.013634755
0.47882223 0.10238061 0.013629126
0.47968623 0.10316286 0.014177004
0.47971427 0.10408501 0.014171384
0.48057818 0.10486247 0.014719323
0.48060617 0.10578303 0.014713714
0.4814699 0.10655572 0.015261653
0.48149782 0.10747468 0.015256053
0.48152575 0.10839365 0.015250453
0.4823893 0.10915996 0.015798427
0.48241717 0.11007734 0.015792837
0.48244506 0.1109947 0.015787248
0.48247296 0.11191208 0.015781658
0.48166543 0.11298845 0.015222454
0.48169336 0.11390741 0.015216853
0.48088598 0.11498857 0.014657618
0.48007864 0.11607292 0.014098334
0.47927147 0.11716045 0.013539062
0.47846437 0.11825116 0.012979771
0.47682226 0.11951363 0.011866789
0.47601536 0.12061231 0.011307415
0.47520861 0.12171417 0.010748056
0.47523695 0.12264587 0.010742378
0.47359541 0.12392745 0.0096292803
0.47028428 0.12556846 0.0074086674
0.4653039 0.12757845 0.0040805177
0.46115881 0.12942788 0.0013059619
0.45473278 0.063667908 -0.0023587439
0.45559928 0.064564869 -0.0018103288
0.45646572 0.06545864 -0.0012618653
0.45649505 0.066423781 -0.0012677466
0.45736131 0.067312777 -0.00071928877
0.45739061 0.068276331 -0.00072516041
0.45825669 0.069160551 -0.0001766706
0.45912272 0.070041582 0.00037183863
0.45998862 0.070919424 0.00092036725
0.46001777 0.071878202 0.00091452472
0.46088359 0.072751269 0.0014631145
0.46174926 0.073621146 0.0020116917
0.46177828 0.074576743 0.0020058686
0.46264383 0.075441845 0.0025544749
0.46350926 0.076303765 0.0031030977
0.4635382 0.077256173 0.0030972939
0.46440354 0.07811331 0.0036459835
0.46443242 0.079064123 0.0036401895
0.46529758 0.079916485 0.0041888705
0.46616262 0.080765665 0.0047375737
0.46619141 0.081713289 0.0047317995
0.4670563 0.082557693 0.0052805319
0.46792111 0.083398901 0.0058292835
0.46794981 0.084343351 0.0058235284
0.46881452 0.085179783 0.0063723414
0.46967909 0.086013034 0.0069211419
0.4697077 0.086954288 0.0069154059
0.47057208 0.087782763 0.0074642356
0.47060066 0.08872243 0.0074585094
0.47146493 0.089546122 0.0080073681
0.47232914 0.090366624 0.0085562784
0.4723576 0.09130311 0.0085505713
0.47322163 0.092118844 0.009099476
0.47325006 0.093053728 0.0090937791
0.47411394 0.093864687 0.0096427146
0.4749777 0.094672449 0.010191671
0.47500604 0.095604151 0.010185993
0.47586966 0.096407145 0.010734978
0.47673327 0.097206943 0.011284014
0.47676149 0.098135464 0.011278355
0.47762486 0.098930493 0.011827389
0.47848818 0.099722333 0.012376442
0.47851631 0.10064767 0.012370803
0.47854441 0.101573 0.012365164
0.47940752 0.10235847 0.012914256
0.47943559 0.10328221 0.012908627
0.48029858 0.1040629 0.013457744
0.48032659 0.10498505 0.013452126
0.48118946 0.10576095 0.01400131
0.48121744 0.10668151 0.013995701
0.4820801 0.10745265 0.014544876
0.48210803 0.10837162 0.014539276
0.48213598 0.10929058 0.014533676
0.48299846 0.11005534 0.015082894
0.48302633 0.11097271 0.015077304
0.48305422 0.11189009 0.015071714
0.48224771 0.11296642 0.014511277
0.48227564 0.11388538 0.014505677
0.48230356 0.11480433 0.014500077
0.48066294 0.11605081 0.013384693
0.47985676 0.11713831 0.012824192
0.4790507 0.11822898 0.012263668
0.47824469 0.11932284 0.011703123
0.4766047 0.12059001 0.010587614
0.47579896 0.12169184 0.010027022
0.47499332 0.12279684 0.0094664106
0.47502169 0.12373013 0.009460723
0.47088069 0.1255459 0.0066802395
0.46674016 0.12737758 0.0038996558
0.46260014 0.12922519 0.0011189778
0.45624122 0.065508433 -0.0025643755
0.45627061 0.066475175 -0.0025702666
0.45713595 0.067365795 -0.0020205502
0.45800114 0.068253227 -0.0014708465
0.45803043 0.069216788 -0.0014767181
0.45889547 0.070099451 -0.00092698814
0.45976043 0.070978925 -0.00037723593
0.46062526 0.071855217 0.00017253285
