# .PCD v0.7 - Point Cloud Data file format
VERSION 0.7
FIELDS x y z
SIZE 4 4 4
TYPE F F F
COUNT 1 1 1
WIDTH 1419
HEIGHT 1
VIEWPOINT 0 0 0 1 0 0 0
POINTS 1419
DATA ascii
0.50394326 0.13646819 0.05661748
0.5031082 0.13753605 0.05609161
0.50313407 0.13838811 0.056086417
0.50316 0.13924019 0.056081224
0.50232512 0.1403144 0.055555321
0.47995961 0.099385992 0.042128954
0.48084906 0.10013857 0.042644992
0.48173833 0.10088797 0.043161016
0.48348966 0.10149011 0.044198532
0.48524082 0.10208588 0.045236118
0.4878538 0.10252801 0.046795208
0.49046651 0.10296059 0.04835438
0.49307895 0.1033836 0.049913611
0.49569103 0.10379708 0.051472869
0.49744105 0.10435461 0.05251069
0.49919081 0.10490579 0.053548519
0.50094044 0.10545059 0.054586418
0.50182813 0.10614744 0.055102762
0.50185406 0.10700109 0.055097561
0.50188005 0.10785475 0.055092361
0.5027675 0.10854523 0.055608746
0.5036549 0.10923252 0.056125149
0.50454223 0.10991663 0.056641571
0.50629085 0.11042957 0.057679664
0.50717795 0.11110571 0.058196142
0.50806493 0.11177866 0.058712631
0.50981307 0.11227569 0.059750821
0.51069981 0.11294067 0.060267359
0.51158643 0.11360249 0.060783919
0.51247293 0.11426111 0.061300498
0.51335943 0.11491653 0.061817128
0.51338476 0.11574949 0.061812054
0.51341009 0.11658245 0.061806977
0.51343536 0.11741541 0.061801903
0.5134607 0.11824836 0.061796825
0.51262516 0.11926841 0.061269984
0.51265049 0.12010296 0.061264899
0.51267588 0.12093751 0.061259814
0.51184058 0.12196392 0.060732968
0.51186597 0.12280007 0.060727872
0.51103079 0.12383125 0.060200997
0.51019573 0.12486561 0.059674099
0.51022124 0.12570494 0.059668984
0.50938636 0.12674409 0.059142061
0.50941187 0.12758501 0.059136938
0.50857705 0.12862895 0.058609951
0.5077424 0.12967606 0.058082979
0.50690782 0.13072635 0.057555981
0.50693351 0.13157205 0.057550825
0.50609905 0.13262713 0.057023805
0.5052647 0.1336854 0.056496732
0.50529051 0.13453428 0.056491558
0.50445628 0.13559733 0.055964489
0.50362217 0.13666354 0.055437397
0.5036481 0.13751562 0.055432208
0.50281411 0.13858661 0.054905087
0.5028401 0.13944028 0.054899886
0.50200629 0.14051606 0.054372739
0.50203228 0.14137131 0.054367527
0.48399782 0.099694632 0.04352282
0.48574716 0.10029683 0.044562835
0.4936035 0.10249317 0.049245942
0.49535179 0.10306194 0.050286125
0.49709988 0.10362434 0.051326353
0.49884781 0.10418037 0.052366648
0.49973476 0.10488521 0.052884176
0.50062156 0.10558687 0.053401727
0.50150836 0.10628534 0.05391933
0.50239497 0.10698062 0.054436918
0.5024209 0.10783429 0.054431718
0.5033074 0.1085248 0.054949336
0.50419378 0.10921213 0.055466972
0.5050801 0.10989628 0.055984631
0.50596637 0.11057722 0.056502338
0.50771278 0.11108547 0.057542894
0.50859874 0.11175846 0.058060616
0.51034492 0.11225557 0.059101265
0.51123059 0.11292058 0.059619039
0.51211619 0.11358244 0.060136832
0.51300174 0.1142411 0.060654644
0.51302713 0.11507565 0.060649559
0.51305246 0.1159102 0.060644474
0.51307786 0.11674474 0.060639389
0.51310319 0.1175793 0.060634304
0.51312858 0.11841385 0.060629219
0.51315391 0.11924841 0.06062413
0.51231956 0.12027159 0.06009607
0.51234496 0.12110773 0.060090974
0.51151073 0.12213569 0.059562884
0.51153618 0.12297342 0.059557781
0.51070207 0.12400617 0.059029661
0.51072758 0.12484549 0.059024546
0.5098936 0.12588301 0.058496397
0.50905967 0.12692373 0.057968203
0.5090853 0.12776624 0.05796307
0.50825161 0.12881172 0.057434876
0.50741798 0.12986039 0.056906659
0.50744367 0.13070609 0.056901503
0.50661021 0.13175952 0.056373257
0.50577676 0.13281617 0.055844963
0.50580257 0.13366506 0.055839788
0.5049693 0.13472645 0.055311494
0.5041362 0.13579105 0.05478318
0.50416207 0.13664311 0.054777991
0.5033291 0.13771249 0.054249648
0.50249618 0.13878503 0.053721286
0.50252217 0.1396403 0.053716075
0.50168937 0.14071764 0.05318765
0.50171542 0.14157449 0.053182431
0.49587443 0.10217476 0.049620904
0.4967607 0.1028908 0.050139599
0.49850675 0.10345168 0.051182326
0.49939278 0.10415974 0.051701073
0.50027871 0.10486463 0.052219838
0.5011645 0.10556632 0.052738618
0.50205028 0.10626484 0.053257454
0.50207627 0.10712009 0.053252243
0.50210226 0.10797535 0.053247031
0.5038473 0.10850437 0.054289922
0.50473267 0.10919175 0.054808792
0.50561798 0.10987592 0.05532768
0.50650322 0.11055691 0.055846624
0.50824761 0.11106524 0.056889646
0.50913256 0.11173826 0.057408597
0.51001745 0.1124081 0.057927608
0.51176143 0.1129005 0.058970723
0.51264602 0.11356239 0.059489749
0.51353055 0.11422109 0.06000879
0.51355588 0.11505564 0.060003705
0.51358128 0.1158902 0.05999862
0.51360661 0.11672474 0.059993535
0.513632 0.11755929 0.05998845
0.51279849 0.11857925 0.05945918
0.51282394 0.11941539 0.059454083
0.51284933 0.12025154 0.059448991
0.51201606 0.12127786 0.058919676
0.51204151 0.1221156 0.058914572
0.51120836 0.12314671 0.058385227
0.51037532 0.12418101 0.057855867
0.51040089 0.12502192 0.057850741
0.50956792 0.12606101 0.057321317
0.50959355 0.12690352 0.057316184
0.50876075 0.12794738 0.056786768
0.50792813 0.12899441 0.05625733
0.50795382 0.12984011 0.056252178
0.50712132 0.13089192 0.055722706
0.50628883 0.13194692 0.055193186
0.50631464 0.13279581 0.055188015
0.50548238 0.13385558 0.054658495
0.50465018 0.13491856 0.05412896
0.50381809 0.1359847 0.05359941
0.50384402 0.13683836 0.053594209
0.50301212 0.13790928 0.053064622
0.50303811 0.13876453 0.05305941
0.50220627 0.13984025 0.052529763
0.50137454 0.14091913 0.052000131
0.50140065 0.14177758 0.051994897
0.49553806 0.10143474 0.048430499
0.49728236 0.10200524 0.049475607
0.49816757 0.10271973 0.049995542
0.4990527 0.10343102 0.050515529
0.49993771 0.10413913 0.051035509
0.5008226 0.10484405 0.051555499
0.50170743 0.10554578 0.052075516
0.50259215 0.10624433 0.052595586
0.50261819 0.10709959 0.052590374
0.50350273 0.10779335 0.053110432
0.5043872 0.10848395 0.053630516
0.50527155 0.10917135 0.054150622
0.50615585 0.10985557 0.054670744
0.50789845 0.11036874 0.055716231
0.50878251 0.111045 0.056236401
0.50966644 0.11171807 0.05675659
0.51055032 0.11238794 0.05727683
0.51229221 0.11288042 0.058322411
0.51317585 0.11354235 0.05884267
0.51320124 0.11437849 0.058837574
0.51322663 0.11521463 0.058832478
0.51325208 0.11605078 0.058827385
0.51327747 0.11688691 0.058822289
0.51330292 0.11772306 0.058817193
0.51332831 0.1185592 0.058812097
0.51249593 0.11958231 0.058281571
0.51252139 0.12042005 0.058276467
0.51168919 0.12144794 0.057745915
0.5117147 0.12228727 0.0577408
0.51088262 0.12331992 0.057210214
0.51090813 0.12416085 0.057205088
0.51007617 0.12519829 0.056674443
0.50924432 0.12623891 0.056143817
0.50926995 0.12708302 0.056138672
0.50843829 0.12812842 0.055608008
0.50846398 0.12897412 0.055602856
0.50763243 0.13002431 0.055072162
0.50680089 0.13107769 0.054541424
0.5068267 0.13192657 0.054536249
0.50599539 0.13298473 0.054005511
0.50516415 0.13404605 0.05347475
0.50433308 0.13511057 0.052943971
0.50350201 0.13617827 0.052413177
0.503528 0.13703352 0.052407965
0.50269711 0.13810602 0.051877104
0.50186634 0.13918167 0.051346257
0.50189239 0.14004011 0.051341023
0.5010618 0.14112055 0.050810155
0.5010879 0.14198059 0.050804913
0.50111407 0.14284062 0.050799672
0.49866205 0.1009726 0.049338024
0.49954629 0.1016871 0.049859229
0.50043035 0.10239844 0.050380416
0.50045651 0.10325848 0.050375175
0.50134045 0.10396503 0.050896395
0.50222427 0.10466839 0.05141763
0.50310808 0.10536857 0.051938921
0.50313407 0.10622383 0.05193371
0.50316006 0.10707907 0.051928498
0.50404364 0.10777289 0.052449793
0.5049271 0.10846352 0.05297111
0.50581044 0.10915096 0.053492442
0.50755119 0.10966899 0.054540362
0.5084343 0.11034846 0.05506175
0.50931734 0.11102476 0.055583153
0.51020026 0.11169787 0.056104574
0.51108313 0.11236778 0.056626052
0.51282305 0.11286033 0.057674095
0.5128485 0.11369807 0.057668991
0.51373106 0.11435844 0.058190487
0.51375645 0.11519458 0.058185391
0.51378191 0.11603073 0.058180299
0.5138073 0.11686686 0.058175202
0.51297581 0.11788675 0.057643466
0.51300126 0.11872449 0.057638362
0.51216996 0.11974915 0.057106592
0.51219547 0.12058847 0.057101477
0.51136428 0.12161792 0.056569681
0.51138985 0.12245884 0.056564558
0.51055878 0.12349307 0.056032699
0.51058441 0.12433559 0.056027561
0.50975353 0.12537457 0.055495709
0.50977916 0.12621868 0.055490568
0.50894845 0.12726246 0.054958679
0.50811779 0.12830941 0.054426774
0.50814354 0.12915671 0.054421611
0.50731295 0.13020845 0.053889647
0.5064826 0.13126338 0.053357694
0.50650841 0.13211384 0.053352512
0.50567818 0.13317356 0.052820534
0.504848 0.13423644 0.052288529
0.50401795 0.1353025 0.051756512
0.50404394 0.13615777 0.051751301
0.503214 0.13722862 0.051219217
0.50238413 0.13830265 0.050687149
0.50241023 0.1391611 0.050681919
0.50243634 0.14001954 0.050676689
0.5016067 0.14109993 0.050144579
0.50077718 0.14218353 0.049612455
0.50080335 0.14304514 0.049607202
0.49997392 0.14413354 0.049075015
0.50003982 0.099943198 0.049202926
0.50092304 0.10065775 0.049725331
0.50094914 0.10151778 0.04972009
0.50183219 0.10222756 0.050242521
0.50185829 0.10308601 0.050237291
0.50274116 0.103791 0.050759748
0.50276721 0.10464785 0.050754525
0.50365001 0.10534807 0.051277053
0.503676 0.10620332 0.051271841
0.50455862 0.10689876 0.051794358
0.50544107 0.10759103 0.052316897
0.50632352 0.10828009 0.052839454
0.50720578 0.10896598 0.053362027
0.50808805 0.10964868 0.053884659
0.50897014 0.11032819 0.054407272
0.51070851 0.11083516 0.0554577
0.51159042 0.11150669 0.055980392
0.51247215 0.11217507 0.05650308
0.51335382 0.11284024 0.057025783
0.51337934 0.11367799 0.057020675
0.51340479 0.11451573 0.057015572
0.51343024 0.11535346 0.057010464
0.51345569 0.1161912 0.057005361
0.51348114 0.11702893 0.057000257
0.51350665 0.11786667 0.05699515
0.5126763 0.1188897 0.056462161
0.51270181 0.11972903 0.05645705
0.51187158 0.12075683 0.055924024
0.51189715 0.12159776 0.055918902
0.51106703 0.12263035 0.055385821
0.51023704 0.12366612 0.054852758
0.51026267 0.12451023 0.054847613
0.50943285 0.12555078 0.054314513
0.50945854 0.12639648 0.054309357
0.5086289 0.12744181 0.053776234
0.50865465 0.1282891 0.053771071
0.50782508 0.12933922 0.053237878
0.50699562 0.13039251 0.052704707
0.50702149 0.13124299 0.052699525
0.50619215 0.13230105 0.05216632
0.50536299 0.13336231 0.051633094
0.50453389 0.13442674 0.051099855
0.50455987 0.13528199 0.051094644
0.50373083 0.13635123 0.050561335
0.50290197 0.13742363 0.050028045
0.50292808 0.13828208 0.050022814
0.50209934 0.13935925 0.049489494
0.50127077 0.14043961 0.048956152
0.50129694 0.14130123 0.048950903
0.50046843 0.14238641 0.048417505
0.50049466 0.14324962 0.048412245
0.50052088 0.14411284 0.048406981
0.49969262 0.14520435 0.047873572
0.50232393 0.1004901 0.049588639
0.50235003 0.10134853 0.049583409
0.503232 0.10205676 0.050107088
0.50325805 0.10291361 0.050101865
0.5032841 0.10377046 0.050096646
0.50416595 0.10447231 0.050620388
0.50419194 0.10532755 0.050615177
0.50507355 0.10602464 0.051138915
0.5059551 0.10671852 0.051662676
0.50598097 0.1075706 0.051657483
0.5068624 0.1082597 0.052181277
0.50859916 0.10878107 0.053234108
0.5094803 0.10946222 0.053757947
0.51036137 0.11014017 0.054281808
0.51124233 0.11081496 0.054805685
0.51212323 0.11148653 0.055329613
0.513004 0.11215495 0.055853531
0.51302952 0.11299427 0.055848416
0.51391011 0.1136579 0.056372363
0.51393557 0.11449564 0.056367256
0.51396108 0.11533337 0.056362152
0.51398653 0.11617111 0.056357045
0.51315707 0.11719092 0.055822846
0.51318258 0.11803025 0.055817731
0.51320809 0.11886957 0.055812616
0.51237881 0.11989575 0.055278368
0.51154965 0.12092512 0.054744076
0.51157522 0.12176764 0.054738943
0.51074624 0.12280178 0.05420465
0.51077187 0.12364588 0.054199509
0.50994301 0.1246848 0.053665183
0.50911427 0.12572691 0.053130846
0.50914001 0.1265742 0.053125683
0.50831133 0.1276211 0.052591283
0.50833714 0.12846997 0.052586108
0.50750864 0.12952164 0.052051712
0.50668025 0.13057648 0.051517293
0.50670618 0.13142855 0.0515121
0.50587791 0.13248818 0.050977655
0.50504977 0.13355099 0.050443191
0.50507575 0.13440624 0.050437979
0.50424773 0.13547383 0.049903452
0.50341982 0.13654462 0.049368933
0.50344592 0.13740306 0.049363703
0.50261819 0.13847861 0.048829161
0.50179052 0.13955733 0.0482946
0.50181669 0.14041896 0.048289351
0.50098914 0.14150248 0.04775472
0.50101537 0.14236571 0.04774946
0.50018799 0.14345399 0.047214843
0.50021428 0.1443188 0.047209572
0.50024056 0.14518362 0.047204301
0.4994134 0.14627828 0.046669643
0.50289398 0.10132796 0.048919078
0.50377494 0.10203622 0.049443986
0.50380099 0.10289307 0.049438763
0.50382704 0.10374992 0.049433541
0.50470781 0.10445181 0.04995852
0.50558853 0.10515051 0.050483484
0.50561446 0.10600417 0.05047828
0.506495 0.10669809 0.051003274
0.50737542 0.10738884 0.051528286
0.50825572 0.10807639 0.052053317
0.50913602 0.10876075 0.052578401
0.51001614 0.10944194 0.053103477
0.51089621 0.11011994 0.053628568
0.51177615 0.11079476 0.054153677
0.51265609 0.11146637 0.054678835
0.5135358 0.11213482 0.055203985
0.51356131 0.11297414 0.055198871
0.51358682 0.11381347 0.055193756
0.5144664 0.11447556 0.055718943
0.51363784 0.11549214 0.055183526
0.51366335 0.11633147 0.055178411
0.51368886 0.1171708 0.055173296
0.51286054 0.11819375 0.054637842
0.51288611 0.11903466 0.054632716
0.51205784 0.12006241 0.054097202
0.51208347 0.12090492 0.054092068
0.51125538 0.12193743 0.053556554
0.51042747 0.12297314 0.053021021
0.51045316 0.12381883 0.053015869
0.50962538 0.1248593 0.052480299
0.50965112 0.1257066 0.052475136
0.50882339 0.12675186 0.051939514
0.50799584 0.12780029 0.051403902
0.50802165 0.12865077 0.051398721
0.50719428 0.12970398 0.05086308
0.50722015 0.13055605 0.05085789
0.5063929 0.13161404 0.05032222
0.5055657 0.13267522 0.049786534
0.50559169 0.13353048 0.049781322
0.50476462 0.13459644 0.049245574
0.50393766 0.13566558 0.048709836
0.50396377 0.13652404 0.048704606
0.50313699 0.13759795 0.048168834
0.50231028 0.13867505 0.047633048
0.50148362 0.13975535 0.04709721
0.50150985 0.14061858 0.04709195
0.50068337 0.14170364 0.046556119
0.50070971 0.14256845 0.046550848
0.500736 0.14343326 0.046545576
0.50076228 0.14429808 0.046540309
0.50078857 0.14516288 0.046535037
0.49996239 0.1462575 0.045999147
0.4999887 0.14712392 0.045993868
0.50429177 0.10115883 0.048786096
0.50431782 0.10201567 0.048780877
0.50519776 0.10272079 0.049307067
0.50522375 0.10357604 0.049301855
0.50524974 0.10443129 0.049296644
0.50612938 0.10513004 0.049822841
0.50700897 0.1058256 0.050349057
0.50788844 0.10651796 0.050875291
0.5079143 0.10736845 0.050870109
0.50879359 0.10805604 0.051396374
0.5105263 0.10857597 0.052454147
0.51140541 0.1092556 0.05298046
0.5122844 0.10993204 0.053506795
0.51231003 0.11077456 0.053501662
0.5131889 0.11144621 0.054028057
0.51321447 0.11228713 0.054022931
0.51409316 0.11295402 0.054549322
0.51411867 0.11379335 0.054544207
0.51414418 0.11463269 0.054539092
0.51416969 0.11547201 0.054533977
0.51334226 0.11649174 0.053997308
0.51336783 0.11733267 0.053992186
0.5133934 0.11817359 0.05398706
0.51256609 0.11919969 0.05345032
0.51259172 0.12004221 0.053445186
0.51176459 0.12107309 0.05290845
0.51093763 0.12210716 0.052371692
0.51096332 0.12295286 0.05236654
0.51013649 0.12399169 0.051829755
0.50930965 0.12503374 0.051292919
0.50933546 0.12588263 0.051287744
0.50850886 0.12692943 0.050750911
0.50853473 0.1277799 0.050745729
0.50770825 0.12883149 0.050208867
0.50688189 0.12988625 0.049671981
0.50690782 0.13073991 0.049666781
0.50608158 0.13179946 0.04912987
0.50525546 0.13286221 0.048592906
0.50528151 0.13371906 0.048587684
0.50445551 0.13478656 0.048050724
0.50362962 0.13585725 0.047513746
0.50365573 0.13671729 0.047508504
0.50283003 0.13779277 0.046971496
0.50200433 0.13887143 0.046434436
0.50203055 0.13973466 0.046429176
0.50120509 0.14081809 0.045892119
0.50123137 0.14168291 0.045886848
0.50040603 0.14277111 0.045349762
0.50043237 0.14363751 0.045344483
0.50045866 0.14450392 0.045339204
0.500485 0.14537033 0.045333922
0.49965993 0.14646651 0.044796787
0.4996863 0.1473345 0.044791497
0.50483471 0.10113829 0.048122987
0.50486076 0.10199513 0.048117768
0.50573969 0.10270029 0.048645191
0.50576568 0.10355553 0.048639979
0.50664437 0.10425591 0.049167398
0.507523 0.1049531 0.049694836
0.50754887 0.10580517 0.049689643
0.50842732 0.10649757 0.050217111
0.50930572 0.1071868 0.050744601
0.51018399 0.10787283 0.051272139
0.5110622 0.10855569 0.051799666
0.51194024 0.10923536 0.052327216
0.51281822 0.10991184 0.05285478
0.51284385 0.11075436 0.052849647
0.5137217 0.11142605 0.053377274
0.51374727 0.11226697 0.053372148
0.51462495 0.1129339 0.053899769
0.51465046 0.11377323 0.053894654
0.51382399 0.11478975 0.053356778
0.5138495 0.11563066 0.053351652
0.51387507 0.11647158 0.053346526
0.51304871 0.11749447 0.052808575
0.51307434 0.11833699 0.052803438
0.51224816 0.11936464 0.052265488
0.51227379 0.12020875 0.052260347
0.51144779 0.12124117 0.051722366
0.51147348 0.12208688 0.051717211
0.51064759 0.1231241 0.051179204
0.50982171 0.12416449 0.050641142
0.50984752 0.12501338 0.050635971
0.50902188 0.12605855 0.050097913
0.50904775 0.12690903 0.050092731
0.50822222 0.12795898 0.049554642
0.50739682 0.12901212 0.049016543
0.5074228 0.1298658 0.049011342
0.50659752 0.1309237 0.048473205
0.50577229 0.13198482 0.04793502
0.50579834 0.13284166 0.047929797
0.50497335 0.13390754 0.047391612
0.50414842 0.13497661 0.046853412
0.50417459 0.13583663 0.04684817
0.50334978 0.13691048 0.046309937
0.50252503 0.13798752 0.045771655
0.50255132 0.13885073 0.045766395
0.50172675 0.13993254 0.045228112
0.50175303 0.14079736 0.045222841
0.50092864 0.14188394 0.04468454
0.50095499 0.14275034 0.044679258
0.50013077 0.1438417 0.04414092
0.50015712 0.14470971 0.04413563
0.50018352 0.1455777 0.04413034
0.50020993 0.14644569 0.044125054
0.50023627 0.14731368 0.044119764
0.50622958 0.10096926 0.047993746
0.50625557 0.10182452 0.047988534
0.50628155 0.10267977 0.047983322
0.50715929 0.10338178 0.04851196
0.50718528 0.10423545 0.048506759
0.50806284 0.10493267 0.04903543
0.50894034 0.10562671 0.049564123
0.50896621 0.10647718 0.049558941
0.50984359 0.10716645 0.050087664
0.51072091 0.10785251 0.050616432
0.51159805 0.10853542 0.051145192
0.51247513 0.10921513 0.051673971
0.5133521 0.10989165 0.052202772
0.51337767 0.11073416 0.052197639
0.51425457 0.11140589 0.052726492
0.51428014 0.11224681 0.052721366
0.51430565 0.11308774 0.052716244
0.51433122 0.11392866 0.052711118
0.51435679 0.11476959 0.052705996
0.51353133 0.11578924 0.052166834
0.51355696 0.11663176 0.052161697
0.51358253 0.11747427 0.052156564
0.5127573 0.1185003 0.051617391
0.51278299 0.11934441 0.051612247
0.51195794 0.12037521 0.051073045
0.51113296 0.12140919 0.05053382
0.5111587 0.12225649 0.050528657
0.51033384 0.12329526 0.04998938
0.51035959 0.12414414 0.049984206
0.50953496 0.1251877 0.049444925
0.50871032 0.12623441 0.048905626
0.50873625 0.12708649 0.048900433
0.5079118 0.12813799 0.048361104
0.50708747 0.12919268 0.04782176
0.50711346 0.13004795 0.047816548
0.50628918 0.13110742 0.047277138
0.50631523 0.13196427 0.047271915
0.5054912 0.13302852 0.046732508
0.50466722 0.13409595 0.046193082
0.50469339 0.13495599 0.04618784
0.50386953 0.1360282 0.045648392
0.5030458 0.13710362 0.045108885
0.50222218 0.13818219 0.044569388
0.50224847 0.139047 0.04456412
0.50142497 0.14013036 0.044024602
0.50145131 0.14099677 0.044019323
0.50147766 0.14186317 0.04401404
0.50065434 0.1429529 0.043474481
0.50068074 0.1438209 0.043469191
0.4998576 0.1449154 0.042929597
0.49988404 0.14578499 0.0429243
0.49991047 0.14665458 0.042918999
0.49993688 0.14752418 0.042913701
0.50674552 0.10009351 0.047337081
0.5067715 0.10094876 0.04733187
0.50679749 0.10180401 0.047326658
0.50767428 0.10250765 0.047856521
0.5077002 0.10336131 0.047851317
0.50857687 0.10406017 0.048381213
0.50860274 0.10491224 0.048376024
0.50947922 0.10560632 0.048905943
0.51035565 0.10629721 0.049435887
0.51123202 0.10698492 0.049965885
0.51210821 0.10766944 0.050495863
0.5121339 0.10851514 0.050490711
0.51300997 0.10919488 0.051020723
0.51388592 0.10987145 0.051550757
0.51391155 0.11071396 0.051545624
0.51393712 0.11155647 0.05154049
0.51481295 0.11222665 0.052070588
0.51483852 0.11306757 0.052065462
0.51486409 0.1139085 0.05206034
0.51403958 0.11492654 0.051519953
0.51406515 0.11576904 0.051514819
0.51409078 0.11661156 0.051509686
0.5132665 0.11763595 0.050969288
0.51329219 0.11848006 0.050964143
0.51246804 0.11950923 0.050423715
0.51164407 0.12054159 0.049883276
0.51166981 0.12138887 0.049878113
0.5108459 0.12242603 0.049337603
0.51087171 0.12327491 0.049332432
0.51004797 0.12431682 0.048791926
0.50922436 0.12536192 0.048251409
0.50925022 0.12621398 0.048246216
0.50842673 0.12726387 0.047705662
0.50760335 0.12831692 0.047165096
0.50762933 0.12917218 0.047159884
0.50680608 0.13023004 0.046619251
0.50683212 0.13108687 0.046614029
0.50600904 0.1321495 0.046073396
0.50518602 0.13321531 0.045532752
0.50436312 0.13428429 0.044992082
0.50438929 0.13514592 0.044986833
0.5035665 0.1362197 0.044446107
0.50274384 0.13729665 0.043905389
0.50277013 0.13816145 0.043900121
0.50194758 0.13924319 0.043359373
0.50197393 0.14010958 0.043354094
0.50115156 0.1411961 0.042813323
0.50117797 0.14206409 0.042808034
0.50035572 0.14315538 0.042267226
0.50038218 0.14402497 0.042261928
0.50040859 0.14489456 0.042256627
0.50043505 0.14576414 0.04225133
0.50046146 0.14663373 0.042246029
0.50048786 0.14750333 0.042240731
0.50813735 0.099926196 0.047211491
0.50816327 0.10077985 0.047206286
0.5081892 0.10163352 0.047201086
0.50821519 0.10248718 0.047195885
0.50909084 0.10318767 0.047727004
0.50911677 0.10403974 0.047721811
0.5099923 0.10473545 0.048252955
0.51001811 0.10558593 0.048247773
0.51089352 0.10627686 0.048778951
0.51176888 0.1069646 0.049310178
0.51264405 0.10764916 0.049841389
0.51266974 0.10849486 0.049836233
0.5135448 0.10917465 0.050367482
0.51441973 0.10985124 0.050898742
0.51444536 0.11069376 0.050893608
0.51447099 0.11153627 0.050888475
0.51449656 0.11237878 0.050883342
0.51452219 0.1132213 0.050878204
0.51454777 0.11406381 0.050873071
0.5145734 0.11490633 0.050867938
0.51375008 0.1159275 0.050326332
0.51377571 0.11677161 0.050321188
0.51295251 0.11779755 0.049779546
0.5129782 0.11864325 0.049774393
0.51215518 0.11967398 0.049232729
0.51218092 0.12052127 0.049227566
0.51135796 0.12155679 0.048685841
0.51138377 0.12240567 0.048680667
0.51056099 0.12344596 0.048138939
0.50973833 0.12448942 0.047597196
0.50976419 0.1253415 0.047592007
0.50894171 0.12638973 0.047050226
0.50811929 0.12744117 0.046508439
0.50814527 0.12829642 0.046503227
0.50732297 0.12935264 0.045961369
0.50650078 0.13041204 0.045419529
0.50652683 0.13127047 0.045414299
0.50570482 0.13233465 0.044872425
0.50488287 0.133402 0.044330537
0.50490904 0.13426363 0.044325285
0.50408721 0.13533577 0.043783333
0.5032655 0.1364111 0.043241397
0.50329179 0.13727592 0.043236125
0.50247025 0.138356 0.042694155
0.5024966 0.13922241 0.042688876
0.50167519 0.14030729 0.04214688
0.50170153 0.14117528 0.04214159
0.5008803 0.14226493 0.041599561
0.50090671 0.14313453 0.041594263
0.50008553 0.14422897 0.041052178
0.50011206 0.14510015 0.041046869
0.50013852 0.14597134 0.04104156
0.50016499 0.14684252 0.041036252
0.50019145 0.14771371 0.041030943
0.50867826 0.099905729 0.046550848
0.50955307 0.10061102 0.047083165
0.50957894 0.1014631 0.047077972
0.50960487 0.10231517 0.047072783
0.50963074 0.10316724 0.04706759
0.50965667 0.10401931 0.047062397
0.51053119 0.10471506 0.047594782
0.51140559 0.10540763 0.048127178
0.5114314 0.10625651 0.048122004
0.51230574 0.10694429 0.048654463
0.5131799 0.10762888 0.049186911
0.51320559 0.10847459 0.049181759
0.51407963 0.10915441 0.049714234
0.51495361 0.10983104 0.050246727
0.51497918 0.11067356 0.050241593
0.51500481 0.11151607 0.05023646
0.51503044 0.11235859 0.050231326
0.51505601 0.1132011 0.050226193
0.51508164 0.11404362 0.050221056
0.51425922 0.11506316 0.049678229
0.51428491 0.11590727 0.049673084
0.51346266 0.11693159 0.049130224
0.51348835 0.11777728 0.049125072
0.51266629 0.11880638 0.048582178
0.51269203 0.11965366 0.048577014
0.51187003 0.12068755 0.048034064
0.51189584 0.12153643 0.048028894
0.51107401 0.12257509 0.047485948
0.5102523 0.12361693 0.046942975
0.51027822 0.12446899 0.046937782
0.50945663 0.12551561 0.046394788
0.50863516 0.12656541 0.045851775
0.50866121 0.12742066 0.045846563
0.5078398 0.12847525 0.045303483
0.50701863 0.12953302 0.044760417
0.50704467 0.13039146 0.044755187
0.50622362 0.13145399 0.044212095
0.50540262 0.13251972 0.043668978
0.50542885 0.13338135 0.043663729
0.50460792 0.13445187 0.043120556
0.50378722 0.13552555 0.042577397
0.50381351 0.13639037 0.042572126
0.50299287 0.13746883 0.04202893
0.50301921 0.13833523 0.042023651
0.50219876 0.13941848 0.041480433
0.50137842 0.14050491 0.040937196
0.50140488 0.1413745 0.040931899
0.50143129 0.14224409 0.040926598
0.50061107 0.14333691 0.040383283
0.50063753 0.14420807 0.040377975
0.50066406 0.14507927 0.040372666
0.50069052 0.14595045 0.040367357
0.4998706 0.14705122 0.039824035
0.49989712 0.14792399 0.039818715
0.50921917 0.099885263 0.045890205
0.51009291 0.1005906 0.046423763
0.51011884 0.10144268 0.04641857
0.51014471 0.10229475 0.046413381
0.51017064 0.10314681 0.046408188
0.5110442 0.1038442 0.046941787
0.51107007 0.10469467 0.046936605
0.51194346 0.10538727 0.047470234
0.51281685 0.10607668 0.048003916
0.5128426 0.10692398 0.047998752
0.51371574 0.10760861 0.04853243
0.51458883 0.10829006 0.049066134
0.51461452 0.10913417 0.049060993
0.51464015 0.10997827 0.049055848
0.51551306 0.11065336 0.049589586
0.51553863 0.11149587 0.049584452
0.51556426 0.11233839 0.049579315
0.51474279 0.11335471 0.049035273
0.51476842 0.11419881 0.049030129
0.51479411 0.11504292 0.049024984
0.51397282 0.11606561 0.048480898
0.51399851 0.11691131 0.048475742
0.51317739 0.11793876 0.047931634
0.51320314 0.11878606 0.047926471
0.51238209 0.11981831 0.047382295
0.5124079 0.1206672 0.047377124
0.51158708 0.12170421 0.046832953
0.51076633 0.12274443 0.046288766
0.5107922 0.1235965 0.046283573
0.50997162 0.12464148 0.045739349
0.5091511 0.12568966 0.04519511
0.50917709 0.12654489 0.045189898
0.50835669 0.12759787 0.0446456
0.50753641 0.12865399 0.044101313
0.50756252 0.12951243 0.044096082
0.50674242 0.13057335 0.043551765
0.50592238 0.13163744 0.043007426
0.5059486 0.13249907 0.043002177
0.50512868 0.13356794 0.042457778
0.50430888 0.13464001 0.041913398
0.50433517 0.13550481 0.041908126
0.50351554 0.13658166 0.041363712
0.50354189 0.13744806 0.041358434
0.50272238 0.13852967 0.040813994
0.501903 0.13961448 0.040269528
0.5019294 0.14048406 0.040264226
0.50111014 0.14157365 0.039719705
0.5011366 0.14244483 0.039714396
0.50031751 0.14353919 0.039169878
0.50034404 0.14441197 0.039164558
0.50037056 0.14528474 0.039159238
0.50039709 0.14615752 0.039153922
0.50042361 0.14703028 0.039148603
0.51058102 0.098866038 0.045774739
0.51060694 0.099718109 0.045769546
0.51063281 0.10057017 0.045764353
0.51065874 0.10142225 0.045759164
0.51068461 0.10227432 0.045753971
0.51071054 0.10312638 0.045748778
0.51158309 0.1038238 0.046283614
0.51160896 0.10467428 0.046278428
0.51248133 0.10536692 0.046813294
0.51335371 0.10605636 0.047348209
0.51337945 0.10690366 0.047343045
0.51425165 0.10758834 0.047877956
0.51427734 0.10843404 0.047872804
0.51514935 0.10911394 0.048407745
0.51517498 0.10995804 0.0484026
0.51520067 0.11080215 0.048397455
0.5152263 0.11164625 0.048392311
0.51525199 0.11249036 0.04838717
0.51527762 0.11333446 0.048382025
0.51530331 0.11417858 0.048376881
0.51448298 0.11519963 0.047831576
0.51450866 0.11604533 0.047826421
0.5136885 0.11707117 0.047281086
0.51371425 0.11791845 0.047275923
0.51289415 0.11894908 0.046730526
0.51291996 0.11979796 0.046725355
0.5121001 0.12083335 0.046179961
0.5112803 0.12187192 0.045634549
0.51130623 0.122724 0.045629356
0.51048654 0.12376735 0.045083914
0.50966704 0.12481388 0.044538453
0.50969303 0.12566914 0.044533242
0.50887358 0.12672047 0.043987717
0.50805426 0.12777497 0.043442201
0.50808036 0.12863341 0.043436971
0.50726122 0.12969269 0.042891432
0.50644213 0.13075516 0.042345874
0.50562316 0.13182081 0.041800264
0.50564939 0.13268404 0.041795004
0.50483054 0.13375446 0.041249398
0.50485682 0.13461928 0.041244127
0.50403816 0.13569447 0.040698491
0.5040645 0.13656089 0.040693212
0.50324601 0.13764086 0.040147547
0.50242758 0.13872403 0.039601862
0.50245398 0.13959363 0.039596561
0.50163567 0.14068158 0.039050817
0.50166214 0.14155278 0.039045509
0.500844 0.14264549 0.038499765
0.50087053 0.14351827 0.038494445
0.50005251 0.14461577 0.037948675
0.5000791 0.14549014 0.037943348
0.50010568 0.14636451 0.037938017
0.50013226 0.14723887 0.03793269
0.51112092 0.098845609 0.045115329
0.51114684 0.099697679 0.04511014
0.51117271 0.10054974 0.045104947
0.51119864 0.10140182 0.045099754
0.51122451 0.10225389 0.045094561
0.51209611 0.10295293 0.045630619
0.51212198 0.10380341 0.045625437
0.5129934 0.10449769 0.046161525
0.5130192 0.10534657 0.046156351
0.51389056 0.10603605 0.046692498
0.51391631 0.10688335 0.046687335
0.5147875 0.10756806 0.047223482
0.51481318 0.10841376 0.047218326
0.51568419 0.1090937 0.0477545
0.51570982 0.1099378 0.047749359
0.51573551 0.11078191 0.047744215
0.51576114 0.11162601 0.04773907
0.51578683 0.11247013 0.047733925
0.51496744 0.11348795 0.047187407
0.51499313 0.11433365 0.047182254
0.51501882 0.11517936 0.047177099
0.51419961 0.11620355 0.046630539
0.51422536 0.11705086 0.046625379
0.51340628 0.11807984 0.046078756
0.51343203 0.11892872 0.046073586
0.51261312 0.11996248 0.045526966
0.51263899 0.12081297 0.045521785
0.5118202 0.12185149 0.044975139
0.51100153 0.12289322 0.044428475
0.51018292 0.12393813 0.043881789
0.51020896 0.12479338 0.043876577
0.50939047 0.12584308 0.043329831
0.5085721 0.12689595 0.042783096
0.50859821 0.12775439 0.042777866
0.50778002 0.12881204 0.042231105
0.50696188 0.12987287 0.041684322
0.50614387 0.13093691 0.041137487
0.50617009 0.13180012 0.041132227
0.50535226 0.13286892 0.040585402
0.50537854 0.13373373 0.040580135
0.50456083 0.1348073 0.040033273
0.50374317 0.13588406 0.039486393
0.50376958 0.13675205 0.039481103
0.5029521 0.1378336 0.038934197
0.50297856 0.13870318 0.038928896
0.50216115 0.13978952 0.038381927
0.50218767 0.1406607 0.038376618
0.50137049 0.1417518 0.037829652
0.50055337 0.14284606 0.037282668
0.50057995 0.14372043 0.037277341
0.50060654 0.1445948 0.03727201
0.50063312 0.14546917 0.037266683
0.49981627 0.14657143 0.03671965
0.49984291 0.14744738 0.036714312
0.51166081 0.098825179 0.044455923
0.51168674 0.09967725 0.04445073
0.51171261 0.10052931 0.044445537
0.51173854 0.10138139 0.044440344
0.51260912 0.10208207 0.044977628
0.51263499 0.10293254 0.044972442
0.51266086 0.10378303 0.04496726
0.51353127 0.10447733 0.045504581
0.51355708 0.10532621 0.04549941
0.51442742 0.10601573 0.046036791
0.51445317 0.10686304 0.046031628
0.51532334 0.10754778 0.046569001
0.51534903 0.10839348 0.046563845
0.51537472 0.10923918 0.046558693
0.51624471 0.10991757 0.047096111
0.51627034 0.11076167 0.047090966
0.51629603 0.11160578 0.047085822
0.51547754 0.11262199 0.046538077
0.51550329 0.11346767 0.046532925
0.51552898 0.11431338 0.046527773
0.51471072 0.11533595 0.045979995
0.51473647 0.11618324 0.045974832
0.51391834 0.1172106 0.045426987
0.51394415 0.11805949 0.045421816
0.51312613 0.11909162 0.044873975
0.513152 0.11994209 0.044868793
0.51233423 0.120979 0.044320922
0.51151645 0.12201909 0.043773033
0.51069885 0.12306236 0.043225132
0.51072484 0.12391762 0.04321992
0.50990731 0.12496568 0.042671949
0.50993335 0.12582253 0.04266673
0.50911605 0.12687537 0.042118762
0.50829881 0.12793139 0.041570775
0.50748169 0.12899059 0.04102277
0.50666457 0.13005298 0.040474717
0.5066908 0.13091621 0.040469456
0.50587392 0.13198337 0.039921403
0.5059002 0.13284819 0.039916132
0.50508344 0.13392013 0.039368052
0.5042668 0.13499525 0.038819946
0.5042932 0.13586324 0.038814656
0.50347668 0.13694316 0.038266525
0.50266021 0.13802627 0.037718348
0.50268668 0.13889745 0.03771304
0.50187045 0.13998532 0.037164859
0.50189698 0.1408581 0.03715954
0.50108081 0.14195074 0.036611333
0.50110739 0.14282511 0.036606003
0.50029141 0.14392254 0.036057767
0.50031805 0.14479849 0.036052428
0.50034469 0.14567445 0.03604709
0.49952888 0.14677826 0.035498817
0.49955556 0.1476558 0.035493471
0.51133084 0.098096065 0.043258052
0.51135683 0.09894973 0.043252852
0.51138276 0.099803396 0.043247648
0.51225251 0.10050888 0.043786127
0.51227844 0.10136096 0.043780938
0.51230431 0.10221303 0.043775745
0.51317388 0.10291216 0.044314269
0.51319975 0.10376263 0.044309087
0.51406914 0.10445698 0.044847641
0.51409495 0.10530587 0.044842467
0.51496428 0.10599542 0.045381077
0.51499003 0.10684272 0.045375913
0.51585919 0.10752751 0.045914523
0.51588488 0.10837321 0.045909371
0.51591063 0.10921891 0.045904215
0.51593632 0.1100646 0.045899063
0.515962 0.1109103 0.045893911
0.51598769 0.111756 0.045888755
0.51601344 0.1126017 0.045883603
0.51603913 0.1134474 0.045878451
0.51522183 0.11446834 0.045329448
0.51524758 0.11531564 0.045324285
0.5144304 0.11634136 0.044775218
0.51445621 0.11719026 0.044770047
0.51363921 0.11822075 0.04422098
0.51366502 0.11907123 0.044215798
0.5128482 0.1201065 0.043666705
0.51203144 0.12114497 0.043117598
0.51205736 0.12199862 0.043112397
0.51124078 0.12304186 0.042563256
0.5104242 0.12408829 0.042014062
0.51045024 0.12494514 0.04200884
0.5096339 0.12599635 0.041459657
0.50881761 0.12705073 0.040910445
0.50800145 0.12810831 0.040361218
0.50802761 0.12896992 0.040355965
0.50721151 0.13003229 0.039806683
0.50639558 0.13109782 0.039257403
0.50642186 0.13196264 0.039252132
0.50560611 0.13303296 0.038702827
0.50479043 0.13410644 0.038153507
0.5039748 0.13518314 0.037604161
0.50400126 0.13605273 0.037598863
0.50318575 0.13713419 0.037049454
0.50321221 0.13800539 0.037044145
0.50239688 0.13909161 0.036494747
0.50158173 0.14018105 0.035945326
0.50160825 0.14105541 0.035939995
0.50079322 0.14214961 0.035390548
0.50081986 0.14302556 0.035385214
0.50084645 0.14390154 0.035379875
0.50003159 0.1450021 0.034830384
0.49921677 0.14610589 0.03428084
0.4992435 0.14698502 0.034275483
0.4992702 0.14786416 0.034270126
0.49929693 0.14874332 0.034264769
0.51187176 0.098075598 0.042597409
0.51189768 0.098929264 0.042592209
0.51192367 0.099782929 0.042587008
0.51279241 0.10048845 0.043126721
0.51281834 0.10134053 0.043121532
0.5128442 0.1021926 0.043116339
0.51371276 0.10289177 0.043656092
0.51373863 0.10374224 0.04365091
0.5137645 0.10459272 0.043645728
0.51463282 0.10528551 0.044185523
0.51550114 0.10597511 0.044725366
0.51552689 0.10682241 0.044720203
0.5155527 0.10766969 0.044715039
0.51642078 0.10835294 0.045254894
0.51644647 0.10919863 0.045249738
0.51647216 0.11004433 0.045244586
0.51649785 0.11089003 0.045239434
0.5165236 0.11173573 0.045234278
0.51570719 0.11275344 0.04468406
0.51573294 0.11360074 0.044678897
0.51575869 0.11444803 0.044673733
0.51494247 0.11547213 0.044123448
0.51496828 0.11632101 0.044118274
0.51415223 0.11734989 0.043567989
0.5141781 0.11820035 0.043562807
0.51336217 0.11923401 0.043012492
0.51254636 0.12027083 0.042462159
0.51257235 0.1211245 0.042456958
0.51175666 0.1221661 0.041906595
0.51094109 0.12321091 0.04135618
0.51096714 0.12406775 0.041350961
0.51015168 0.12511732 0.040800549
0.50933641 0.12617008 0.040250119
0.5085212 0.12722602 0.03969967
0.50854737 0.12808764 0.039694421
0.50773227 0.12914838 0.039143905
0.5069173 0.13021228 0.038593404
0.50694358 0.1310771 0.038588133
0.50612873 0.13214578 0.038037609
0.50531399 0.13321765 0.03748706
0.50449938 0.13429269 0.036936495
0.50452578 0.13516229 0.036931198
0.50371128 0.13624212 0.036380567
0.50373775 0.1371133 0.036375258
0.50292337 0.13819793 0.035824638
0.50210917 0.13928571 0.035273988
0.50213569 0.14016008 0.035268661
0.50132161 0.14125265 0.034717992
0.50134826 0.14212862 0.034712654
0.5005343 0.14322595 0.034161948
0.50056094 0.14410351 0.034156602
0.4997471 0.14520565 0.03360584
0.49893337 0.14631097 0.033055086
0.49896017 0.14719172 0.033049718
0.49898693 0.14807245 0.033044353
0.49901369 0.14895318 0.033038985
0.51157069 0.098198444 0.041390646
0.51159674 0.099053703 0.041385435
0.51246458 0.099762462 0.041926365
0.51333231 0.10046802 0.042467315
0.51335818 0.1013201 0.042462122
0.5133841 0.10217217 0.042456929
0.51340997 0.10302424 0.042451736
0.51427752 0.10372185 0.042992733
0.51430339 0.10457233 0.042987548
0.51517069 0.10526516 0.043528575
0.5151965 0.10611404 0.043523405
0.51606381 0.10680209 0.044064492
0.51608956 0.10764938 0.044059329
0.51611531 0.10849667 0.044054165
0.51698232 0.10917836 0.04459526
0.51700801 0.11002405 0.044590108
0.51619256 0.11103855 0.044038676
0.5162183 0.11188584 0.044033512
0.51624405 0.11273313 0.044028349
0.5162698 0.11358042 0.044023186
0.51545453 0.11460289 0.043471675
0.51548034 0.11545178 0.043466501
0.51466525 0.11647902 0.042914994
0.51469111 0.11732949 0.042909812
0.5138762 0.1183615 0.042358276
0.51306134 0.1193967 0.04180672
0.51308727 0.12025036 0.041801516
0.5122726 0.12129034 0.041249931
0.51145798 0.12233351 0.040698294
0.51148403 0.12319037 0.040693071
0.51066953 0.1242383 0.040141437
0.50985521 0.12528943 0.039589785
0.50988132 0.12614946 0.039584544
0.50906712 0.12720536 0.039032862
0.50825298 0.12826446 0.038481127
0.50743896 0.12932673 0.037929405
0.50746524 0.13019155 0.037924133
0.5066514 0.13125861 0.037372388
0.50583762 0.13232884 0.036820617
0.50502396 0.13340226 0.036268827
0.50505036 0.13427185 0.036263525
0.50423676 0.13535006 0.035711676
0.50426328 0.13622123 0.035706367
0.50344986 0.13730422 0.035154518
0.50263661 0.13839039 0.034602653
0.5026632 0.13926475 0.034597326
0.50185001 0.14035569 0.034045424
0.50187665 0.14123166 0.03404009
0.50106364 0.14232737 0.033488166
0.5002507 0.14342628 0.032936189
0.5002774 0.14430544 0.032930832
0.50030416 0.14518458 0.032925475
0.49949145 0.14628986 0.032373488
0.49867883 0.14739832 0.031821489
0.49870566 0.14828064 0.03181611
0.49789318 0.14939389 0.031264082
0.51211262 0.09817794 0.040728774
0.51213861 0.099033199 0.040723562
0.51300544 0.099741995 0.041265726
0.51303142 0.10059565 0.041260522
0.51305735 0.10144932 0.041255321
0.513924 0.10215175 0.041797522
0.51394987 0.10300381 0.041792329
0.5148164 0.10370146 0.04233456
0.51484221 0.10455194 0.042329378
0.51570857 0.10524481 0.042871635
0.51573437 0.10609369 0.042866461
0.51660067 0.10678178 0.043408781
0.51662642 0.10762906 0.043403622
0.51665217 0.10847636 0.043398459
0.51667792 0.10932366 0.043393295
0.51670367 0.11017094 0.043388132
0.51672941 0.11101824 0.043382969
0.51675516 0.11186553 0.043377806
0.51594079 0.11288477 0.04282508
0.51596659 0.11373366 0.042819906
0.5159924 0.11458254 0.042814732
0.51517832 0.11560815 0.042262003
0.51520413 0.11645862 0.042256821
0.51439017 0.11748901 0.041704059
0.51357633 0.11852257 0.041151281
0.51360226 0.11937623 0.041146081
0.51278853 0.12041458 0.04059327
0.51197481 0.12145612 0.040040407
0.51200086 0.12231297 0.040035188
0.51118737 0.12335929 0.039482333
0.51037401 0.12440878 0.038929459
0.51040012 0.1252688 0.038924217
0.50958687 0.12632307 0.03837131
0.50877368 0.12738055 0.03781835
0.50796062 0.1284412 0.037265409
0.5079869 0.129306 0.037260137
0.50717402 0.13037142 0.036707163
0.50636119 0.13144003 0.036154173
0.50554848 0.13251181 0.035601161
0.50557494 0.13338141 0.03559586
0.50476229 0.13445799 0.035042789
0.50394982 0.13553774 0.034489725
0.50397635 0.13641052 0.034484405
0.50316405 0.13749506 0.033931319
0.50235182 0.13858277 0.033378206
0.5023784 0.13945873 0.033372868
0.50156635 0.14055122 0.032819733
0.50159299 0.14142878 0.032814384
0.50078106 0.14252606 0.032261185
0.50080776 0.14340521 0.032255828
0.49999595 0.14450726 0.03170263
0.49918425 0.14561249 0.031149413
0.49921107 0.14649484 0.031144038
0.49839953 0.14760485 0.030590791
0.49842641 0.14848876 0.030585404
0.49761495 0.14960358 0.0300321
0.49764186 0.15048908 0.030026704
0.5117625 0.096586987 0.039528728
0.51178855 0.097443834 0.039523505
0.51265454 0.098157436 0.040066902
0.51268053 0.099012695 0.04006169
0.51354635 0.099721529 0.040605083
0.51357234 0.10057519 0.040599883
0.51359826 0.10142885 0.040594678
0.5144639 0.10213132 0.041138116
0.51448977 0.10298339 0.041132923
0.51535529 0.10368107 0.041676383
0.5153811 0.10453155 0.041671202
0.51540697 0.10538203 0.04166602
0.51627225 0.10607334 0.042209521
0.51629806 0.10692222 0.042204347
0.51716328 0.10760875 0.042747907
0.51718903 0.10845605 0.042742744
0.51721478 0.10930334 0.042737581
0.51724052 0.11015063 0.042732418
0.51726627 0.11099792 0.042727254
0.51645291 0.11201554 0.042173311
0.51647872 0.11286442 0.042168137
0.51650447 0.1137133 0.042162962
0.51569134 0.11473728 0.041609012
0.51571721 0.11558776 0.04160383
0.5149042 0.11661651 0.041049846
0.51409125 0.11764845 0.040495843
0.51411718 0.1185021 0.040490638
0.51330441 0.11953882 0.03993661
0.5124917 0.12057873 0.039382529
0.51251775 0.12143558 0.039377306
0.51170522 0.12248025 0.038823228
0.51089281 0.12352812 0.038269125
0.51091892 0.12438816 0.038263883
0.51010662 0.12544079 0.037709758
0.50929439 0.12649664 0.037155576
0.50848234 0.12755565 0.036601413
0.50850862 0.12842046 0.036596142
0.50769669 0.12948424 0.036041941
0.50688481 0.13055122 0.035487726
0.50607306 0.13162139 0.034933493
0.50609946 0.13249096 0.034928195
0.50528783 0.13356593 0.034373898
0.50447631 0.13464405 0.033819612
0.50366491 0.13572536 0.033265311
0.50369149 0.13659972 0.033259984
0.50288022 0.13768581 0.03270565
0.50290686 0.13856177 0.032700315
0.5020957 0.13965262 0.032145955
0.50128466 0.1407467 0.031591538
0.50131136 0.14162584 0.031586181
0.5005005 0.14272466 0.031031772
0.50052726 0.1436054 0.031026404
0.49971652 0.14470901 0.030471966
0.49890587 0.1458158 0.029917508
0.49893275 0.14669973 0.029912122
0.4989596 0.14758366 0.029906737
0.4981491 0.14869682 0.029352205
0.49733877 0.14981318 0.028797688
0.49736571 0.15070029 0.028792283
0.51227933 0.095709592 0.038870841
0.51230538 0.096566446 0.038865622
0.51233143 0.097423293 0.038860399
0.51319647 0.098136932 0.039405029
0.51322246 0.098992184 0.039399818
0.51324844 0.099847443 0.039394606
0.51327443 0.1007027 0.039389394
0.51413918 0.10140838 0.039934039
0.5150038 0.10211089 0.040478706
0.51502967 0.10296296 0.040473513
0.5150556 0.10381503 0.04046832
0.51591998 0.10451116 0.041013025
0.51594585 0.10536163 0.041007843
0.51681012 0.10605299 0.041552577
0.51683593 0.10690187 0.041547403
0.51686174 0.10775076 0.041542232
0.51688755 0.10859964 0.041537058
0.51691335 0.10944853 0.041531887
0.51693916 0.1102974 0.041526712
0.51696497 0.1111463 0.041521542
0.51699078 0.11199518 0.041516367
0.51617849 0.11301593 0.040961202
0.51620436 0.1138664 0.040956017
0.51623023 0.11471689 0.040950835
0.51541817 0.11574401 0.040395629
0.51460624 0.11677431 0.039840404
0.51463217 0.11762798 0.039835203
0.51382035 0.11866306 0.039279949
0.51300859 0.11970134 0.038724642
0.51303464 0.12055819 0.038719423
0.51222306 0.12160123 0.03816412
0.51141161 0.12264746 0.037608795
0.51143771 0.1235075 0.037603557
0.51062644 0.12455852 0.037048206
0.50981516 0.12561272 0.036492802
0.509004 0.12667009 0.035937414
0.50903028 0.12753491 0.035932142
0.5082193 0.12859707 0.035376724
0.50740844 0.12966241 0.034821283
0.50659764 0.13073094 0.034265827
0.50662404 0.13160054 0.034260526
0.50581336 0.13267386 0.033705007
0.5050028 0.13375035 0.033149503
0.50419235 0.13483001 0.032593977
0.50421894 0.1357044 0.032588646
0.50340861 0.13678885 0.032033093
0.50343525 0.13766481 0.032027755
0.50262511 0.13875404 0.031472173
0.50181496 0.13984647 0.030916534
0.50184166 0.14072563 0.030911177
0.50103176 0.14182281 0.030355545
0.50105852 0.14270355 0.030350178
0.50024873 0.14380553 0.029794518
0.49943909 0.14491069 0.029238837
0.49946594 0.1457946 0.029233452
0.49865636 0.14690457 0.028677706
0.49784693 0.14801769 0.028121978
0.4978739 0.1489048 0.028116573
0.49706459 0.1500227 0.027560815
0.49709162 0.15091139 0.027555399
0.49628246 0.15203407 0.026999611
0.51106775 0.093385719 0.037121415
0.51109385 0.094245747 0.037116174
0.51195812 0.094968989 0.037661947
0.51198423 0.095827438 0.037656717
0.51284832 0.096545905 0.038202513
0.51287436 0.097402744 0.038197294
0.51290041 0.098259591 0.038192071
0.51376438 0.09897168 0.038737945
0.51379037 0.099826939 0.038732734
0.5146541 0.10053425 0.039278604
0.51468009 0.10138792 0.0392734
0.51470602 0.10224158 0.039268199
0.51556957 0.10294253 0.039814103
0.5155955 0.1037946 0.039808914
0.51645887 0.10449077 0.040354852
0.51648474 0.10534125 0.04034967
0.51651061 0.10619172 0.040344484
0.5173738 0.10688152 0.040890463
0.51739961 0.1077304 0.040885288
0.51742542 0.10857929 0.040880118
0.51745123 0.10942817 0.040874943
0.51747704 0.11027706 0.040869772
0.51750284 0.11112595 0.040864598
0.51669157 0.11214506 0.040308207
0.51671737 0.11299554 0.040303025
0.51590627 0.11401944 0.039746605
0.51593214 0.11487151 0.039741412
0.51512116 0.11590019 0.039184969
0.51514709 0.11675385 0.039179765
0.51433629 0.1177873 0.038623288
0.51352549 0.11882395 0.03806676
0.51355153 0.1196808 0.038061537
0.51274091 0.1207222 0.037505012
0.51193041 0.12176682 0.036948469
0.51195651 0.12262684 0.036943227
0.51114619 0.12367623 0.036386654
0.51033586 0.12472881 0.035830025
0.50952566 0.12578455 0.035273414
0.50955194 0.12664936 0.035268147
0.50874192 0.1277099 0.034711502
0.50793201 0.12877361 0.03415484
0.50712216 0.12984051 0.033598162
0.50714862 0.1307101 0.033592861
0.50633889 0.13178179 0.03303612
0.50552928 0.13285665 0.032479391
0.50471979 0.13393469 0.031922642
0.50474638 0.13480906 0.031917315
0.50393701 0.13589188 0.031360537
0.50312775 0.1369779 0.030803738
0.50315446 0.13785546 0.030798391
0.50234526 0.13894625 0.03024153
0.50237203 0.13982539 0.030236173
0.50156307 0.14092097 0.029679321
0.50075418 0.1420197 0.029122444
0.500781 0.14290205 0.029117068
0.49997228 0.14400557 0.028560163
0.49916363 0.14511231 0.02800321
0.49919054 0.14599781 0.027997814
0.49838206 0.14710931 0.027440861
0.49757367 0.148224 0.026883887
0.4976007 0.14911269 0.026878472
0.49679247 0.15023215 0.026321473
0.49681953 0.15112244 0.026316049
0.49684659 0.15201274 0.026310623
0.49603853 0.15313856 0.025753582
0.51158655 0.092505068 0.036461085
0.51161265 0.093365096 0.036455844
0.51163882 0.094225131 0.036450606
0.51250207 0.094948411 0.036997609
0.51252812 0.095806852 0.036992375
0.51339126 0.096525356 0.037539408
0.5134173 0.097382203 0.037534188
0.51428026 0.098095916 0.038081285
0.51430625 0.098951176 0.038076073
0.51433229 0.099806435 0.038070861
0.51435828 0.10066169 0.03806565
0.51522094 0.10136745 0.038612761
0.51524693 0.10222112 0.038607556
0.51610947 0.1029221 0.039154701
0.51613539 0.10377417 0.039149508
0.51616126 0.10462624 0.039144315
0.51702362 0.10532086 0.039691493
0.51704949 0.10617132 0.039686311
0.51707536 0.10702181 0.039681129
0.51710117 0.10787228 0.039675944
0.51712704 0.10872277 0.039670762
0.51715291 0.10957325 0.03966558
0.51717871 0.11042372 0.039660398
0.51720458 0.1112742 0.039655216
0.51723045 0.11212467 0.03965003
0.51642025 0.11314695 0.039092392
0.51644617 0.11399901 0.039087199
0.51563615 0.11502606 0.038529526
0.51566207 0.11587972 0.038524326
0.51485217 0.11691154 0.037966628
0.51404232 0.11794656 0.037408873
0.51406837 0.1188034 0.037403654
0.51325876 0.11984319 0.036845904
0.5124492 0.12088616 0.036288138
0.51247531 0.1217462 0.036282897
0.51166594 0.12279394 0.035725098
0.51085657 0.12384489 0.035167255
0.51088279 0.12470812 0.035161991
0.51007366 0.12576382 0.034604147
0.50926459 0.12682272 0.034046281
0.50845563 0.12788481 0.0334884
0.50764674 0.12895007 0.032930493
0.5076732 0.12981966 0.032925196
0.50686443 0.13088971 0.032367233
0.50605577 0.13196295 0.031809278
0.50524724 0.13303937 0.031251308
0.50527382 0.13391373 0.031245979
0.5044654 0.13499492 0.030687977
0.50365716 0.13607931 0.030129958
0.50368381 0.13695686 0.03012461
0.50287563 0.13804603 0.029566528
0.50206757 0.13913837 0.029008461
0.50209433 0.1400191 0.029003093
0.50128645 0.14111623 0.028444996
0.50047863 0.14221653 0.027886879
0.50050551 0.14310047 0.027881492
