# .PCD v0.7 - Point Cloud Data file format
VERSION 0.7
FIELDS x y z
SIZE 4 4 4
TYPE F F F
COUNT 1 1 1
WIDTH 1353
HEIGHT 1
VIEWPOINT 0 0 0 1 0 0 0
POINTS 1353
DATA ascii
0.41406992 0.025322847 0.03817974
0.4140996 0.026299143 0.038173791
0.41412926 0.027275439 0.038167842
0.41415894 0.028251737 0.038161892
0.41418862 0.029228035 0.038155943
0.41421831 0.030204332 0.038149994
0.41424796 0.03118063 0.038144045
0.41427764 0.032156926 0.038138095
0.41430733 0.033133224 0.038132146
0.41433701 0.034109522 0.038126197
0.41436666 0.035085816 0.038120247
0.41439635 0.036062114 0.038114298
0.41442603 0.037038412 0.038108349
0.41445568 0.03801471 0.0381024
0.41448537 0.038991008 0.03809645
0.41451505 0.039967302 0.038090501
0.41364887 0.040975746 0.037600745
0.41367862 0.041953634 0.037594788
0.41370833 0.042931527 0.037588827
0.41373804 0.043909416 0.037582871
0.41376778 0.044887304 0.03757691
0.41290191 0.045905303 0.037087098
0.41293168 0.046884783 0.03708113
0.41296145 0.047864266 0.037075162
0.41299123 0.048843749 0.03706919
0.413021 0.049823232 0.037063222
0.41305074 0.050802715 0.037057254
0.41527879 -0.043698289 0.039299209
0.41530833 -0.042726774 0.039293289
0.41533786 -0.041755252 0.03928737
0.41536736 -0.040783741 0.039281446
0.4153969 -0.039812218 0.039275527
0.41452762 -0.038939189 0.038785364
0.41545597 -0.037869174 0.039263688
0.4154855 -0.036897663 0.039257769
0.41551504 -0.035926141 0.039251849
0.41554454 -0.034954619 0.039245926
0.41557407 -0.0339831 0.039240006
0.41560361 -0.033011578 0.039234087
0.41563314 -0.032040063 0.039228167
0.41566268 -0.031068543 0.039222248
0.41569221 -0.030097021 0.039216325
0.41572174 -0.029125508 0.039210405
0.41575125 -0.028153988 0.039204486
0.41578078 -0.027182465 0.039198566
0.41581032 -0.026210949 0.039192647
0.41583985 -0.025239427 0.039186724
0.41586939 -0.02426791 0.039180804
0.41589892 -0.023296392 0.039174885
0.41592845 -0.022324871 0.039168965
0.41595796 -0.021353355 0.039163046
0.41598749 -0.020381836 0.039157126
0.41601703 -0.019410312 0.039151203
0.41604656 -0.018438794 0.039145283
0.41607609 -0.017467277 0.039139364
0.41610563 -0.016495755 0.039133444
0.41613516 -0.015524238 0.039127525
0.41616467 -0.014552721 0.039121602
0.4161942 -0.0135812 0.039115682
0.41532624 -0.01266517 0.038625259
0.41535583 -0.011692056 0.038619328
0.4153854 -0.010718944 0.038613398
0.41541499 -0.0097458335 0.038607471
0.41544455 -0.0087727224 0.03860154
0.41547415 -0.0077996114 0.038595609
0.41550371 -0.0068265004 0.038589679
0.41463608 -0.0058977315 0.038099151
0.4146657 -0.004923027 0.038093213
0.41469532 -0.0039483183 0.038087271
0.41472495 -0.0029736136 0.038081333
0.41385764 -0.0020368781 0.037590783
0.41388729 -0.0010605834 0.037584834
0.41391698 -8.4284991e-05 0.037578885
0.41394666 0.00089200964 0.037572935
0.41397631 0.0018683081 0.037566986
0.41310927 0.0028145979 0.037076369
0.41313902 0.0037924901 0.037070412
0.41316873 0.0047703781 0.037064452
0.41319844 0.0057482705 0.037058491
0.41322818 0.0067261588 0.037052535
0.4132579 0.007704047 0.037046574
0.41239119 0.0086614871 0.036555897
0.41242096 0.0096409712 0.03654993
0.41245073 0.010620453 0.036543962
0.4124805 0.011599935 0.03653799
0.41251028 0.012579419 0.036532022
0.41254005 0.013558901 0.036526054
0.41256982 0.014538383 0.036520086
0.41259959 0.015517864 0.036514118
0.41262937 0.016497349 0.036508147
0.41355515 0.017482948 0.036986984
0.41358486 0.018460834 0.036981028
0.41361457 0.019438725 0.036975067
0.41364431 0.020416616 0.036969107
0.41367403 0.021394506 0.03696315
0.41370374 0.022372395 0.036957189
0.41373348 0.023350285 0.036951233
0.4137632 0.024328174 0.036945272
0.41379291 0.025306065 0.036939312
0.41471821 0.026275737 0.037418254
0.41474786 0.027252033 0.037412304
0.41477755 0.028228331 0.037406355
0.41480723 0.029204627 0.037400406
0.41483688 0.030180926 0.037394457
0.41486657 0.031157222 0.037388507
0.41489625 0.03213352 0.037382558
0.4140307 0.033129182 0.036891639
0.41406044 0.03410707 0.036885682
0.41409016 0.035084963 0.036879722
0.41411987 0.036062852 0.036873765
0.41414961 0.03704074 0.036867805
0.41417933 0.038018633 0.036861844
0.41420904 0.038996521 0.036855888
0.41423878 0.03997441 0.036849927
0.41426849 0.040952299 0.03684397
0.41429821 0.041930191 0.03683801
0.41343319 0.042943373 0.036346994
0.41346297 0.043922853 0.036341026
0.41349274 0.044902336 0.036335055
0.41352251 0.045881819 0.036329087
0.41355228 0.046861302 0.036323119
0.41358206 0.047840782 0.036317151
0.41271734 0.048865117 0.035826039
0.4136416 0.049799748 0.036305211
0.41277698 0.050827269 0.035814084
0.41502592 -0.042854961 0.038056001
0.41505548 -0.041881848 0.03805007
0.41508508 -0.040908739 0.038044143
0.41511464 -0.039935626 0.038038213
0.41514423 -0.038962517 0.038032282
0.4151738 -0.037989404 0.038026351
0.41520339 -0.037016295 0.038020421
0.41523296 -0.036043182 0.038014494
0.41526255 -0.035070065 0.038008563
0.41529211 -0.03409696 0.038002633
0.41532171 -0.033123843 0.037996702
0.41535127 -0.032150738 0.037990775
0.41538087 -0.031177623 0.037984844
0.41541043 -0.030204508 0.037978914
0.41543999 -0.029231401 0.037972983
0.41546959 -0.028258286 0.037967052
0.41549915 -0.027285172 0.037961125
0.41552874 -0.026312064 0.037955195
0.41555831 -0.025338951 0.037949264
0.4155879 -0.02436584 0.037943333
0.41561747 -0.023392729 0.037937403
0.41564706 -0.022419618 0.037931476
0.41567662 -0.021446504 0.037925545
0.41570622 -0.020473393 0.037919614
0.41573578 -0.019500278 0.037913684
0.41576537 -0.018527167 0.037907753
0.41579494 -0.017554056 0.037901826
0.41582453 -0.016580945 0.037895896
0.4158541 -0.015607834 0.037889965
0.41588369 -0.014634723 0.037884034
0.41591325 -0.013661612 0.037878107
0.41594285 -0.012688501 0.037872177
0.41597241 -0.011715386 0.037866246
0.41600198 -0.010742275 0.037860315
0.41603157 -0.009769164 0.037854385
0.4151648 -0.008845211 0.037362654
0.41519442 -0.0078705065 0.037356716
0.41522405 -0.0068958015 0.037350774
0.41525367 -0.0059211003 0.037344836
0.41528329 -0.0049463958 0.037338894
0.41441688 -0.0040128781 0.036847129
0.41444656 -0.0030365833 0.03684118
0.41447625 -0.0020602851 0.036835231
0.4145059 -0.0010839903 0.036829282
0.41453558 -0.00010769199 0.036823332
0.41366947 0.0008353726 0.036331512
0.41369918 0.0018132646 0.036325552
0.41372889 0.002791153 0.036319591
0.41375864 0.003769045 0.036313634
0.41378835 0.0047469335 0.036307674
0.4129225 0.0056995582 0.035815794
0.41295227 0.0066790399 0.035809826
0.41298205 0.0076585221 0.035803854
0.41301182 0.0086380038 0.035797887
0.41304159 0.0096174879 0.035791919
0.41307136 0.01059697 0.035785951
0.41310114 0.011576451 0.035779983
0.41313091 0.012555935 0.035774011
0.41316068 0.013535418 0.035768043
0.41319045 0.0145149 0.035762075
0.41322023 0.015494381 0.035756107
0.41325 0.016473865 0.03575014
0.41327977 0.017453346 0.035744168
0.41330954 0.01843283 0.0357382
0.41333932 0.019412311 0.035732232
0.41336909 0.020391794 0.035726264
0.41429365 0.021371061 0.036206372
0.41432336 0.02234895 0.036200412
0.4143531 0.02332684 0.036194455
0.41438282 0.024304729 0.036188494
0.41441253 0.02528262 0.036182534
0.41444227 0.026260508 0.036176577
0.41447198 0.027238399 0.036170617
0.4145017 0.028216287 0.03616466
0.41453144 0.029194178 0.0361587
0.41456115 0.030172069 0.036152739
0.41459087 0.031149957 0.036146782
0.41462061 0.032127846 0.036140822
0.41465032 0.033105738 0.036134865
0.41468003 0.034083627 0.036128905
0.41470978 0.035061516 0.036122944
0.41473949 0.036039405 0.036116987
0.41387519 0.037042994 0.035624795
0.41390496 0.038022477 0.035618827
0.41393474 0.03900196 0.035612859
0.41396451 0.03998144 0.035606887
0.41399428 0.040960923 0.035600919
0.41402406 0.041940406 0.035594951
0.41405383 0.042919889 0.035588983
0.4140836 0.043899372 0.035583016
0.41321969 0.044917293 0.035090704
0.41324952 0.04589837 0.035084724
0.41327932 0.046879444 0.035078745
0.41330916 0.047860518 0.035072766
0.41333899 0.048841596 0.035066791
0.41336879 0.049822669 0.035060812
0.41339862 0.050803747 0.035054833
0.4156425 -0.042878293 0.037302926
0.41567206 -0.04190518 0.037296996
0.41480473 -0.04103383 0.036804348
0.41483435 -0.040059123 0.03679841
0.41486397 -0.039084423 0.036792468
0.4148936 -0.038109712 0.03678653
0.41492322 -0.037135012 0.036780592
0.41584954 -0.036066514 0.037261415
0.41587913 -0.035093397 0.037255485
0.41590869 -0.034120291 0.037249554
0.41593829 -0.033147175 0.037243627
0.41596785 -0.032174069 0.037237696
0.41599745 -0.031200953 0.037231766
0.41602701 -0.030227838 0.037225835
0.4160566 -0.029254731 0.037219908
0.41608617 -0.028281616 0.037213977
0.41611576 -0.027308501 0.037208047
0.41614532 -0.026335394 0.037202116
0.41617492 -0.025362283 0.037196185
0.41620448 -0.024389172 0.037190259
0.41623405 -0.023416061 0.037184328
0.41626364 -0.02244295 0.037178397
0.4162932 -0.021469835 0.037172467
0.4163228 -0.020496724 0.037166536
0.41635236 -0.019523609 0.037160609
0.41638196 -0.018550498 0.037154678
0.41641152 -0.017577387 0.037148748
0.41644111 -0.016604276 0.037142817
0.415575 -0.015691513 0.03664992
0.41560465 -0.014716808 0.036643982
0.41563427 -0.013742103 0.03663804
0.4156639 -0.012767399 0.036632102
0.41569352 -0.01179269 0.03662616
0.41572315 -0.010817985 0.036620222
0.41575277 -0.0098432843 0.036614284
0.41578239 -0.0088685798 0.036608342
0.41491678 -0.0079414789 0.036115382
0.41494647 -0.0069651799 0.036109433
0.41497615 -0.0059888852 0.036103483
0.4150058 -0.0050125872 0.036097534
0.41503549 -0.004036285 0.036091585
0.41506517 -0.0030599902 0.036085635
0.41419989 -0.0021217375 0.035592612
0.41422963 -0.0011438491 0.035586651
0.41425934 -0.00016596077 0.035580691
0.41428906 0.00081192754 0.035574734
0.4143188 0.0017898196 0.035568774
0.41345382 0.0027376269 0.035075691
0.41348359 0.0037171089 0.035069719
0.41351336 0.0046965908 0.035063751
0.41354313 0.0056760749 0.035057783
0.41357291 0.0066555566 0.035051815
0.41270816 0.007612918 0.034558643
0.412738 0.0085939923 0.034552667
0.4127678 0.0095750699 0.034546688
0.41279763 0.010556144 0.034540709
0.41282743 0.011537218 0.03453473
0.41285726 0.012518294 0.034528751
0.4128871 0.01349937 0.034522776
0.4129169 0.014480444 0.034516796
0.41294673 0.015461519 0.034510817
0.41297653 0.016442595 0.034504838
0.41300637 0.017423671 0.034498859
0.41393018 0.018409345 0.034980189
0.41395995 0.019388828 0.034974221
0.41398969 0.02036831 0.034968253
0.41401947 0.021347793 0.034962285
0.41404924 0.022327274 0.034956314
0.41407901 0.023306757 0.034950346
0.41410878 0.02428624 0.034944378
0.41413856 0.025265723 0.03493841
0.41416833 0.026245205 0.034932442
0.4141981 0.027224686 0.03492647
0.41422787 0.028204169 0.034920502
0.41425765 0.029183652 0.034914535
0.41428742 0.030163134 0.034908567
0.41431719 0.031142617 0.034902595
0.41434696 0.032122098 0.034896627
0.41437674 0.033101581 0.034890659
0.41440651 0.034081064 0.034884691
0.41443628 0.035060547 0.034878723
0.41446605 0.036040027 0.034872752
0.41449583 0.03701951 0.034866784
0.4145256 0.037998993 0.034860816
0.41455537 0.038978476 0.034854848
0.41458514 0.039957959 0.03484888
0.41372204 0.040969472 0.03435538
0.41375187 0.041950546 0.034349401
0.41378167 0.042931624 0.034343421
0.4138115 0.043912698 0.034337442
0.41384134 0.044893771 0.034331463
0.41297859 0.04591484 0.033837933
0.41300845 0.046897508 0.033831947
0.41303831 0.047880176 0.033825956
0.41306818 0.048862845 0.03381997
0.41399044 0.049799148 0.034301572
0.41312793 0.050828181 0.033807993
0.41536307 -0.04300661 0.036061913
0.4153927 -0.042031903 0.036055971
0.41542232 -0.041057199 0.036050033
0.41545194 -0.040082492 0.036044095
0.41548157 -0.039107792 0.036038153
0.41551119 -0.038133081 0.036032215
0.41554081 -0.037158381 0.036026273
0.41557047 -0.036183674 0.036020335
0.41560009 -0.035208963 0.036014397
0.41562971 -0.034234263 0.036008455
0.41565934 -0.033259563 0.036002517
0.41568896 -0.032284856 0.035996575
0.41571859 -0.031310152 0.035990637
0.41574821 -0.030335445 0.035984699
0.41577783 -0.029360743 0.035978757
0.41580746 -0.028386043 0.035972819
0.41583708 -0.027411334 0.035966877
0.41586673 -0.026436625 0.035960939
0.41589636 -0.025461925 0.035955001
0.41592598 -0.02448722 0.035949059
0.4159556 -0.023512516 0.035943121
0.41598523 -0.022537811 0.035937179
0.41601485 -0.021563109 0.035931241
0.41604447 -0.020588405 0.035925303
0.4160741 -0.019613696 0.035919361
0.41610372 -0.018638991 0.035913423
0.41613334 -0.017664287 0.035907481
0.416163 -0.016689582 0.035901543
0.41619262 -0.015714882 0.035895605
0.41532767 -0.014798963 0.035401478
0.41535735 -0.013822668 0.035395529
0.41538703 -0.01284637 0.03538958
0.41541669 -0.011870071 0.035383631
0.41544637 -0.010893773 0.035377681
0.41547605 -0.0099174781 0.035371732
0.41550574 -0.0089411801 0.035365783
0.41553539 -0.0079648858 0.035359833
0.41556507 -0.0069885869 0.035353884
0.41470063 -0.0060567432 0.034859665
0.41473034 -0.005078855 0.034853704
0.41476008 -0.004100963 0.034847744
0.4147898 -0.0031230748 0.034841787
0.41481951 -0.0021451826 0.034835827
0.41484925 -0.0011672943 0.03482987
0.41398513 -0.00022430225 0.034335583
0.41401491 0.00075517973 0.034329616
0.41404468 0.0017346618 0.034323648
0.41407445 0.0027141436 0.03431768
0.41410422 0.0036936256 0.034311708
0.414134 0.0046731075 0.03430574
0.41327015 0.0056272475 0.033811357
0.41329998 0.0066083232 0.033805378
0.41332981 0.0075893966 0.033799399
0.41335961 0.0085704708 0.033793423
0.41338944 0.0095515484 0.033787444
0.41341925 0.010532622 0.033781465
0.41344908 0.011513698 0.033775486
0.41258571 0.012480579 0.033281051
0.41261557 0.013463247 0.033275064
0.41264543 0.014445914 0.033269074
0.41356835 0.015437998 0.033751573
0.41359818 0.016419074 0.033745594
0.41362801 0.017400149 0.033739615
0.41365781 0.018381223 0.03373364
0.41368765 0.019362299 0.033727661
0.41371745 0.020343374 0.033721682
0.41374728 0.021324448 0.033715703
0.41377711 0.022305524 0.033709724
0.41469964 0.023283275 0.034192335
0.41472942 0.024262756 0.034186367
0.41475919 0.025242239 0.034180399
0.41478896 0.026221722 0.034174431
0.41481873 0.027201204 0.034168459
0.41484851 0.028180687 0.034162492
0.41398585 0.02917305 0.033667877
0.41401565 0.030154124 0.033661898
0.41404548 0.0311352 0.033655919
0.41407531 0.032116275 0.03364994
0.41410512 0.033097349 0.033643961
0.41413495 0.034078427 0.033637982
0.41416475 0.0350595 0.033632006
0.41419458 0.036040574 0.033626027
0.41422439 0.037021652 0.033620048
0.41425422 0.038002726 0.033614069
0.41428405 0.0389838 0.03360809
0.41342202 0.039995275 0.033113386
0.41345188 0.040977944 0.033107396
0.41348174 0.041960612 0.03310141
0.4135116 0.04294328 0.033095419
0.4135415 0.043925945 0.033089433
0.41357136 0.044908617 0.033083443
0.41360122 0.045891281 0.033077456
0.41363108 0.046873949 0.03307147
0.41366097 0.047856618 0.033065479
0.41279942 0.048884019 0.032570675
0.4137207 0.049821954 0.033053502
0.41375056 0.050804622 0.033047516
0.41511539 -0.042158686 0.034812521
0.41603991 -0.041080568 0.035295721
0.41517472 -0.040206097 0.034800623
0.41609916 -0.039131161 0.035283841
0.41523409 -0.038253501 0.034788724
0.41526374 -0.037277207 0.034782775
0.41529343 -0.036300912 0.034776825
0.41532311 -0.035324611 0.034770876
0.41535279 -0.034348309 0.034764927
0.41538244 -0.033372011 0.034758978
0.41541213 -0.032395717 0.034753028
0.41544181 -0.031419422 0.034747079
0.41547149 -0.030443121 0.03474113
0.41550115 -0.029466826 0.03473518
0.41553083 -0.028490532 0.034729231
0.41556051 -0.02751423 0.034723282
0.41559017 -0.026537936 0.034717333
0.41561985 -0.025561636 0.034711383
0.41564953 -0.024585342 0.034705434
0.41567922 -0.023609044 0.034699485
0.41570887 -0.02263275 0.034693535
0.41573855 -0.021656452 0.034687586
0.41576824 -0.020680156 0.034681637
0.41579789 -0.019703854 0.034675688
0.41582757 -0.018727556 0.034669738
0.41585726 -0.017751262 0.034663789
0.41588694 -0.016774962 0.03465784
0.41591659 -0.015798667 0.03465189
0.41594627 -0.014822369 0.034645941
0.41597596 -0.013846075 0.034639992
0.41511217 -0.012925417 0.034144606
0.41514191 -0.011947526 0.034138646
0.41517162 -0.010969637 0.034132686
0.41520134 -0.0099917455 0.034126729
0.41523108 -0.0090138568 0.034120768
0.41526079 -0.008035969 0.034114808
0.4152905 -0.0070580803 0.034108851
0.41532025 -0.0060801883 0.034102891
0.41534996 -0.0051023001 0.034096934
0.41448668 -0.0041657132 0.033601448
0.41451645 -0.0031862315 0.03359548
0.41454622 -0.0022067495 0.033589512
0.41457599 -0.0012272674 0.033583544
0.41460574 -0.00024778547 0.033577573
0.41463551 0.00073169649 0.033571605
0.41377252 0.0016794252 0.033076026
0.41380233 0.0026605008 0.03307005
0.41383216 0.0036415765 0.033064071
0.41386196 0.0046226485 0.033058092
0.41389179 0.005603726 0.033052113
0.41392162 0.0065848017 0.033046134
0.413059 0.0075436789 0.032550521
0.41308886 0.0085263466 0.032544535
0.41311872 0.0095090158 0.032538544
0.41314858 0.010491683 0.032532558
0.41317847 0.01147435 0.032526568
0.41320834 0.01245702 0.032520581
0.4132382 0.013439687 0.032514591
0.41326806 0.014422354 0.032508604
0.41329795 0.015405023 0.032502618
0.41332781 0.016387692 0.032496627
0.41335768 0.017370358 0.032490641
0.41338754 0.018353024 0.032484651
0.4134174 0.019335695 0.032478664
0.41344729 0.020318361 0.032472674
0.41347715 0.021301029 0.032466687
0.41439873 0.022282002 0.03295048
0.41442856 0.023263078 0.0329445
0.41445836 0.024244152 0.032938525
0.4144882 0.025225228 0.032932546
0.41451803 0.026206303 0.032926567
0.41454783 0.027187377 0.032920588
0.41457766 0.028168453 0.032914609
0.41460747 0.029149529 0.032908633
0.41374597 0.030145038 0.032412793
0.41377583 0.031127706 0.032406807
0.41380569 0.032110374 0.032400817
0.41383559 0.033093043 0.03239483
0.41386545 0.034075711 0.032388844
0.41389531 0.035058375 0.032382853
0.41392517 0.036041044 0.032376867
0.41395503 0.037023712 0.032370877
0.41398492 0.03800638 0.03236489
0.41401479 0.038989048 0.0323589
0.41404465 0.039971717 0.032352913
0.41407451 0.040954385 0.032346927
0.41321364 0.041970599 0.031850956
0.41324356 0.042954858 0.031844959
0.41327348 0.043939117 0.031838961
0.41330341 0.04492338 0.031832963
0.41333333 0.045907639 0.031826966
0.41336322 0.046891902 0.031820968
0.41339314 0.047876161 0.03181497
0.41342306 0.04886042 0.031808972
0.41345298 0.049844682 0.031802975
0.4134829 0.050828941 0.031796977
0.41573399 -0.042182095 0.034056973
0.41576368 -0.041205801 0.034051023
0.41579333 -0.040229503 0.034045074
0.41582301 -0.039253201 0.034039125
0.4158527 -0.038276907 0.034033176
0.41588238 -0.037300613 0.034027226
0.41591203 -0.036324318 0.034021277
0.41594172 -0.035348017 0.034015328
0.4159714 -0.034371715 0.034009378
0.41600105 -0.033395421 0.034003429
0.41603073 -0.032419126 0.03399748
0.41606042 -0.031442832 0.033991531
0.4160901 -0.030466529 0.033985581
0.41522649 -0.029572986 0.033489123
0.41525623 -0.028595097 0.033483166
0.41528594 -0.027617203 0.033477206
0.41531566 -0.026639314 0.033471249
0.4153454 -0.025661426 0.033465289
0.41537511 -0.024683537 0.033459328
0.41540483 -0.02370565 0.033453371
0.41543457 -0.022727761 0.033447411
0.41546428 -0.021749873 0.033441454
0.41549399 -0.02077198 0.033435494
0.41552374 -0.019794088 0.033429533
0.41555345 -0.018816201 0.033423577
0.41558316 -0.017838309 0.033417616
0.41561291 -0.01686042 0.033411659
0.41564262 -0.015882531 0.033405699
0.41567233 -0.014904643 0.033399738
0.41570207 -0.013926751 0.033393782
0.41573179 -0.012948863 0.033387821
0.41576153 -0.011970971 0.033381864
0.4148989 -0.011045574 0.03288522
0.41492864 -0.010066092 0.032879252
0.41495842 -0.0090866098 0.03287328
0.41498819 -0.0081071286 0.032867312
0.41501796 -0.0071276464 0.032861345
0.41504773 -0.0061481642 0.032855377
0.41507751 -0.0051686824 0.032849409
0.41510728 -0.0041891965 0.032843437
0.41513705 -0.0032097145 0.032837469
0.41427487 -0.0022683952 0.032340698
0.41430467 -0.0012873232 0.032334719
0.41433451 -0.0003062475 0.03232874
0.41436434 0.00067482813 0.032322761
0.41439414 0.0016559038 0.032316782
0.41442397 0.0026369793 0.032310806
0.41356218 0.0035894495 0.03181399
0.41359204 0.0045721149 0.031808004
0.4136219 0.005554786 0.031802014
0.41365176 0.0065374537 0.031796027
0.41368163 0.0075201192 0.031790037
0.41371152 0.008502787 0.03178405
0.41374138 0.0094854562 0.031778064
0.41377124 0.010468123 0.031772073
0.4138011 0.011450791 0.031766087
0.413831 0.01243346 0.031760097
0.41386086 0.013416127 0.03175411
0.41299963 0.014387708 0.031257186
0.41302955 0.01537197 0.031251185
0.41395044 0.016364131 0.031736147
0.41398033 0.017346799 0.031730156
0.4140102 0.018329464 0.03172417
0.41404006 0.019312134 0.03171818
0.41406992 0.020294802 0.031712193
0.41409981 0.021277471 0.031706203
0.41412967 0.022260137 0.031700216
0.41415954 0.023242805 0.03169423
0.4141894 0.024225472 0.031688239
0.41421926 0.02520814 0.031682253
0.41424915 0.026190808 0.031676263
0.41427901 0.027173474 0.031670276
0.41430888 0.028156143 0.03166429
0.41433874 0.029138811 0.031658299
0.41436863 0.030121479 0.031652313
0.41439849 0.031104146 0.031646322
0.41442835 0.032086816 0.031640336
0.41445822 0.03306948 0.031634346
0.41448808 0.034052148 0.031628359
0.41362789 0.035057176 0.03113123
0.41365778 0.036041439 0.031125233
0.41368771 0.037025698 0.031119235
0.41371763 0.03800996 0.031113237
0.41374755 0.038994219 0.031107239
0.41377747 0.039978478 0.031101242
0.41380739 0.040962741 0.031095244
0.41383731 0.041947 0.031089246
0.41386721 0.042931262 0.031083249
0.41389713 0.043915521 0.031077251
0.41392705 0.04489978 0.031071251
0.41395697 0.045884043 0.031065254
0.41398689 0.046868302 0.031059256
0.41401681 0.047852561 0.031053258
0.4140467 0.048836824 0.03104726
0.41407663 0.049821083 0.031041263
0.41410655 0.050805345 0.031035265
0.41545972 -0.042308994 0.032809813
0.41548944 -0.041331112 0.032803856
0.41551915 -0.040353216 0.032797895
0.41554889 -0.039375331 0.032791939
0.4155786 -0.038397443 0.032785978
0.41560832 -0.037419554 0.032780018
0.41563806 -0.036441665 0.032774061
0.41566777 -0.035463769 0.032768101
0.41569749 -0.03448588 0.032762144
0.41572723 -0.033507992 0.032756183
0.41575694 -0.032530103 0.032750223
0.41578665 -0.031552214 0.032744266
0.4158164 -0.03057432 0.032738306
0.41584611 -0.029596431 0.032732349
0.41587582 -0.028618542 0.032726388
0.41590557 -0.027640648 0.032720428
0.41593528 -0.026662759 0.032714471
0.41596502 -0.025684871 0.032708511
0.41599473 -0.024706982 0.032702554
0.41602445 -0.023729093 0.032696594
0.41605419 -0.022751207 0.032690633
0.4160839 -0.021773318 0.032684676
0.41611362 -0.020795425 0.032678716
0.41614336 -0.019817533 0.032672755
0.41528136 -0.018904917 0.032174952
0.41531113 -0.017925436 0.032168984
0.4153409 -0.016945953 0.032163016
0.41537067 -0.015966471 0.032157045
0.41540045 -0.014986989 0.032151077
0.41543019 -0.014007507 0.032145109
0.41545996 -0.013028026 0.032139141
0.41548973 -0.01204854 0.032133173
0.41551951 -0.011069058 0.032127202
0.41554928 -0.010089575 0.032121234
0.41468775 -0.009159442 0.031623296
0.41471758 -0.0081783701 0.031617317
0.41474742 -0.0071972948 0.031611338
0.41477722 -0.0062162192 0.031605359
0.41480705 -0.0052351472 0.031599384
0.41394585 -0.0042954497 0.031101419
0.41397572 -0.0033127842 0.03109543
0.41400561 -0.0023301148 0.031089442
0.41403547 -0.0013474493 0.031083453
0.41406533 -0.00036478002 0.031077465
0.41409519 0.00061788555 0.031071479
0.41412508 0.0016005549 0.03106549
0.41415495 0.0025832204 0.031059502
0.41418481 0.0035658898 0.031053513
0.41421467 0.0045485552 0.031047525
0.41424453 0.0055312263 0.031041536
0.41338393 0.0064900294 0.030543456
0.41341385 0.0074742883 0.030537458
0.41344377 0.0084585482 0.03053146
0.4134737 0.0094428109 0.030525463
0.41350362 0.01042707 0.030519465
0.41353354 0.011411329 0.030513467
0.41356346 0.012395592 0.03050747
0.41359335 0.013379851 0.030501472
0.41362327 0.01436411 0.030495474
0.41365319 0.015348372 0.030489476
0.41368312 0.016332632 0.030483479
0.41371304 0.017316895 0.030477481
0.41374296 0.018301154 0.030471483
0.41377285 0.019285414 0.030465486
0.41380277 0.020269673 0.030459488
0.41383269 0.021253934 0.030453488
0.41386262 0.022238195 0.030447491
0.41389254 0.023222456 0.030441493
0.41392246 0.024206715 0.030435495
0.41395238 0.025190976 0.030429497
0.41398227 0.026175236 0.0304235
0.41401219 0.027159497 0.030417502
0.41404212 0.028143756 0.030411504
0.41407204 0.029128017 0.030405506
0.41410196 0.030112278 0.030399509
0.41413188 0.031096539 0.030393511
0.41416177 0.032080799 0.030387513
0.41419169 0.033065058 0.030381516
0.41422161 0.034049317 0.030375518
0.41425154 0.03503358 0.03036952
0.41428146 0.036017839 0.030363522
0.41431138 0.037002102 0.030357525
0.4143413 0.03798636 0.030351527
0.41348234 0.038999312 0.029853115
0.41351229 0.039985165 0.029847108
0.41354227 0.040971018 0.029841101
0.41357222 0.041956872 0.029835094
0.4136022 0.042942725 0.029829085
0.41363215 0.043928578 0.029823078
0.41366214 0.044914432 0.029817071
0.41369209 0.045900285 0.029811064
0.41372204 0.046886139 0.029805055
0.41375202 0.047871988 0.029799048
0.41378197 0.048857845 0.029793041
0.41381195 0.049843695 0.029787034
0.4138419 0.050829548 0.029781025
0.41610906 -0.041354559 0.032047078
0.41613877 -0.040376663 0.032041118
0.41616848 -0.039398775 0.032035161
0.41619822 -0.038420886 0.0320292
0.41622794 -0.037442997 0.032023244
0.41625765 -0.036465108 0.032017283
0.41628739 -0.035487212 0.032011323
0.41631711 -0.034509327 0.032005366
0.41634685 -0.033531439 0.031999405
0.41637656 -0.03255355 0.031993449
0.41640627 -0.031575661 0.031987488
0.41554472 -0.030682188 0.031488571
0.41557446 -0.029702706 0.031482603
0.41560423 -0.028723223 0.031476635
0.41563401 -0.027743742 0.031470668
0.41566378 -0.026764261 0.031464696
0.41569355 -0.025784777 0.031458728
0.41572332 -0.024805296 0.03145276
0.4157531 -0.023825813 0.031446792
0.41578287 -0.022846332 0.031440821
0.41581264 -0.021866851 0.031434853
0.41584241 -0.020887367 0.031428885
0.41587219 -0.019907882 0.031422917
0.41590196 -0.018928399 0.031416949
0.41593173 -0.017948918 0.031410977
0.4159615 -0.016969437 0.031405009
0.41510066 -0.016050493 0.030905906
0.41513047 -0.015069418 0.030899929
0.4151603 -0.014088342 0.03089395
0.4151901 -0.01310727 0.030887971
0.41521993 -0.012126191 0.030881993
0.41524976 -0.011145115 0.030876014
0.41438928 -0.010215018 0.030376876
0.41441914 -0.0092323516 0.030370887
0.41444904 -0.0082496824 0.030364899
0.4144789 -0.0072670169 0.030358911
0.41450876 -0.0062843477 0.030352922
0.41453862 -0.0053016823 0.030346936
0.41456851 -0.0043190094 0.030340947
0.41459838 -0.0033363437 0.030334959
0.41462824 -0.0023536743 0.03032897
0.4146581 -0.0013710088 0.030322982
0.41468796 -0.00038833948 0.030316994
0.4138281 0.0005608669 0.029817738
0.413858 0.0015451299 0.02981174
0.41388792 0.002529389 0.029805742
0.41391784 0.0035136484 0.029799744
0.41394776 0.0044979076 0.029793747
0.41397768 0.0054821707 0.029787749
0.4140076 0.0064664315 0.029781751
0.4140375 0.007450691 0.029775754
0.41406742 0.0084349504 0.029769756
0.41409734 0.009419213 0.029763758
0.41412726 0.010403472 0.02975776
0.41326797 0.011371793 0.029258387
0.41329792 0.012357648 0.02925238
0.4133279 0.013343499 0.029246373
0.41335785 0.014329351 0.029240366
0.41338784 0.015315205 0.029234357
0.41341779 0.01630106 0.02922835
0.41344774 0.017286912 0.029222343
0.41347772 0.018272763 0.029216336
0.41350767 0.019258618 0.029210327
0.41353765 0.02024447 0.02920432
0.4135676 0.021230323 0.029198313
0.41448626 0.022214597 0.029685786
0.41451618 0.023198858 0.029679788
0.4145461 0.024183117 0.029673791
0.41457602 0.025167378 0.029667793
0.41460595 0.026151638 0.029661795
0.4137474 0.027145442 0.029162267
0.41377738 0.028131295 0.02915626
0.41380733 0.029117147 0.029150253
0.41383731 0.030103 0.029144246
0.41386726 0.031088853 0.029138237
0.41389725 0.032074705 0.02913223
0.4139272 0.033060558 0.029126223
0.41395715 0.034046412 0.029120214
0.41398713 0.035032265 0.029114207
0.41401708 0.036018118 0.0291082
0.41404706 0.037003972 0.029102193
0.41407701 0.037989825 0.029096184
0.41410699 0.038975678 0.029090177
0.41413695 0.039961532 0.02908417
0.41416693 0.040947385 0.029078163
0.41419688 0.041933235 0.029072154
0.41333917 0.042954113 0.028572462
0.41336921 0.043941561 0.028566446
0.41339922 0.044929005 0.028560428
0.41342923 0.045916449 0.028554412
0.41345924 0.046903897 0.028548393
0.41437668 0.047848355 0.02903611
0.41440666 0.048834208 0.029030103
0.41443661 0.049820062 0.029024094
0.41446656 0.050805915 0.029018087
0.41580808 -0.042459462 0.030802179
0.41583785 -0.041479979 0.030796211
0.41586763 -0.040500499 0.030790243
0.4158974 -0.039521016 0.030784274
0.41592717 -0.038541533 0.030778306
0.41595694 -0.037562054 0.030772336
0.41598672 -0.036582571 0.030766368
0.41601649 -0.03560308 0.030760398
0.41604623 -0.034623601 0.03075443
0.416076 -0.033644117 0.030748462
0.41610578 -0.032664634 0.030742493
0.41613555 -0.031685155 0.030736525
0.41616532 -0.030705672 0.030730555
0.41619509 -0.029726189 0.030724587
0.41622487 -0.028746707 0.030718619
0.41625464 -0.027767226 0.030712649
0.41628441 -0.026787743 0.030706681
0.41542408 -0.025884764 0.030206447
0.41545391 -0.024903689 0.030200468
0.41548371 -0.023922617 0.030194489
0.41551355 -0.022941541 0.030188512
0.41554338 -0.021960465 0.030182533
0.41557318 -0.02097939 0.030176556
0.41560301 -0.01999831 0.030170577
0.41563281 -0.019017238 0.030164598
0.41566265 -0.018036162 0.03015862
0.41569248 -0.017055087 0.030152641
0.41483271 -0.016134586 0.029652327
0.4148626 -0.015151916 0.029646339
0.41489246 -0.014169251 0.02964035
0.41492233 -0.013186585 0.029634362
0.41495219 -0.012203912 0.029628374
0.41498208 -0.011221243 0.029622387
0.41501194 -0.010238578 0.029616399
0.41415256 -0.0093053346 0.029116007
0.41418248 -0.0083210748 0.029110009
0.41421241 -0.0073368121 0.029104011
0.41424233 -0.0063525531 0.029098013
0.41427225 -0.0053682937 0.029092016
0.41430217 -0.0043840311 0.029086016
0.41433209 -0.0033997716 0.029080018
0.41436198 -0.0024155087 0.029074021
0.41439191 -0.0014312494 0.029068023
0.41442183 -0.00044699016 0.029062025
0.41445175 0.00053726905 0.029056028
0.41448167 0.0015215321 0.02905003
0.41451159 0.0025057911 0.029044032
0.41454148 0.0034900506 0.029038034
0.4145714 0.0044743097 0.029032037
0.41460133 0.0054585729 0.029026039
0.41374281 0.0064188926 0.028525481
0.41377276 0.0074047437 0.028519474
0.41380271 0.0083905971 0.028513467
0.41383269 0.0093764514 0.02850746
0.41386265 0.010362305 0.028501451
0.41389263 0.011348157 0.028495444
0.41392258 0.012334012 0.028489437
0.41395256 0.013319863 0.02848343
0.41398251 0.014305715 0.028477421
0.41401249 0.015291569 0.028471414
0.41404244 0.016277423 0.028465407
0.41407242 0.017263277 0.0284594
0.41410238 0.018249128 0.028453391
0.41413236 0.019234981 0.028447384
0.41416231 0.020220833 0.028441377
0.41419229 0.021206688 0.02843537
0.41422224 0.02219254 0.028429361
0.41425222 0.023178393 0.028423354
0.41428217 0.024164246 0.028417347
0.41431212 0.0251501 0.028411338
0.41434211 0.026135953 0.028405331
0.41437206 0.027121805 0.028399324
0.41440204 0.028107658 0.028393317
0.41443199 0.029093511 0.028387308
0.41446197 0.030079365 0.028381301
0.41449192 0.031065218 0.028375294
0.4145219 0.032051072 0.028369287
0.41366473 0.033055983 0.027868457
0.41369474 0.034043428 0.027862441
0.41372475 0.035030875 0.027856423
0.41375476 0.036018319 0.027850406
0.41378477 0.037005767 0.027844388
0.41381478 0.037993211 0.027838372
0.41384479 0.038980659 0.027832353
0.4138748 0.039968103 0.027826337
0.41390482 0.040955547 0.027820319
0.41393483 0.041942995 0.027814303
0.41396487 0.042930439 0.027808284
0.41399488 0.043917887 0.027802268
0.41402489 0.044905331 0.027796252
0.4140549 0.045892775 0.027790233
0.41408491 0.046880223 0.027784217
0.41411492 0.047867667 0.027778199
0.41414493 0.048855115 0.027772183
0.41417494 0.049842559 0.027766164
0.41420496 0.050830007 0.027760148
0.41645846 -0.041503463 0.030038206
0.41648823 -0.04052398 0.030032238
0.416518 -0.0395445 0.030026268
0.41654778 -0.038565017 0.0300203
0.41657755 -0.037585534 0.030014332
0.41660732 -0.036606055 0.030008363
0.41574752 -0.035719037 0.029506987
0.41666687 -0.034647081 0.029996425
0.41580716 -0.033756886 0.029495031
0.41672641 -0.032688119 0.029984487
0.41586679 -0.031794734 0.029483072
0.41589662 -0.030813659 0.029477095
0.41592643 -0.029832583 0.029471116
0.41595626 -0.028851515 0.029465139
0.41598609 -0.027870433 0.02945916
0.41601589 -0.026889358 0.029453181
0.41604573 -0.025908286 0.029447204
0.41607553 -0.02492721 0.029441224
0.41610536 -0.023946138 0.029435245
0.41524628 -0.023036819 0.028933773
0.41527614 -0.022054153 0.028927784
0.41530603 -0.021071484 0.028921796
0.41533589 -0.020088814 0.028915808
0.41536576 -0.019106146 0.028909819
0.41539562 -0.01812348 0.028903831
0.41542551 -0.017140811 0.028897844
0.41545537 -0.016158145 0.028891856
0.41548523 -0.015175476 0.028885867
0.41551509 -0.01419281 0.028879879
0.41465655 -0.013265977 0.028378293
0.41468647 -0.012281709 0.028372295
0.41471639 -0.01129745 0.028366297
0.41474631 -0.010313191 0.0283603
0.41477624 -0.0093289325 0.028354302
0.41480616 -0.0083446726 0.028348304
0.41394794 -0.0074066874 0.027846649
0.41397792 -0.0064208345 0.027840642
0.41400787 -0.0054349815 0.027834633
0.41403782 -0.0044491249 0.027828626
0.4140678 -0.003463272 0.027822619
0.41409776 -0.0024774191 0.027816612
0.41412774 -0.00149157 0.027810603
0.41415769 -0.00050571706 0.027804596
0.41418767 0.00048013579 0.027798589
0.41421762 0.0014659924 0.02779258
0.4142476 0.0024518452 0.027786573
0.41427755 0.0034376981 0.027780566
0.41430753 0.0044235475 0.027774559
0.41433749 0.0054094042 0.02776855
0.41436747 0.0063952571 0.027762543
0.41439742 0.0073811081 0.027756536
0.4144274 0.008366961 0.027750529
0.41357005 0.0093336133 0.027248699
0.41360006 0.01032106 0.027242683
0.41363007 0.011308505 0.027236665
0.41366011 0.012295951 0.027230648
0.41369012 0.013283396 0.02722463
0.41372013 0.014270843 0.027218614
0.41375014 0.015258287 0.027212596
0.41378015 0.016245734 0.027206579
0.41381016 0.017233178 0.027200561
0.41384017 0.018220626 0.027194545
0.41387019 0.019208072 0.027188526
0.4139002 0.020195516 0.02718251
0.41393021 0.021182962 0.027176492
0.41396025 0.022170406 0.027170476
0.41399026 0.023157854 0.027164459
0.41402027 0.0241453 0.027158441
0.41405028 0.025132744 0.027152425
0.41408029 0.02612019 0.027146406
0.4141103 0.027107636 0.02714039
0.41414031 0.028095081 0.027134372
0.41417032 0.029082526 0.027128356
0.41420034 0.030069971 0.027122337
0.41423035 0.031057417 0.027116321
0.41426036 0.032044865 0.027110303
0.4142904 0.033032309 0.027104286
0.41432041 0.034019753 0.027098268
0.41435042 0.035007201 0.027092252
0.41438043 0.035994645 0.027086234
0.41441044 0.036982093 0.027080217
0.41444045 0.037969537 0.027074199
0.41447046 0.038956985 0.027068183
0.41450047 0.039944429 0.027062166
0.41453049 0.040931873 0.027056148
0.4145605 0.041919321 0.027050132
0.41370481 0.042941716 0.026547937
0.41373488 0.043930754 0.026541909
0.41376495 0.044919793 0.026535882
0.41379499 0.045908831 0.026529856
0.41471058 0.046856549 0.027020045
0.41474059 0.047843993 0.027014028
0.4147706 0.048831441 0.02700801
0.41480061 0.049818885 0.027001994
0.41483063 0.050806332 0.026995976
0.41622007 -0.040647931 0.028777635
0.41624987 -0.039666861 0.028771657
0.4162797 -0.038685787 0.028765678
0.41630951 -0.03770471 0.028759699
0.41633934 -0.036723636 0.028753722
0.41636917 -0.035742559 0.028747743
0.41639897 -0.034761485 0.028741764
0.4164288 -0.033780407 0.028735787
0.41557026 -0.032887056 0.028233171
0.41560012 -0.031904388 0.028227182
0.41562998 -0.030921718 0.028221194
0.41565984 -0.029939057 0.028215205
0.41568971 -0.028956387 0.028209217
0.4157196 -0.027973717 0.02820323
0.41574946 -0.026991049 0.028197242
0.41577932 -0.026008379 0.028191254
0.41580918 -0.025025714 0.028185265
0.41583908 -0.024043044 0.028179277
0.41586894 -0.02306038 0.028173288
0.4158988 -0.022077713 0.028167302
0.41592866 -0.021095043 0.028161313
0.41595852 -0.020112375 0.028155325
0.41510072 -0.01919513 0.027652569
0.41513062 -0.018210871 0.027646571
0.41516054 -0.017226612 0.027640574
0.41519046 -0.016242351 0.027634576
0.41522038 -0.015258092 0.027628578
0.4152503 -0.014273833 0.027622581
0.41528022 -0.013289575 0.027616583
0.41531014 -0.012305307 0.027610585
0.41445273 -0.011373735 0.027107736
0.41448271 -0.010387882 0.027101727
0.41451266 -0.0094020292 0.02709572
0.41454265 -0.0084161758 0.027089713
0.4145726 -0.0074303234 0.027083704
0.41460258 -0.0064444705 0.027077697
0.41463253 -0.0054586176 0.02707169
0.41466251 -0.0044727609 0.027065683
0.41469246 -0.003486908 0.027059674
0.41472244 -0.0025010551 0.027053667
0.41475239 -0.0015152061 0.02704766
0.41478238 -0.00052935316 0.027041653
0.41481233 0.00045649975 0.027035644
0.41484231 0.0014423564 0.027029637
0.41487226 0.0024282092 0.02702363
0.41401565 0.0033852656 0.026520627
0.41404566 0.0043727085 0.026514608
0.41407567 0.0053601568 0.026508592
0.41410568 0.0063476032 0.026502574
0.41413569 0.0073350482 0.026496558
0.41416571 0.0083224932 0.026490539
0.41419572 0.0093099391 0.026484523
0.41422576 0.010297386 0.026478505
0.41425577 0.011284831 0.026472488
0.41339958 0.012257815 0.02596936
0.41342965 0.013246852 0.025963334
0.41345969 0.01423589 0.025957307
0.41348976 0.015224929 0.025951279
0.41351983 0.016213968 0.025945252
0.41354987 0.017203005 0.025939226
0.41357994 0.018192044 0.025933199
0.41361001 0.019181082 0.025927171
0.41364008 0.020170121 0.025921145
0.41367012 0.021159159 0.025915118
0.41370019 0.022148198 0.02590909
0.41373026 0.023137236 0.025903065
0.41464594 0.024121625 0.026394265
0.41467595 0.025109069 0.026388247
0.41470596 0.026096515 0.02638223
0.41385052 0.02709339 0.025878957
0.41388056 0.028082429 0.025872929
0.41391063 0.029071467 0.025866903
0.4139407 0.030060504 0.025860876
0.41397077 0.031049542 0.025854848
0.41400081 0.032038581 0.025848823
0.41403088 0.033027619 0.025842795
0.41406095 0.034016658 0.025836768
0.41409099 0.035005696 0.02583074
0.41412106 0.035994735 0.025824714
0.41415113 0.036983773 0.025818687
0.4141812 0.037972812 0.025812659
0.41421124 0.03896185 0.025806634
0.41424131 0.039950889 0.025800606
0.41427138 0.040939927 0.025794579
0.41430143 0.041928966 0.025788553
0.4143315 0.042918004 0.025782526
0.41436157 0.043907043 0.025776498
0.41439164 0.044896081 0.025770472
0.41442168 0.04588512 0.025764445
0.41445175 0.046874158 0.025758417
0.41536626 0.047820318 0.02624985
0.41451186 0.048852235 0.025746364
0.41454193 0.049841274 0.025740337
0.41595393 -0.040771957 0.027520604
0.4159838 -0.039789286 0.027514616
0.41601369 -0.038806625 0.027508628
0.41604355 -0.037823956 0.027502639
0.41607341 -0.036841284 0.027496651
0.41610327 -0.035858616 0.027490662
0.41613314 -0.034875948 0.027484676
0.41616303 -0.03389328 0.027478687
0.41619289 -0.032910615 0.027472699
0.41622275 -0.031927947 0.027466711
0.41625261 -0.030945277 0.027460722
0.4162825 -0.029962616 0.027454734
0.41631237 -0.028979946 0.027448745
0.41634223 -0.027997278 0.027442759
0.41637209 -0.027014608 0.02743677
0.41551495 -0.026108554 0.026932849
0.41554487 -0.025124295 0.026926851
0.41557479 -0.02414003 0.026920853
0.41560468 -0.023155771 0.026914855
0.4156346 -0.022171512 0.026908858
0.41566452 -0.021187253 0.02690286
0.41569445 -0.020202991 0.026896862
0.41572437 -0.019218728 0.026890865
0.41575429 -0.018234469 0.026884867
0.41578421 -0.017250208 0.026878869
0.4158141 -0.016265949 0.026872871
0.41495755 -0.015340783 0.026368827
0.4149875 -0.014354929 0.02636282
0.41501749 -0.013369081 0.026356813
0.41504744 -0.01238322 0.026350806
0.41507742 -0.011397371 0.026344797
0.41510737 -0.010411518 0.02633879
0.41425115 -0.0094752023 0.025834678
0.41428116 -0.0084877564 0.025828661
0.41431117 -0.0075003132 0.025822643
0.41434118 -0.0065128664 0.025816627
0.41437119 -0.00552542 0.025810609
0.4144012 -0.0045379736 0.025804592
0.41443121 -0.0035505269 0.025798574
0.41446123 -0.0025630803 0.025792558
0.41449124 -0.0015756375 0.02578654
0.41452125 -0.00058819097 0.025780523
0.41455129 0.00039925185 0.025774507
0.4145813 0.0013867022 0.025768489
0.41461131 0.002374145 0.025762472
0.41464132 0.0033615916 0.025756454
0.41467133 0.0043490343 0.025750438
0.41470134 0.0053364825 0.02574442
0.41473135 0.0063239294 0.025738403
0.41476136 0.0073113739 0.025732385
0.41390601 0.0082779462 0.025228063
0.41393608 0.0092669865 0.025222037
0.41396612 0.010256025 0.025216009
0.41399619 0.011245064 0.025209982
0.41402626 0.012234103 0.025203956
0.4140563 0.01322314 0.025197929
0.41408637 0.014212178 0.025191901
0.41323146 0.015191494 0.024687534
0.41326156 0.016182126 0.024681497
0.41329166 0.017172758 0.024675461
0.41332179 0.018163389 0.024669424
0.41335189 0.01915402 0.024663387
0.41426674 0.020146409 0.02515574
0.41429681 0.021135448 0.025149714
0.41432688 0.022124484 0.025143687
0.41435695 0.023113525 0.025137659
0.41438699 0.024102561 0.025131632
0.41441706 0.025091602 0.025125606
0.41444713 0.02608064 0.025119578
0.4144772 0.027069679 0.025113551
0.41450724 0.028058715 0.025107525
0.41453731 0.029047754 0.025101498
0.41456738 0.030036792 0.02509547
0.41459742 0.031025831 0.025089445
0.41462749 0.032014869 0.025083417
0.41465756 0.033003908 0.02507739
0.41468763 0.033992946 0.025071364
0.41471767 0.034981985 0.025065336
0.41474774 0.035971023 0.025059309
0.41477782 0.036960062 0.025053283
0.41480786 0.0379491 0.025047256
0.41483793 0.038938139 0.025041228
0.414868 0.039927177 0.025035203
0.41489807 0.040916216 0.025029175
0.41492811 0.041905254 0.025023147
0.41495818 0.042894293 0.025017122
0.41498825 0.043883331 0.025011094
0.41501829 0.04487237 0.025005067
0.41504836 0.045861408 0.024999039
0.41507843 0.046850447 0.024993014
0.4151085 0.047839481 0.024986986
0.41513854 0.048828524 0.024980959
0.41516861 0.049817558 0.024974933
0.41657659 -0.040795516 0.026760126
0.41660646 -0.039812848 0.026754139
0.41663632 -0.038830183 0.026748151
0.41666618 -0.037847515 0.026742162
0.41669607 -0.036864847 0.026736174
0.41672593 -0.035882175 0.026730185
0.41586936 -0.034990497 0.026225112
0.41589928 -0.034006234 0.026219115
0.41681552 -0.032934178 0.026712222
0.41595909 -0.032037713 0.026207119
0.41598901 -0.031053452 0.026201122
0.41601893 -0.030069195 0.026195124
0.41604885 -0.029084932 0.026189126
0.41607878 -0.028100669 0.026183128
0.4161087 -0.027116407 0.026177131
0.41613859 -0.026132151 0.026171133
0.41616851 -0.025147893 0.026165135
0.41619843 -0.02416363 0.026159137
0.41534248 -0.023251245 0.025653943
0.41537246 -0.022265393 0.025647936
0.41540241 -0.02127954 0.025641929
0.41543239 -0.020293683 0.02563592
0.41546234 -0.019307829 0.025629913
0.4154923 -0.018321978 0.025623906
0.41552228 -0.017336125 0.025617899
0.41555223 -0.016350271 0.02561189
0.41558221 -0.015364419 0.025605883
0.41561216 -0.014378565 0.025599876
0.41564214 -0.013392717 0.025593868
0.41478676 -0.012461212 0.025088552
0.4148168 -0.011473767 0.025082536
0.41484681 -0.01048632 0.025076518
0.41487682 -0.0094988765 0.025070501
0.41490683 -0.0085114306 0.025064483
0.41493684 -0.0075239874 0.025058467
0.41496685 -0.006536541 0.025052449
0.41499686 -0.0055490942 0.025046432
0.41502687 -0.0045616478 0.025040414
0.41505688 -0.0035742011 0.025034398
0.4150869 -0.0025867547 0.02502838
0.41511694 -0.0015993118 0.025022363
0.41426212 -0.00064711133 0.024516895
0.41429219 0.00034192888 0.024510868
0.41432226 0.001330969 0.024504842
0.41435233 0.0023200056 0.024498815
0.41438237 0.003309042 0.024492787
0.41441244 0.0042980821 0.024486762
0.41444251 0.0052871206 0.024480734
0.41447255 0.0062761591 0.024474707
0.41450262 0.0072651971 0.024468679
0.41453269 0.0082542337 0.024462653
0.41456276 0.0092432741 0.024456626
0.4145928 0.010232313 0.024450598
0.4137387 0.01120522 0.023945037
0.4137688 0.012195852 0.023939
0.41379893 0.013186484 0.023932964
0.41382903 0.014177114 0.023926927
0.41385913 0.015167744 0.02392089
0.41388926 0.016158376 0.023914853
0.41391936 0.017149007 0.023908816
0.41394946 0.018139638 0.023902781
0.41397959 0.019130269 0.023896744
0.41400969 0.020120898 0.023890708
0.41403979 0.021111531 0.023884671
0.41406992 0.022102162 0.023878634
0.41410002 0.023092793 0.023872597
0.41413015 0.024083424 0.02386656
0.41416025 0.025074055 0.023860523
0.41419035 0.026064686 0.023854487
0.41422048 0.027055316 0.023848452
0.41425058 0.028045947 0.023842415
0.41428068 0.029036578 0.023836378
0.41431081 0.030027209 0.023830341
0.41434091 0.03101784 0.023824304
0.41437101 0.032008473 0.023818268
0.41440114 0.032999102 0.023812231
0.41443124 0.033989735 0.023806194
0.41446134 0.034980364 0.023800157
0.41449147 0.035970997 0.02379412
0.41452157 0.036961626 0.023788085
0.41455168 0.037952259 0.023782048
0.41458181 0.038942888 0.023776012
0.41461191 0.039933521 0.023769975
0.41464201 0.04092415 0.023763938
0.41467214 0.041914783 0.023757901
0.41470224 0.042905413 0.023751864
0.41473234 0.043896046 0.023745827
0.41476247 0.044886675 0.023739791
0.41567504 0.045837693 0.02423363
0.41570511 0.046826731 0.024227602
0.41573519 0.04781577 0.024221575
0.41634342 -0.039935391 0.025493396
0.41637334 -0.038951136 0.025487399
0.41640323 -0.037966873 0.025481401
0.41643316 -0.036982611 0.025475403
0.41646308 -0.035998348 0.025469406
0.416493 -0.035014093 0.025463408
0.41652292 -0.03402983 0.02545741
0.41655284 -0.033045575 0.025451412
0.41658276 -0.032061312 0.025445415
0.41661265 -0.03107705 0.025439417
0.41664258 -0.030092793 0.025433419
0.41578734 -0.029190002 0.02492705
0.41581732 -0.028204137 0.024921043
0.41584727 -0.02721829 0.024915036
0.41587725 -0.026232436 0.024909029
0.4159072 -0.025246583 0.02490302
0.41593719 -0.02426073 0.024897013
0.41596714 -0.023274882 0.024891006
0.41599712 -0.022289028 0.024884999
0.41602707 -0.021303175 0.02487899
0.41605705 -0.020317318 0.024872983
0.416087 -0.019331466 0.024866976
0.41523236 -0.018409561 0.024360491
0.41526237 -0.017422115 0.024354473
0.41529238 -0.016434669 0.024348456
0.41532239 -0.015447226 0.024342438
0.4153524 -0.014459779 0.024336422
0.41538242 -0.013472337 0.024330404
0.41541243 -0.012484887 0.024324387
0.41544244 -0.01149744 0.024318369
0.41547245 -0.010509994 0.024312353
0.41461825 -0.0095721669 0.023805739
0.41464829 -0.0085831303 0.023799712
0.41467836 -0.00759409 0.023793684
0.41470844 -0.0066050533 0.023787659
0.41473851 -0.0056160172 0.023781631
0.41476855 -0.0046269731 0.023775604
0.41479862 -0.0036379367 0.023769578
0.41482869 -0.0026488963 0.02376355
0.41485873 -0.0016598599 0.023757523
0.4148888 -0.00067082344 0.023751497
0.41491887 0.00031821677 0.02374547
0.41494894 0.001307257 0.023739442
0.41497898 0.0022962934 0.023733415
0.41500905 0.00328533 0.023727389
0.41503912 0.0042743701 0.023721362
0.41418573 0.0052376846 0.02321462
0.41421583 0.0062283147 0.023208583
0.41424593 0.0072189448 0.023202546
0.41427606 0.008209575 0.023196509
0.41430616 0.0092002088 0.023190472
0.41433626 0.010190839 0.023184435
0.41436639 0.011181469 0.023178399
0.41351339 0.012157526 0.022671584
0.41354355 0.013149749 0.022665538
0.41357371 0.014141971 0.022659492
0.41360387 0.015134195 0.022653446
0.41363403 0.01612642 0.022647399
0.41366416 0.017118642 0.022641351
0.41369432 0.018110868 0.022635305
0.41372448 0.019103091 0.022629259
0.41375464 0.020095315 0.022623213
0.4137848 0.021087538 0.022617167
0.41381496 0.02207976 0.022611121
0.41384512 0.023071986 0.022605075
0.41475782 0.024059674 0.023099924
0.41478795 0.025050305 0.023093887
0.41481805 0.026040936 0.02308785
0.41484815 0.027031565 0.023081813
0.41487828 0.028022196 0.023075776
0.41490838 0.029012827 0.023069739
0.41493848 0.030003458 0.023063703
0.41496861 0.030994089 0.023057666
0.41499871 0.03198472 0.023051629
0.41414672 0.032994222 0.022544611
0.41417688 0.033986446 0.022538565
0.41420704 0.034978669 0.022532519
0.41511914 0.035947245 0.023027483
0.41514927 0.036937878 0.023021447
0.41429752 0.03795534 0.022514379
0.41520947 0.03891914 0.023009373
0.4152396 0.039909769 0.023003336
0.4152697 0.040900402 0.022997299
0.4152998 0.041891031 0.022991262
0.41532993 0.042881664 0.022985227
0.41536003 0.043872293 0.022979191
