# .PCD v0.7 - Point Cloud Data file format
VERSION 0.7
FIELDS x y z
SIZE 4 4 4
TYPE F F F
COUNT 1 1 1
WIDTH 1405
HEIGHT 1
VIEWPOINT 0 0 0 1 0 0 0
POINTS 1405
DATA ascii
0.52007467 0.13457534 0.047920864
0.51925844 0.13563134 0.047371648
0.51928401 0.13647224 0.047366522
0.51930958 0.13731317 0.0473614
0.51933509 0.13815409 0.047356274
0.50048798 0.085949309 0.035599008
0.50051457 0.08682368 0.035593677
0.50054115 0.08769805 0.03558835
0.50056767 0.088572413 0.035583023
0.50059426 0.089446783 0.035577692
0.50146431 0.090195313 0.036117151
0.5023343 0.090940662 0.036656622
0.50236076 0.091811843 0.036651313
0.50323063 0.092552416 0.037190851
0.50410038 0.0932898 0.03773037
0.50497001 0.094024003 0.038269915
0.50499636 0.094890408 0.038264632
0.50586581 0.095619828 0.0388042
0.5058921 0.096484639 0.038798932
0.50676143 0.097209282 0.039338533
0.50678772 0.098072499 0.039333273
0.50765693 0.098792367 0.039872937
0.5076831 0.099653989 0.039867688
0.50855219 0.10036908 0.040407341
0.5085783 0.10122911 0.040402099
0.50860447 0.10208915 0.040396858
0.50947332 0.10279787 0.040936556
0.50949937 0.10365631 0.040931325
0.50952548 0.10451475 0.040926095
0.51039416 0.10521709 0.04146583
0.5104202 0.10607395 0.041460607
0.51044625 0.10693079 0.041455388
0.51131475 0.10762677 0.041995194
0.51134074 0.10848201 0.041989982
0.51136672 0.10933727 0.04198477
0.51223505 0.11002688 0.042524584
0.51226097 0.11088054 0.042519379
0.51312912 0.11156537 0.043059222
0.51315498 0.11241744 0.043054029
0.51402301 0.1130975 0.043593902
0.51404881 0.11394797 0.04358872
0.51491666 0.11462324 0.044128619
0.51494247 0.11547213 0.044123448
0.51581019 0.11614262 0.044663407
0.51583594 0.11698991 0.044658244
0.51670349 0.11765563 0.045198206
0.51672924 0.11850132 0.04519305
0.51675493 0.11934702 0.045187898
0.51762229 0.12000638 0.045727894
0.51764792 0.12085048 0.045722753
0.51851517 0.12150504 0.046262778
0.51854074 0.12234756 0.046257645
0.51856637 0.12319008 0.046252508
0.51859194 0.12403259 0.046247374
0.51945901 0.12467919 0.046787485
0.51948452 0.12552011 0.046782359
0.51951009 0.12636103 0.046777237
0.51953566 0.12720194 0.046772111
0.52040237 0.12784059 0.047312237
0.52042788 0.12867992 0.047307122
0.52045339 0.12951925 0.047302008
0.5204789 0.13035858 0.047296893
0.52050442 0.13119791 0.047291778
0.52052993 0.13203724 0.047286663
0.52055544 0.13287657 0.047281548
0.52058095 0.1337159 0.047276434
0.52060646 0.13455522 0.047271319
0.51979125 0.13561118 0.04672087
0.51981682 0.13645208 0.046715744
0.51984239 0.13729301 0.046710622
0.51986796 0.13813393 0.046705496
0.50104201 0.085928343 0.034922343
0.50106859 0.086802714 0.034917016
0.50109512 0.087677084 0.034911688
0.5011217 0.088551454 0.034906358
0.5019908 0.089301616 0.035447035
0.50201738 0.090174392 0.035441715
0.5028863 0.090919778 0.035982423
0.50291282 0.091790959 0.035977114
0.50378168 0.092531562 0.036517881
0.50380808 0.093401156 0.03651258
0.50467676 0.094136991 0.037053347
0.50554532 0.094869636 0.037594132
0.50641382 0.095599093 0.038134933
0.5064401 0.096463904 0.038129661
0.50646639 0.097328715 0.038124394
0.50733465 0.098051809 0.038665235
0.50736088 0.098915026 0.038659975
0.5073871 0.099778242 0.038654715
0.50825524 0.10049496 0.039195627
0.50828147 0.10135658 0.039190378
0.50914937 0.10206853 0.039731286
0.50917554 0.10292856 0.039726045
0.50920165 0.10378859 0.039720807
0.51006943 0.10449417 0.040261753
0.51009554 0.1053526 0.040256523
0.51012158 0.10621105 0.040251289
0.51098919 0.10691025 0.040792279
0.51101524 0.1077671 0.040787056
0.51104122 0.10862394 0.040781837
0.51190865 0.10931677 0.041322894
0.51193464 0.11017203 0.041317683
0.51280189 0.11086007 0.04185874
0.51282781 0.11171374 0.041853536
0.51369488 0.11239701 0.042394623
0.51372081 0.11324909 0.04238943
0.5145877 0.11392757 0.04293054
0.51461357 0.11477806 0.042925358
0.51548034 0.11545178 0.043466501
0.51550615 0.11630066 0.04346133
0.51637286 0.1169696 0.044002533
0.51639861 0.11781688 0.04399737
0.51726508 0.11848105 0.044538572
0.51729077 0.11932674 0.04453342
0.51731646 0.12017245 0.044528265
0.51818275 0.12083024 0.045069505
0.51820844 0.12167434 0.045064364
0.51907462 0.12232736 0.04560563
0.51910019 0.12316988 0.045600496
0.51912582 0.1240124 0.045595359
0.51999182 0.12465902 0.0461367
0.52001739 0.12549995 0.046131577
0.52004296 0.12634087 0.046126451
0.52006847 0.12718178 0.046121329
0.52009404 0.12802272 0.046116203
0.52095973 0.1286598 0.04665757
0.52098525 0.12949912 0.046652455
0.52101076 0.13033846 0.04664734
0.52103627 0.13117778 0.046642225
0.52106178 0.13201711 0.04663711
0.52108729 0.13285644 0.046631996
0.52027297 0.13390917 0.046080332
0.52029854 0.13475008 0.04607521
0.52032411 0.13559102 0.046070084
0.51950991 0.1366501 0.04551835
0.51953554 0.13749261 0.045513216
0.5007543 0.086025178 0.033698481
0.50162262 0.086781755 0.03424035
0.50164914 0.087656118 0.034235023
0.50167572 0.088530488 0.034229696
0.50170231 0.089404859 0.034224365
0.50257039 0.090153463 0.034766283
0.50343829 0.090898894 0.035308223
0.50346482 0.091770075 0.035302915
0.50433266 0.092510715 0.035844918
0.50435907 0.093380302 0.035839617
0.50522673 0.094116174 0.036381613
0.50609428 0.094848864 0.036923628
0.50612062 0.095715262 0.03691835
0.50614697 0.096581668 0.036913067
0.50701433 0.097307988 0.037455127
0.50704062 0.098172791 0.037449855
0.50706691 0.099037603 0.037444584
0.50793409 0.099757552 0.037986677
0.50796032 0.10062077 0.037981417
0.50882739 0.10133593 0.038523573
0.50885361 0.10219755 0.038518324
0.50887978 0.10305918 0.038513072
0.50974661 0.10376798 0.039055236
0.50977278 0.10462801 0.039049994
0.50979888 0.10548804 0.039044756
0.51066554 0.10619047 0.039586954
0.51069164 0.1070489 0.039581724
0.51071775 0.10790735 0.039576493
0.51158416 0.1086034 0.040118728
0.51161021 0.10946025 0.040113509
0.51247656 0.11015152 0.04065581
0.51250255 0.11100677 0.040650599
0.51336873 0.11169327 0.041192897
0.51339465 0.11254693 0.041187696
0.51426071 0.11322866 0.04173002
0.51428658 0.11408072 0.041724827
0.51515245 0.11475767 0.042267185
0.51517832 0.11560815 0.042262003
0.51604402 0.1162803 0.042804386
0.51606983 0.1171292 0.042799216
0.51693547 0.11779656 0.043341663
0.51696122 0.11864386 0.043336499
0.51782662 0.11930647 0.043878939
0.51785237 0.12015218 0.043873787
0.51787806 0.12099787 0.043868635
0.51874328 0.12165411 0.044411115
0.51876897 0.12249821 0.044405974
0.51963401 0.12314968 0.044948485
0.51965964 0.1239922 0.044943348
0.51968527 0.12483471 0.044938214
0.52055019 0.12547979 0.045480799
0.52057576 0.1263207 0.045475673
0.52060133 0.12716162 0.045470551
0.5206269 0.12800255 0.045465425
0.52065241 0.12884347 0.045460302
0.52067798 0.12968439 0.045455176
0.52070355 0.13052531 0.045450054
0.52072912 0.13136624 0.045444928
0.52075469 0.13220716 0.045439802
0.52078027 0.13304807 0.04543468
0.52080578 0.133889 0.045429554
0.52083135 0.13472992 0.045424432
0.52001816 0.1357874 0.044871472
0.52004379 0.13662991 0.044866338
0.52006936 0.13747242 0.044861205
0.51925641 0.13853624 0.044308241
0.50130934 0.086004175 0.033020586
0.50133598 0.08688014 0.033015247
0.50136256 0.087756097 0.033009909
0.50222975 0.088509522 0.03355303
0.50225633 0.089383893 0.033547703
0.5031234 0.090132542 0.034090854
0.50314993 0.091005318 0.034085535
0.50401682 0.091749184 0.034628719
0.50488365 0.092489868 0.035171952
0.50491005 0.093359455 0.035166651
0.5057767 0.094095364 0.03570988
0.50580311 0.094963364 0.03570459
0.50666958 0.09569449 0.036247849
0.50669593 0.096560895 0.036242567
0.50672227 0.097427301 0.036237288
0.50758857 0.098152056 0.036780588
0.50761485 0.099016868 0.036775317
0.50764114 0.099881679 0.036770049
0.50850725 0.10060007 0.037313383
0.50853354 0.1014633 0.037308123
0.50855976 0.10232651 0.037302863
0.5094257 0.10303853 0.037846271
0.50945193 0.10390014 0.037841018
0.50947809 0.10476178 0.037835769
0.51034385 0.10546742 0.038379181
0.51036996 0.10632746 0.03837394
0.51039612 0.10718748 0.038368702
0.51126164 0.10788676 0.038912155
0.51128775 0.1087452 0.038906924
0.51215315 0.1094397 0.039450407
0.5121792 0.11029655 0.039445184
0.51304448 0.11098627 0.039988726
0.51307046 0.11184152 0.039983515
0.51393557 0.11252646 0.040527053
0.51480055 0.11320823 0.041070614
0.51482648 0.1140603 0.041065425
0.51485234 0.11491237 0.041060232
0.51571721 0.11558776 0.04160383
0.51574302 0.11643823 0.041598644
0.5166077 0.11710884 0.042142272
0.51663351 0.11795773 0.042137098
0.51749808 0.11862355 0.042680789
0.51752383 0.11947084 0.042675626
0.51838821 0.12013189 0.043219309
0.5184139 0.1209776 0.043214153
0.51843959 0.1218233 0.043209001
0.5193038 0.12247798 0.04375273
0.51932943 0.12332208 0.043747585
0.52019346 0.123972 0.044291336
0.52021909 0.1248145 0.044286203
0.52024472 0.12565702 0.044281069
0.52027029 0.12649953 0.044275936
0.52113414 0.12714146 0.044819769
0.52115971 0.12798239 0.044814643
0.52118528 0.12882331 0.04480952
0.52121085 0.12966423 0.044804394
0.52123642 0.13050514 0.044799272
0.52126193 0.13134608 0.044794146
0.5212875 0.13218699 0.044789024
0.52047515 0.13323966 0.044234864
0.52050078 0.13408217 0.044229727
0.52052641 0.13492468 0.044224594
0.5197143 0.13598369 0.043670427
0.51973999 0.1368278 0.043665286
0.51892799 0.13789159 0.043111086
0.50099802 0.085223339 0.031798374
0.50102466 0.086100891 0.031793028
0.50189102 0.086859137 0.032337349
0.5019176 0.087735094 0.032332011
0.50278378 0.088488564 0.032876369
0.50281036 0.089362927 0.032871038
0.50283694 0.090237297 0.032865711
0.50370294 0.090984389 0.033410106
0.50456882 0.0917283 0.03395452
0.50459528 0.092599481 0.033949211
0.5054611 0.093338609 0.034493685
0.5054875 0.094208196 0.034488387
0.50635308 0.094942555 0.035032857
0.50637949 0.095810547 0.035027567
0.50724494 0.096540123 0.035572071
0.50727123 0.097406529 0.035566788
0.50729758 0.098272935 0.035561509
0.50816286 0.098996133 0.03610605
0.50818914 0.099860951 0.036100779
0.50821543 0.10072576 0.036095511
0.50908047 0.1014426 0.036640089
0.5091067 0.10230581 0.036634829
0.50913292 0.10316903 0.036629569
0.50915921 0.10403226 0.036624309
0.51002407 0.10474112 0.037168965
0.51005024 0.10560274 0.037163716
0.51007646 0.10646437 0.037158467
0.51094103 0.10716686 0.03770313
0.5109672 0.1080269 0.037697889
0.5118317 0.10872462 0.038242586
0.51185775 0.10958306 0.038237356
0.51272207 0.11027601 0.038782079
0.51274812 0.11113286 0.038776856
0.51361239 0.11182102 0.039321642
0.51363838 0.11267627 0.039316431
0.51450241 0.11335966 0.039861213
0.51536638 0.11403987 0.040406015
0.51539224 0.11489194 0.040400822
0.51541817 0.11574401 0.040395629
0.5162819 0.11641785 0.040940471
0.51630777 0.11726832 0.040935289
0.51717138 0.11793738 0.041480158
0.51719719 0.11878626 0.041474983
0.51806068 0.11945052 0.042019915
0.51808643 0.12029782 0.042014752
0.51894975 0.12095731 0.04255968
0.51897544 0.12180302 0.042554528
0.51900119 0.12264872 0.042549372
0.51986432 0.12330184 0.043094341
0.51988995 0.12414595 0.043089196
0.52075291 0.1247943 0.043634191
0.52077854 0.12563682 0.043629058
0.52080417 0.12647933 0.043623924
0.52082974 0.12732185 0.043618791
0.52085537 0.12816437 0.043613654
0.520881 0.12900688 0.04360852
0.52090657 0.12984939 0.043603387
0.5209322 0.1306919 0.043598253
0.52095777 0.13153443 0.04359312
0.5209834 0.13237694 0.043587986
0.52100903 0.13321945 0.043582849
0.52019781 0.13427524 0.043027472
0.5202235 0.13511935 0.043022327
0.51941246 0.13617991 0.042466916
0.51943815 0.13702561 0.042461764
0.51862729 0.13809095 0.041906327
0.51865304 0.13893825 0.041901164
0.49811846 0.083014876 0.028931824
0.49984974 0.084553741 0.030022807
0.50071526 0.085318387 0.030568324
0.50074196 0.086197533 0.030562967
0.50160736 0.086957403 0.031108549
0.50247264 0.087714091 0.031654119
0.50249928 0.088590056 0.031648781
0.50336438 0.089341968 0.03219438
0.50339097 0.090216331 0.032189049
0.50341755 0.091090702 0.032183722
0.50428247 0.091836236 0.032729357
0.50514728 0.092578597 0.033275012
0.50517374 0.093449779 0.033269703
0.50603849 0.094187349 0.033815421
0.50606495 0.095056936 0.033810124
0.50692946 0.095789738 0.034355834
0.50695586 0.096657731 0.034350544
0.50782025 0.097385757 0.034896288
0.50784659 0.098252162 0.034891009
0.50787288 0.099118561 0.034885731
0.50873709 0.099840216 0.035431512
0.50876337 0.10070503 0.035426244
0.50878966 0.10156983 0.035420973
0.50881594 0.10243465 0.035415702
0.50967991 0.10314834 0.035961531
0.50970614 0.10401156 0.035956271
0.50973237 0.10487477 0.035951011
0.50975859 0.10573799 0.035945751
0.51062238 0.10644371 0.036491662
0.51064855 0.10730533 0.036486413
0.51151216 0.10800628 0.037032321
0.51153827 0.10886631 0.03702708
0.5124017 0.10956249 0.037573017
0.51242781 0.11042093 0.037567787
0.51329106 0.11111231 0.038113751
0.51331711 0.11196917 0.038108528
0.5141803 0.11265577 0.038654558
0.51420629 0.11351103 0.038649347
0.51506925 0.11419285 0.03919537
0.51593214 0.11487151 0.039741412
0.51595807 0.11572358 0.039736222
0.51598394 0.11657565 0.039731029
0.51684666 0.11724793 0.040277112
0.51687253 0.1180984 0.04027193
0.51773506 0.11876591 0.040818043
0.51776087 0.11961479 0.040812869
0.51778668 0.12046368 0.040807698
0.51864904 0.12112479 0.041353881
0.51867479 0.12197209 0.041348718
0.51953703 0.12262845 0.041894894
0.51956272 0.12347414 0.041889742
0.52042478 0.12412572 0.042435952
0.52045047 0.12496982 0.042430807
0.5204761 0.12581393 0.042425662
0.52133799 0.12645914 0.042971909
0.52136362 0.12730165 0.042966776
0.52138919 0.12814416 0.042961642
0.52141482 0.12898667 0.042956505
0.52144045 0.1298292 0.042951372
0.52146602 0.13067169 0.042946238
0.52065569 0.13172267 0.042389657
0.52068138 0.13256678 0.042384513
0.52070701 0.13341089 0.042379368
0.51989692 0.13446824 0.041822746
0.51992261 0.13531393 0.041817594
0.51911265 0.13637607 0.041260943
0.5191384 0.13722335 0.04125578
0.51832849 0.13829026 0.040699065
0.5183543 0.13913915 0.040693894
0.49870539 0.083877608 0.028242379
0.50040781 0.084532626 0.029341213
0.50043458 0.085413359 0.029335845
0.50129902 0.086176455 0.029882606
0.50132573 0.087055609 0.029877249
0.50219011 0.087813914 0.030424073
0.50305432 0.088569053 0.030970883
0.5030809 0.08944501 0.030965546
0.50394499 0.090195365 0.031512387
0.50397158 0.091069736 0.03150706
0.50399816 0.091944106 0.031501729
0.50486201 0.092688091 0.032048609
0.50572574 0.093428895 0.032595508
0.50575227 0.094300076 0.032590199
0.50661594 0.095036089 0.033137158
0.50664234 0.095905676 0.033131856
0.50666881 0.096775271 0.033126559
0.50753218 0.097504921 0.033673525
0.50755858 0.098372914 0.033668235
0.5084219 0.099097788 0.03421523
0.50844818 0.099964194 0.034209952
0.50847453 0.1008306 0.034204669
0.5093376 0.1015491 0.034751702
0.50936395 0.10241392 0.034746435
0.50939023 0.10327873 0.034741163
0.50941652 0.10414354 0.034735892
0.51027936 0.10485408 0.035282977
0.51030558 0.10571729 0.035277717
0.51033181 0.10658052 0.035272457
0.51119453 0.10728467 0.035819609
0.51122069 0.10814631 0.03581436
0.51208323 0.10884569 0.036361512
0.51210934 0.10970573 0.03635627
0.5129717 0.11040035 0.036903448
0.51299781 0.11125878 0.036898218
0.51386005 0.11194862 0.037445422
0.51388609 0.11280547 0.037440203
0.51474822 0.11349052 0.037987474
0.51561016 0.11417238 0.038534731
0.51563615 0.11502606 0.038529526
0.51649797 0.11570315 0.039076816
0.51652384 0.11655522 0.039071623
0.51654977 0.11740729 0.03906643
0.51741141 0.11807801 0.039613754
0.51743722 0.1189285 0.039608572
0.51829875 0.11959444 0.040155929
0.51832455 0.12044332 0.040150754
0.51835036 0.12129221 0.04014558
0.51921171 0.12195177 0.040693004
0.51923746 0.12279908 0.04068784
0.52009857 0.12345386 0.041235264
0.52012432 0.12429956 0.041230112
0.52098531 0.12494958 0.041777562
0.52101094 0.1257937 0.041772418
0.52103662 0.1266378 0.041767273
0.52106225 0.12748191 0.041762132
0.52108794 0.12832601 0.041756988
0.52111357 0.12917012 0.041751843
0.52113926 0.13001423 0.041746698
0.52116489 0.13085833 0.041741557
0.52119058 0.13170244 0.041736413
0.52038133 0.13275656 0.041178577
0.52040708 0.13360226 0.041173425
0.52043277 0.13444796 0.041168269
0.51962376 0.13550845 0.040610395
0.5188148 0.13657214 0.04005247
0.51884055 0.13742101 0.040047295
0.51803178 0.13848948 0.039489374
0.51722312 0.1395611 0.038931429
0.49500003 0.081744887 0.024807932
0.49586406 0.082527131 0.02535581
0.49756485 0.083194964 0.026457032
0.49926546 0.083856419 0.027558321
0.5001291 0.084625922 0.028106278
0.50099266 0.085392244 0.028654251
0.50101942 0.086272985 0.028648885
0.50188279 0.087034531 0.029196888
0.50190949 0.08791367 0.029191531
0.50277281 0.088670433 0.0297396
0.50279945 0.089547984 0.029734252
0.50366259 0.090299971 0.030282313
0.50368923 0.091175929 0.030276977
0.50455213 0.09192314 0.030825067
0.50457871 0.09279751 0.030819738
0.50544155 0.093539938 0.031367861
0.50630426 0.094279192 0.031916
0.50633073 0.095150366 0.031910691
0.50635719 0.096021548 0.031905383
0.50721979 0.096754417 0.032453593
0.5072462 0.097624004 0.032448296
0.50810856 0.098352104 0.032996502
0.50813496 0.099220097 0.032991216
0.5089972 0.099943422 0.033539452
0.50902355 0.10080983 0.033534169
0.50904983 0.10167623 0.03352889
0.50991189 0.10239319 0.034077168
0.50993818 0.103258 0.034071896
0.50996447 0.1041228 0.034066629
0.50999075 0.10498761 0.034061357
0.51085252 0.1056966 0.034609683
0.5108788 0.10655983 0.034604419
0.51090503 0.10742304 0.034599159
0.51176667 0.10812565 0.035147555
0.51179284 0.10898727 0.035142306
0.5126543 0.10968511 0.035690699
0.51268041 0.11054515 0.035685457
0.51354176 0.1112382 0.03623388
0.51440293 0.11192808 0.036782321
0.51442897 0.11278492 0.036777098
0.51529008 0.11347002 0.037325602
0.51531613 0.11432527 0.03732039
0.516177 0.11500559 0.037868887
0.51620299 0.11585926 0.037863687
0.51706374 0.11653479 0.038412213
0.51708966 0.11738686 0.03840702
0.51711553 0.11823893 0.038401831
0.51797611 0.11890811 0.038950395
0.51800197 0.11975858 0.038945213
0.51886243 0.12042297 0.03949381
0.51888824 0.12127186 0.039488636
0.51891398 0.12212074 0.039483465
0.51977432 0.12277876 0.040032133
0.51980007 0.12362605 0.04002697
0.52066016 0.12427929 0.040575635
0.52068585 0.12512499 0.040570479
0.52071154 0.12597069 0.040565327
0.52157146 0.12661755 0.041114029
0.52159715 0.12746167 0.041108884
0.52162278 0.12830578 0.041103743
0.52164841 0.12914988 0.041098598
0.5216741 0.12999399 0.041093454
0.5208658 0.13104488 0.040534407
0.52089149 0.13189059 0.040529251
0.52091718 0.13273628 0.040524099
0.52010912 0.13379355 0.039965011
0.52013487 0.13464084 0.039959848
0.51932687 0.13570289 0.039400697
0.51851898 0.13676813 0.03884156
0.51854485 0.1376186 0.038836379
0.51857066 0.13846909 0.038831197
0.51776302 0.13954067 0.038272023
0.51695544 0.14061548 0.037712827
0.51614797 0.14169343 0.037153617
0.51617396 0.1425487 0.037148405
0.51536661 0.14363146 0.036589131
0.49130332 0.07956399 0.021361452
0.49386603 0.08104445 0.023014063
0.49556518 0.081723504 0.024117714
0.49642816 0.082505785 0.024666822
0.49729109 0.083284885 0.025215952
0.4989897 0.083948016 0.026319668
0.49985242 0.084719144 0.026868878
0.50071502 0.085487098 0.027418077
0.50157744 0.086251862 0.027967295
0.50160426 0.08713261 0.027961927
0.50246656 0.087892592 0.02851117
0.50249326 0.088771738 0.028505813
0.5033555 0.089526944 0.029055124
0.50338221 0.090404496 0.029049776
0.50424421 0.091154926 0.029599078
0.50427085 0.09203089 0.029593742
0.50513273 0.092776544 0.030143075
0.50515932 0.093650915 0.030137748
0.50602108 0.094391793 0.03068711
0.50604761 0.095264569 0.030681793
0.50690919 0.096000664 0.031231184
0.50693572 0.096871845 0.031225875
0.50779718 0.097603157 0.031775329
0.50782365 0.098472744 0.031770028
0.50785005 0.099342339 0.031764731
0.50871134 0.10006729 0.032314193
0.50873768 0.10093529 0.032308903
0.50959885 0.10165545 0.03285839
0.50962514 0.10252186 0.032853112
0.50965148 0.10338827 0.032847833
0.51051241 0.10410207 0.033397358
0.5105387 0.10496689 0.033392087
0.51056498 0.10583169 0.033386819
0.51142573 0.10653913 0.033936385
0.51145196 0.10740234 0.033931125
0.51231259 0.10810499 0.034480754
0.51233882 0.10896661 0.034475502
0.51319921 0.10966449 0.035025127
0.51322538 0.11052453 0.035019886
0.51408565 0.11121762 0.035569541
0.51411176 0.11207607 0.035564311
0.51497191 0.11276438 0.036113992
0.51499796 0.11362123 0.036108773
0.51585799 0.11430476 0.036658518
0.51588404 0.11516002 0.036653306
0.5167439 0.11583879 0.037203047
0.51676983 0.11669245 0.037197843
0.51762956 0.11736643 0.037747614
0.51765543 0.1182185 0.037742425
0.51768136 0.11907058 0.037737232
0.51854086 0.11973818 0.03828704
0.51856673 0.12058867 0.038281858
0.51942611 0.1212515 0.038831696
0.51945192 0.12210039 0.038826521
0.51947767 0.12294928 0.038821347
0.52033693 0.12360573 0.03937126
0.52036268 0.12445302 0.039366096
0.52038842 0.12530032 0.039360933
0.52124745 0.12595041 0.039910849
0.52127314 0.12679611 0.039905693
0.52129883 0.12764181 0.039900541
0.52132452 0.12848751 0.039895389
0.52135026 0.12933321 0.039890233
0.52137595 0.13017891 0.039885081
0.52140164 0.13102461 0.039879929
0.52142733 0.13187031 0.039874773
0.52062023 0.13292594 0.039314464
0.52064598 0.13377324 0.0393093
0.51983893 0.13483366 0.038748927
0.51986474 0.13568254 0.038743757
0.51905787 0.13674775 0.038183391
0.51908374 0.13759822 0.038178205
0.51827699 0.13866818 0.03761781
0.51830292 0.13952026 0.037612617
0.51749635 0.140595 0.037052188
0.5166899 0.14167292 0.036491744
0.51671588 0.14252819 0.036486533
0.51590949 0.14361092 0.035926022
0.51593554 0.14446777 0.035920803
0.48764279 0.078242764 0.017897367
0.49017584 0.078845769 0.019559056
0.4918735 0.079542421 0.020665066
0.49357092 0.080232695 0.021771079
0.49443316 0.081022993 0.022321373
0.49529532 0.081810087 0.022871688
0.49699229 0.082484439 0.023977831
0.4978542 0.083263583 0.024528194
0.498716 0.084039532 0.025078574
0.50041252 0.084697954 0.026184818
0.50043935 0.085581876 0.026179431
0.50130087 0.086348273 0.026729869
0.50216228 0.087111488 0.027280331
0.50218904 0.087992229 0.027274963
0.50305033 0.08875066 0.027825451
0.50307709 0.089629807 0.027820094
0.50393826 0.090383455 0.028370643
0.5039649 0.091261007 0.028365295
0.50482589 0.092009887 0.028915845
0.50485253 0.092885844 0.028910507
0.50487912 0.093761809 0.028905168
0.50573993 0.094504319 0.029455753
0.50576651 0.095378682 0.029450424
0.50662714 0.096116416 0.030001041
0.50748771 0.096850954 0.030551672
0.50751418 0.097722135 0.030546363
0.50754064 0.098593324 0.030541055
0.50840104 0.099321492 0.031091761
0.5084275 0.10019108 0.031086462
0.50928771 0.10091448 0.031637166
0.50931406 0.10178247 0.031631876
0.51017416 0.10250109 0.032182608
0.5102005 0.1033675 0.032177325
0.51022679 0.1042339 0.032172047
0.5110867 0.10494615 0.03272282
0.51111299 0.10581096 0.032717548
0.51113927 0.10667577 0.032712277
0.51199895 0.10738164 0.033263087
0.51202518 0.10824487 0.033257827
0.51288474 0.10894595 0.033808697
0.51291096 0.10980759 0.033803444
0.51377034 0.11050391 0.034354314
0.51379645 0.11136393 0.034349073
0.51465571 0.11205548 0.034899972
0.51468182 0.11291392 0.034894738
0.5155409 0.11360069 0.035445664
0.51556695 0.11445753 0.035440441
0.51642591 0.11513951 0.03599143
0.5164519 0.11599477 0.035986219
0.51731074 0.11667198 0.036537204
0.51733667 0.11752564 0.036532
0.51819533 0.11819807 0.037083011
0.51822126 0.11905015 0.037077818
0.51824713 0.11990222 0.037072629
0.51910561 0.12056828 0.037623681
0.51913142 0.12141875 0.037618499
0.51915729 0.12226924 0.037613314
0.5200156 0.12292892 0.038164403
0.52004135 0.12377781 0.038159233
0.52089953 0.12443271 0.038710382
0.52092528 0.12528001 0.038705219
0.52095103 0.12612729 0.038700055
0.52180898 0.12677583 0.039251216
0.52183467 0.12762153 0.039246064
0.52186042 0.12846723 0.039240908
0.52188611 0.12931293 0.039235756
0.5219118 0.13015863 0.039230604
0.52110559 0.13121104 0.03866908
0.52113134 0.13205834 0.038663916
0.52115709 0.13290563 0.038658753
0.52118284 0.13375293 0.03865359
0.5203768 0.13481332 0.038091984
0.51957089 0.13587686 0.037530392
0.51959676 0.13672735 0.037525211
0.51879102 0.13779569 0.036963589
0.51881689 0.13864776 0.036958396
0.51884282 0.13949983 0.036953203
0.51803726 0.14057454 0.036391549
0.51723182 0.14165242 0.035829868
0.51725781 0.14250769 0.035824656
0.5172838 0.14336294 0.035819445
0.51647848 0.14444722 0.035257693
0.48816282 0.076405369 0.017205885
0.49158216 0.078722559 0.019417169
0.49327773 0.079417691 0.020525651
0.49413908 0.0802112 0.021077162
0.4950003 0.081001535 0.021628687
0.49586144 0.081788667 0.022180233
0.49672252 0.082572624 0.022731833
0.49841729 0.083242275 0.023840437
0.49844432 0.084130973 0.02383502
0.49930504 0.084905371 0.024386646
0.50099945 0.085560687 0.025495373
0.50102633 0.086444609 0.025489986
0.50188679 0.087209456 0.026041668
0.50191361 0.088091783 0.026036292
0.50277388 0.088851847 0.026588002
0.5036341 0.089608729 0.027139733
0.50366086 0.090487875 0.027134374
0.50368756 0.091367021 0.027129017
0.5045476 0.092117526 0.027680822
0.5045743 0.09299507 0.027675474
0.50543416 0.093740806 0.028227272
0.5054608 0.094616763 0.028221933
0.50632054 0.095357724 0.028773764
0.50634712 0.096232094 0.028768435
0.50720668 0.096968263 0.029320292
0.5072332 0.097841039 0.029314972
0.50809264 0.09857244 0.029866857
0.50811917 0.099443622 0.029861549
0.50897849 0.10017022 0.030413499
0.50900489 0.10103982 0.0304082
0.50903136 0.10190941 0.030402901
0.50989044 0.10262966 0.030954855
0.50991684 0.10349766 0.030949565
0.5107758 0.10421313 0.031501547
0.51080215 0.10507953 0.031496268
0.51166093 0.10579022 0.032048281
0.51168722 0.10665504 0.03204301
0.5117135 0.10751985 0.032037742
0.51257211 0.10822417 0.032589793
0.51259834 0.10908739 0.032584533
0.51345688 0.10978693 0.033136647
0.51348305 0.11064856 0.033131395
0.51434141 0.11134332 0.033683505
0.51436752 0.11220335 0.033678263
0.51522571 0.11289334 0.0342304
0.51525182 0.11375178 0.03422517
0.51610982 0.11443699 0.034777336
0.51613587 0.11529385 0.034772117
0.51699382 0.11597427 0.035324346
0.51701981 0.11682952 0.035319135
0.51787758 0.11750518 0.03587136
0.51790351 0.11835884 0.035866156
0.5187611 0.11902972 0.036418416
0.51878703 0.11988179 0.036413223
0.51881289 0.12073386 0.036408029
0.51967031 0.12139836 0.036960322
0.51969618 0.12224884 0.036955141
0.51972204 0.12309932 0.036949959
0.52057922 0.12375745 0.037502289
0.52060503 0.12460634 0.037497114
0.52146214 0.12525968 0.038049512
0.52148789 0.12610698 0.038044348
0.5215137 0.12695427 0.038039185
0.52153945 0.12780157 0.038034022
0.5215652 0.12864886 0.038028859
0.52159095 0.12949614 0.038023695
0.5216167 0.13034345 0.038018532
0.52164245 0.13119073 0.038013369
0.5216682 0.13203803 0.038008206
0.52169394 0.13288532 0.038003042
0.52088886 0.13394408 0.037440214
0.52091467 0.13479297 0.03743504
0.52010977 0.13585648 0.036872219
0.52013564 0.13670696 0.036867037
0.52016151 0.13755743 0.036861852
0.51935679 0.13862734 0.03629899
0.51938272 0.1394794 0.036293801
0.51857817 0.14055407 0.035730906
0.5186041 0.14140773 0.035725702
0.51779968 0.14248718 0.035162784
0.51782572 0.14334244 0.035157572
0.51785171 0.14419769 0.035152361
0.4895438 0.075380638 0.017067058
0.48957133 0.076286852 0.017061537
0.4912653 0.076996401 0.018172365
0.49129274 0.077899434 0.018166861
0.49298647 0.078599423 0.019277781
0.49384689 0.079396151 0.019830503
0.49554023 0.080084994 0.020941457
0.49556744 0.08098007 0.020936003
0.49642757 0.081767246 0.02148878
0.49728763 0.082551241 0.022041611
0.49814758 0.083332047 0.02259443
0.4990074 0.084109664 0.023147266
0.49986714 0.0848841 0.023700122
0.50072676 0.085655354 0.024252998
0.50158638 0.086423412 0.024805926
0.50161326 0.087307341 0.024800539
0.50247264 0.088070631 0.025353463
0.50249946 0.088952959 0.025348088
0.50335872 0.089711472 0.02590104
0.50421786 0.090466797 0.026454015
0.50424463 0.091345944 0.026448656
0.50427133 0.092225082 0.026443299
0.50513035 0.092974037 0.026996346
0.50515699 0.093851589 0.026990999
0.50601584 0.094595768 0.02754404
0.50604248 0.095471725 0.027538702
0.50690114 0.096211128 0.028091772
0.50692773 0.097085491 0.028086444
0.50695425 0.097959854 0.028081115
0.50781274 0.098692887 0.028634224
0.50783926 0.099565662 0.028628906
0.50869763 0.10029391 0.029182043
0.50872409 0.1011651 0.029176734
0.50958234 0.10188856 0.029729934
0.50960875 0.10275815 0.029724635
0.51046681 0.10347685 0.030277831
0.51049322 0.10434484 0.030272542
0.51135111 0.10505876 0.030825768
0.51137745 0.10592516 0.030820487
0.51223516 0.1066343 0.031373743
0.51226145 0.10749912 0.031368472
0.51228774 0.10836393 0.031363204
0.51314533 0.10906669 0.031916495
0.51317155 0.10992991 0.031911235
0.51402903 0.1106279 0.032464594
0.51405519 0.11148951 0.032459341
0.51491249 0.11218274 0.033012692
0.51493859 0.11304276 0.033007454
0.51579577 0.11373121 0.033560835
0.51582181 0.11458964 0.033555601
0.51667881 0.1152733 0.034109011
0.51670486 0.11613014 0.034103792
0.51756173 0.11680902 0.034657262
0.51758772 0.11766427 0.034652051
0.51844442 0.11833837 0.035205517
0.51847035 0.11919203 0.035200316
0.51932693 0.11986136 0.035753813
0.51935279 0.12071343 0.03574862
0.51937872 0.12156549 0.035743427
0.52023506 0.12222845 0.036296964
0.52026093 0.12307893 0.036291782
0.52028674 0.1239294 0.0362866
0.5211429 0.12458599 0.036840174
0.52116871 0.12543488 0.036835
0.52119452 0.12628376 0.036829829
0.52205056 0.12693396 0.037383474
0.52207631 0.12778126 0.037378311
0.52210206 0.12862854 0.037373148
0.52212781 0.12947583 0.037367985
0.52215356 0.13032313 0.037362821
0.52217931 0.13117041 0.037357658
0.52220505 0.13201772 0.037352495
0.5222308 0.132865 0.037347332
0.52142674 0.13392372 0.036783271
0.52145255 0.13477261 0.0367781
0.52064866 0.13583609 0.036214042
0.52067453 0.13668658 0.036208861
0.5207004 0.13753705 0.036203679
0.51989669 0.13860691 0.035639584
0.51992261 0.13945897 0.035634391
0.51994848 0.14031105 0.035629198
0.51914501 0.14138725 0.035065062
0.51917094 0.14224093 0.035059862
0.51919693 0.14309458 0.035054661
0.51922286 0.14394826 0.035049457
0.51924878 0.14480191 0.035044257
0.49009046 0.074452691 0.016371269
0.49095029 0.075263798 0.016925136
0.49097779 0.076168425 0.016919622
0.4918375 0.07697475 0.017473515
0.49269709 0.077777892 0.01802743
0.49355665 0.078577846 0.018581396
0.49441606 0.079374619 0.01913535
0.49610737 0.080063537 0.020248769
0.49613458 0.080958612 0.020243313
0.49699369 0.081745826 0.020797327
0.49785277 0.082529858 0.02135139
0.49871168 0.083310701 0.021905441
0.49957052 0.084088363 0.022459511
0.50042921 0.084862836 0.023013599
0.50045621 0.085749947 0.023008192
0.50131482 0.086519644 0.023562312
0.5021733 0.087286152 0.024116483
0.50220019 0.088170074 0.024111096
0.50305855 0.088931806 0.024665263
0.5039168 0.089690357 0.02521945
0.50394356 0.090571091 0.025214083
0.50397032 0.091451831 0.025208715
0.50482839 0.092204005 0.025762938
0.5048551 0.093083151 0.025757581
0.50571305 0.093830548 0.026311871
0.50573975 0.0947081 0.026306523
0.50659746 0.095450722 0.026860805
0.5066241 0.096326679 0.026855467
0.50665075 0.097202644 0.026850129
0.50750828 0.097938895 0.027404452
0.50753486 0.098813258 0.027399123
0.50839227 0.099544734 0.027953476
0.5084188 0.10041751 0.027948158
0.50927609 0.10114421 0.028502535
0.50930256 0.10201538 0.028497227
0.51015979 0.1027373 0.029051671
0.5101862 0.10360689 0.029046372
0.5102126 0.10447648 0.029041074
0.5110696 0.10519204 0.029595518
0.51192641 0.10590439 0.030149987
0.51195276 0.10677079 0.030144708
0.51280946 0.10747838 0.030699207
0.51283574 0.10834319 0.030693935
0.51286203 0.109208 0.030688666
0.51371849 0.10990921 0.031243199
0.51374477 0.11077244 0.031237939
0.51460117 0.11146886 0.03179254
0.51462734 0.11233049 0.031787287
0.51548356 0.11302215 0.032341879
0.51550972 0.11388218 0.032336641
0.51636577 0.11456905 0.032891262
0.51639187 0.1154275 0.032886032
0.5172478 0.1161096 0.033440683
0.51727384 0.11696645 0.033435464
0.51812965 0.11764377 0.033990178
0.51815563 0.11849902 0.033984967
0.51818162 0.11935428 0.033979755
0.51903725 0.12002522 0.034534473
0.51906317 0.1208789 0.034529272
0.51991862 0.12154506 0.03508402
0.51994449 0.12239714 0.035078827
0.52079982 0.12305854 0.035633605
0.52082562 0.12390901 0.035628423
0.52085149 0.1247595 0.035623241
0.52170658 0.12541452 0.03617806
0.52173239 0.12626341 0.036172885
0.5217582 0.12711228 0.036167715
0.52178401 0.12796117 0.03616254
0.52263892 0.12860823 0.036717437
0.52266467 0.12945552 0.036712274
0.52269042 0.13030282 0.036707111
0.52271616 0.1311501 0.036701947
0.52274191 0.13199739 0.036696784
0.52276766 0.13284469 0.036691621
0.52196461 0.13390337 0.03612633
0.52199042 0.13475226 0.036121156
0.52201623 0.13560113 0.036115985
0.52204204 0.13645002 0.036110811
0.52123928 0.13751665 0.035545502
0.52126509 0.13836713 0.03554032
0.52129096 0.13921762 0.035535138
0.52048838 0.14029062 0.034969788
0.52051431 0.14114268 0.034964599
0.52054018 0.14199474 0.034959406
0.52056611 0.14284682 0.034954213
0.52059197 0.14369889 0.03494902
0.5206179 0.14455096 0.034943826
0.48645237 0.073070012 0.012878008
0.4889743 0.073708527 0.01455424
0.49066466 0.074430965 0.015669955
0.49235478 0.075147033 0.016785672
0.49238223 0.076050065 0.01678017
0.49324086 0.07685484 0.017335309
0.49409947 0.077656426 0.017890498
0.49495792 0.07845483 0.018445672
0.49581626 0.079250045 0.019000869
0.4958435 0.080146708 0.018995406
0.49670172 0.080937155 0.019550629
0.49755982 0.081724405 0.020105874
0.49841788 0.082508475 0.020661168
0.498445 0.083400354 0.020655734
0.49930286 0.084179647 0.021211028
0.50016063 0.084955752 0.021766338
0.50101829 0.085728675 0.022321671
0.50104529 0.086615779 0.022316266
0.50190282 0.087383933 0.022871625
0.50276029 0.088148877 0.023427038
0.50278711 0.089032799 0.023421651
0.50364441 0.089792982 0.023977062
0.50450158 0.090549976 0.024532489
0.5045284 0.091430716 0.024527121
0.50455517 0.092311449 0.024521755
0.50541216 0.093062073 0.02507722
0.50543886 0.093941227 0.025071863
0.50546557 0.094820365 0.025066506
0.50632244 0.095564619 0.025622046
0.50634909 0.096442163 0.025616698
0.50720578 0.097181641 0.026172236
0.50723237 0.098057605 0.026166897
0.50725901 0.098933555 0.026161559
0.50811547 0.099666663 0.026717132
0.50814205 0.10054104 0.026711803
0.50899839 0.10126936 0.027267408
0.50902492 0.10214213 0.02726209
0.50988108 0.10286569 0.027817721
0.50990754 0.10373688 0.027812412
0.51076365 0.10445563 0.028368106
0.51079005 0.10532522 0.028362807
0.51164591 0.10603921 0.028918497
0.51250172 0.10675002 0.029474208
0.51252806 0.10761642 0.029468929
0.51255441 0.10848283 0.029463649
0.51340997 0.10918726 0.030019397
0.51343626 0.11005208 0.030014126
0.5142917 0.11075174 0.030569905
0.51431793 0.11161496 0.030564645
0.51517332 0.11230984 0.031120487
0.51519948 0.11317145 0.031115236
0.51605463 0.11386156 0.03167107
0.5160808 0.11472159 0.031665828
0.51693577 0.11540692 0.032221697
0.51696187 0.11626536 0.032216463
0.51781672 0.11694591 0.032772359
0.51784277 0.11780275 0.032767136
0.51786882 0.1186596 0.032761917
0.51872355 0.11933377 0.033317883
0.51874954 0.12018903 0.033312671
0.51960409 0.12085843 0.033868629
0.51963001 0.12171209 0.033863429
0.52048439 0.12237671 0.034419421
0.52051032 0.12322879 0.034414228
0.52053618 0.12408085 0.034409035
0.52139038 0.1247391 0.034965064
0.52141625 0.12558958 0.034959882
0.52144212 0.12644006 0.034954701
0.52229607 0.12709194 0.035510771
0.52232188 0.12794082 0.035505597
0.52234769 0.12878971 0.035500426
0.5223735 0.12963858 0.035495251
0.52239931 0.13048749 0.035490081
0.52325302 0.13112979 0.03604624
0.52327877 0.13197708 0.036041077
0.52330452 0.13282438 0.036035914
0.52333027 0.13367167 0.036030751
0.52252829 0.1347319 0.035464216
0.5225541 0.13558078 0.035459042
0.52257991 0.13642968 0.035453871
0.52260572 0.13727856 0.035448696
0.52180398 0.13834675 0.034882143
0.52182984 0.13919722 0.034876961
0.52185571 0.1400477 0.034871779
0.52188152 0.14089817 0.034866598
0.52190739 0.14174865 0.034861416
0.52193326 0.14259914 0.03485623
0.52195913 0.1434496 0.034851048
0.52198493 0.14430009 0.034845866
0.5220108 0.14515056 0.034840684
0.46529505 0.070616908 -0.002407976
0.46947724 0.071153052 0.00039515918
0.48620114 0.073138356 0.011608673
0.48872015 0.07377857 0.013288627
0.49123886 0.074409232 0.01496864
0.49292699 0.075125381 0.016086826
0.49295443 0.076028414 0.016081324
0.49381205 0.076833226 0.016637692
0.49466965 0.077634849 0.017194113
0.49552706 0.07843329 0.017750524
0.49721444 0.079125546 0.018868852
0.49724165 0.080020614 0.018863399
0.49726886 0.080915697 0.018857943
0.49812597 0.081702985 0.019414419
0.498983 0.082487091 0.01997095
0.49901012 0.083378971 0.019965515
0.49986696 0.084158301 0.020522039
0.50072372 0.084934443 0.021078583
0.50075072 0.085823148 0.021073168
0.50160736 0.086594515 0.021629741
0.5016343 0.087481625 0.021624334
0.50249082 0.088248216 0.022180937
0.50334722 0.08901161 0.022737594
0.5033741 0.089895532 0.022732208
0.50423032 0.090654157 0.023288857
0.50425714 0.091536485 0.023283482
0.50511318 0.092290334 0.023840161
0.50514001 0.093171075 0.023834795
0.50599593 0.093920149 0.024391502
0.50602263 0.094799288 0.024386145
0.50604934 0.095678434 0.024380788
0.50690514 0.09642113 0.02493757
0.50693184 0.097298682 0.024932222
0.50695848 0.098176226 0.024926877
0.50781405 0.098912552 0.025483662
0.50784069 0.099788517 0.025478324
0.50869608 0.10052007 0.026035139
0.50872266 0.10139444 0.026029812
0.50957793 0.10212121 0.026586659
0.50960445 0.10299399 0.026581341
0.51045954 0.10371599 0.027138215
0.51048601 0.10458716 0.027132906
0.51134104 0.10530438 0.027689841
0.5113675 0.10617396 0.027684541
0.51222229 0.1068864 0.028241478
0.51224869 0.10775439 0.028236188
0.51310337 0.10846206 0.028793149
0.51312971 0.10932846 0.02878787
0.5139842 0.11003134 0.02934486
0.51401049 0.11089616 0.029339589
0.51486492 0.11159426 0.029896609
0.51489115 0.11245748 0.029891349
0.51574546 0.11315079 0.030448433
0.51577163 0.11401243 0.030443182
0.5166257 0.11470097 0.03100026
0.51665187 0.11556101 0.030995019
0.51750582 0.11624479 0.031552125
0.51753193 0.11710322 0.031546894
0.51755798 0.11796166 0.031541664
0.51841176 0.11863906 0.032098807
0.5184378 0.11949591 0.032093588
0.51929146 0.12016852 0.032650799
0.51931745 0.12102378 0.032645587
0.52017093 0.12169162 0.03320279
0.52019686 0.12254529 0.033197589
0.52105021 0.12320836 0.033754822
0.52107608 0.12406042 0.033749629
0.52110201 0.1249125 0.033744436
0.52195513 0.12556918 0.034301709
0.52198094 0.12641968 0.034296524
0.52200681 0.12727015 0.034291342
0.52285975 0.12792046 0.034848657
0.52288556 0.12876937 0.034843482
0.52291137 0.12961824 0.034838311
0.52293718 0.13046713 0.034833137
0.52296299 0.13131601 0.034827966
0.52381563 0.13195677 0.035385367
0.52384144 0.13280407 0.035380203
0.52386719 0.13365135 0.03537504
0.52306616 0.13471155 0.034807272
0.52309197 0.13556044 0.034802102
0.52311778 0.13640933 0.034796927
0.52314359 0.1372582 0.034791753
0.5231694 0.13810709 0.034786582
0.52319521 0.13895598 0.034781408
0.52322096 0.13980485 0.034776237
0.52242041 0.14087778 0.034208421
0.52244627 0.14172827 0.034203239
0.52329838 0.14235152 0.034760717
0.52332419 0.1432004 0.034755543
0.52252382 0.1442797 0.034187689
0.52337581 0.14489816 0.034745198
0.52257556 0.14598064 0.034177326
0.52260137 0.14683113 0.034172144
0.46755984 0.070429482 -0.0020214848
0.48929739 0.073756732 0.012583618
0.49181306 0.074387506 0.014267327
0.49349916 0.07510373 0.015387977
0.49435583 0.075910173 0.015945567
0.49521244 0.076713428 0.016503215
0.49606892 0.077513501 0.017060846
0.49692529 0.078310385 0.017618496
0.49778157 0.079104088 0.018176166
0.49780878 0.079999156 0.018170713
0.49866495 0.080788083 0.018728409
0.4986921 0.081681564 0.018722964
0.49954814 0.082465708 0.019280728
0.49957523 0.083357587 0.019275293
0.50043106 0.084136955 0.019833051
0.50045812 0.085027255 0.019827627
0.50131387 0.08580184 0.020385412
0.50216943 0.086573243 0.020943219
0.50219643 0.087460354 0.020937813
0.50305188 0.088226989 0.021495646
0.50307882 0.089112498 0.02149025
0.50393414 0.089874342 0.022048149
0.50396103 0.090758264 0.022042762
0.50481617 0.091515332 0.022600656
0.504843 0.092397667 0.022595281
0.50569803 0.09314996 0.023153203
0.50572479 0.094030701 0.023147836
0.5065797 0.09477821 0.023705784
0.5066064 0.095657356 0.023700427
0.5066331 0.09653651 0.02369507
0.50665987 0.097415648 0.023689713
0.50751454 0.098155193 0.024247749
0.50754118 0.099032745 0.024242401
0.50839567 0.099767514 0.024800431
0.50842232 0.10064349 0.024795093
0.50844896 0.10151944 0.024789754
0.50930327 0.10224784 0.025347823
0.5093298 0.10312221 0.025342494
0.51018399 0.10384584 0.025900593
0.51103801 0.10456628 0.026458707
0.51106453 0.10543746 0.026453398
0.51191849 0.10615312 0.027011579
0.51194489 0.1070227 0.02700628
0.51279867 0.10773358 0.027564455
0.51282507 0.10860159 0.027559165
0.51367867 0.10930769 0.02811737
0.51453221 0.11001061 0.028675593
0.51455849 0.11087543 0.028670324
0.51458478 0.11174023 0.028665053
0.51543808 0.11243679 0.029223314
0.51546437 0.1133 0.029218053
0.51631755 0.11399177 0.029776379
0.51634377 0.11485339 0.029771129
0.51719677 0.11554039 0.030329449
0.51722294 0.11640043 0.030324208
0.51724911 0.11726046 0.030318968
0.51810193 0.11794108 0.030877328
0.51812804 0.11879952 0.030872095
0.51898074 0.11947537 0.031430483
0.51900679 0.12033221 0.031425264
0.51985937 0.12100327 0.031983715
0.51988536 0.12185852 0.031978503
0.52073777 0.12252482 0.03253695
0.5207637 0.12337849 0.032531746
0.52161598 0.12403999 0.033090223
0.52164191 0.12489207 0.03308503
0.52166778 0.12574413 0.033079837
0.52251983 0.12639928 0.033638351
0.5225457 0.12724975 0.033633169
0.52257156 0.12810023 0.033627987
0.52342343 0.12874901 0.034186538
0.52344924 0.12959789 0.034181364
0.52347505 0.13044678 0.034176193
0.52350086 0.13129565 0.034171019
0.52435255 0.13193646 0.034729656
0.5243783 0.13278374 0.034724493
0.52440405 0.13363104 0.034719329
0.5244298 0.13447833 0.034714166
0.52445555 0.13532563 0.034709003
0.5244813 0.13617292 0.03470384
0.52450705 0.1370202 0.034698676
0.52370727 0.13808674 0.034129638
0.52373308 0.13893563 0.034124464
0.52375889 0.1397845 0.034119289
0.52378464 0.14063339 0.034114119
0.52381045 0.14148228 0.034108944
0.52383626 0.14233117 0.034103774
0.52386206 0.14318004 0.034098599
0.52388787 0.14402893 0.034093425
0.52391368 0.14487781 0.034088254
0.52393949 0.1457267 0.03408308
0.52314025 0.14681074 0.033513971
0.46899202 0.070324421 -0.0021942668
0.47233531 0.070939988 5.6938727e-05
0.47484973 0.071628213 0.0017439986
0.47902086 0.072132885 0.0045596524
0.48653325 0.073184632 0.0096269669
0.48904625 0.073826671 0.011314305
0.49238726 0.07436578 0.013566012
0.49407133 0.075082079 0.014689128
0.49409878 0.075985119 0.014683626
0.49578261 0.076691851 0.01580683
0.49663809 0.077491961 0.016365694
0.49749345 0.078288883 0.016924579
0.49834874 0.079082631 0.017483478
0.49837592 0.079977699 0.017478025
0.49923107 0.080766663 0.018036958
0.49925822 0.081660144 0.018031513
0.50011325 0.082444325 0.018590506
0.50014037 0.083336204 0.018585073
0.50099522 0.084115617 0.019144064
0.50102228 0.085005909 0.019138638
0.50187695 0.085780531 0.019697655
0.50190395 0.086669236 0.01969224
0.5027585 0.08743909 0.020251289
0.5027855 0.088326201 0.020245884
0.50363988 0.089091264 0.020804962
0.50366682 0.08997678 0.020799566
0.50452107 0.090737067 0.021358706
0.50454795 0.091620989 0.021353319
0.50540209 0.092376508 0.021912452
0.50542891 0.093258843 0.021907076
0.50628287 0.094009578 0.022466242
0.50630963 0.094890319 0.022460874
0.50633639 0.095771059 0.022455508
0.50719017 0.096515432 0.023014713
0.50721687 0.097394571 0.023009356
0.50724363 0.098273717 0.023003997
0.50809723 0.099011704 0.023563273
0.50812393 0.099889256 0.023557926
0.50815058 0.10076682 0.023552578
0.509004 0.10149844 0.024111858
0.50903058 0.1023744 0.024106519
0.50988382 0.10310125 0.024665831
0.5099104 0.10397562 0.024660503
0.51076353 0.10469769 0.025219843
0.51079005 0.10557046 0.025214525
0.51164299 0.10628776 0.025773892
0.51249588 0.10700185 0.026333313
0.51252234 0.10787144 0.026328014
0.51337504 0.10858077 0.026887432
0.51340145 0.10944876 0.026882142
0.51425397 0.11015332 0.027441589
0.51428032 0.11101973 0.02743631
0.51513273 0.1117195 0.027995784
0.51515901 0.11258432 0.027990514
0.5160113 0.11327931 0.028550019
0.51603752 0.11414253 0.028544759
0.51606375 0.11500574 0.028539499
0.51691592 0.11569437 0.029099075
0.51694208 0.11655599 0.029093824
0.51779401 0.11723984 0.029653398
0.51782018 0.11809987 0.029648157
0.51867193 0.11877894 0.030207757
0.51869804 0.11963739 0.030202527
0.51954967 0.12031167 0.030762158
0.51957572 0.12116852 0.030756935
0.52042729 0.12183802 0.031316631
0.52045327 0.12269328 0.031311419
0.52130461 0.12335802 0.031871106
0.5213306 0.12421168 0.031865906
0.52218175 0.12487164 0.03242562
0.52220768 0.1257237 0.03242043
0.52223355 0.12657578 0.032415237
0.52308458 0.12722936 0.032974996
0.52311045 0.12807983 0.03296981
0.52313632 0.12893033 0.032964628
0.52398711 0.12957753 0.033524424
0.52401292 0.13042642 0.033519249
0.52403873 0.1312753 0.033514079
0.52406454 0.13212419 0.033508904
0.52491516 0.13276343 0.034068786
0.52494091 0.13361073 0.034063622
0.52496666 0.13445802 0.034058459
0.52499241 0.13530532 0.034053296
0.52501816 0.13615261 0.034048133
0.5250439 0.13699989 0.034042969
0.52506965 0.13784719 0.034037806
0.5250954 0.13869448 0.034032643
0.52512115 0.13954177 0.03402748
0.5251469 0.14038906 0.034022316
0.52434832 0.14146192 0.033452004
0.52437413 0.14231081 0.03344683
0.52439994 0.14315969 0.033441655
0.52442575 0.14400858 0.033436485
0.52445155 0.14485745 0.03343131
0.52447736 0.14570636 0.03342614
0.52450317 0.14655523 0.033420965
0.52452898 0.14740412 0.033415794
0.47042212 0.070219442 -0.0023646229
0.47293374 0.070917346 -0.00067395909
0.47544512 0.071605682 0.001016798
0.4787837 0.072197504 0.0032731143
0.48294935 0.072688036 0.0060950192
0.48628712 0.073252782 0.0083515011
0.4896245 0.073804788 0.010608059
0.49213412 0.074437387 0.012299121
0.49381629 0.075155355 0.013424723
0.49549818 0.075866945 0.014550333
0.49635279 0.076670274 0.015110443
0.49803436 0.077370726 0.016236121
0.49888867 0.078166097 0.016796246
0.49891588 0.079061165 0.01679079
0.49894309 0.079956241 0.016785337
0.4997972 0.080745243 0.017345499
0.49982435 0.081638716 0.017340055
0.50067836 0.082422942 0.017900283
0.50070548 0.083314821 0.017894847
0.5007326 0.084206708 0.017889412
0.50158638 0.084984563 0.018449644
0.50161344 0.085874856 0.01844422
0.5024671 0.086647928 0.019004483
0.5024941 0.087536633 0.018999066
0.50334758 0.088304929 0.019559355
0.50337452 0.089192033 0.01955395
0.50422788 0.089955553 0.020114269
0.50425482 0.09084107 0.020108873
0.50510806 0.0915998 0.020669255
0.50513494 0.092483729 0.020663869
0.50598794 0.093237683 0.021224249
0.50601476 0.094120018 0.021218872
0.50686771 0.094869204 0.021779278
0.50689447 0.095749944 0.02177391
0.50692123 0.096630678 0.021768544
0.50777394 0.097373493 0.02232899
0.5078007 0.098252639 0.022323631
0.5078274 0.099131778 0.022318274
0.5078541 0.10001093 0.022312917
0.50870663 0.10074577 0.022873444
0.50873333 0.10162333 0.022868097
0.50958562 0.10235339 0.023428623
0.50961226 0.10322936 0.023423284
0.51046443 0.10395466 0.023983836
0.51049101 0.10482902 0.023978509
0.51134306 0.10554954 0.024539089
0.51136959 0.10642231 0.024533771
0.51222146 0.10713805 0.025094382
0.51224798 0.10800923 0.025089074
0.51309973 0.10872018 0.025649749
0.51395142 0.10942795 0.026210407
0.51397777 0.11029595 0.026205117
0.51482928 0.11099896 0.026765805
0.51485562 0.11186536 0.026760524
0.51570702 0.11256358 0.027321244
0.5157333 0.11342838 0.027315974
0.51658452 0.11412183 0.02787672
0.51661074 0.11498505 0.02787146
0.51663697 0.11584827 0.0278662
0.51748806 0.11653533 0.02842702
0.51751423 0.11739696 0.028421769
0.51836509 0.11807925 0.028982582
0.51839125 0.11893928 0.028977342
0.51924199 0.1196168 0.029538186
0.51926804 0.12047523 0.029532956
0.51929414 0.12133368 0.029527724
0.5201447 0.12200482 0.030088605
0.52017075 0.12286168 0.030083384
