# .PCD v0.7 - Point Cloud Data file format
VERSION 0.7
FIELDS x y z
SIZE 4 4 4
TYPE F F F
COUNT 1 1 1
WIDTH 1382
HEIGHT 1
VIEWPOINT 0 0 0 1 0 0 0
POINTS 1382
DATA ascii
0.58492851 0.11807377 0.014034805
0.5841921 0.11906295 0.013386142
0.5834558 0.12005532 0.012737459
0.5827195 0.12105089 0.012088718
0.58274376 0.12184879 0.012083855
0.58124733 0.12305154 0.010791254
0.58127171 0.12385263 0.010786373
0.58053577 0.12485934 0.010137603
0.57980001 0.12586921 0.0094888126
0.57906425 0.1268823 0.0088399649
0.57756859 0.12810893 0.0075472188
0.57683313 0.12912996 0.0068983613
0.57533771 0.13036776 0.0056055086
0.57308263 0.13182704 0.0036687087
0.57158762 0.13307917 0.0023757685
0.56933302 0.134556 0.00043882368
0.59558553 0.074368238 0.023345377
0.59560895 0.075137496 0.023340689
0.59563231 0.075906746 0.023336001
0.59565568 0.076675996 0.023331314
0.59644103 0.077328883 0.023971204
0.59646434 0.078096539 0.023966527
0.5964877 0.078864202 0.023961848
0.59727281 0.079510711 0.024601776
0.59729612 0.08027678 0.024597108
0.59808111 0.080918513 0.025237085
0.59886599 0.081557058 0.025877064
0.59888917 0.082319945 0.025872415
0.59967393 0.082953714 0.02651244
0.60045856 0.083584301 0.027152466
0.60048169 0.084344 0.027147837
0.60126621 0.084969804 0.027787911
0.60128927 0.0857279 0.027783291
0.60131228 0.086486004 0.027778672
0.60209662 0.087105438 0.028418766
0.60211957 0.087861955 0.028414156
0.60214257 0.088618465 0.028409546
0.60216558 0.089374982 0.028404936
0.60218859 0.090131484 0.028400326
0.60221153 0.090888001 0.028395716
0.60223454 0.091644511 0.028391106
0.60225755 0.09240102 0.028386496
0.60228056 0.093157537 0.028381886
0.60230356 0.093914039 0.028377276
0.60156578 0.094825141 0.027727855
0.60158879 0.095583245 0.027723236
0.60085112 0.09649913 0.027073767
0.60087425 0.097258821 0.027069137
0.60013676 0.098179489 0.026419658
0.59939933 0.099103339 0.025770141
0.59866202 0.10003036 0.025120623
0.59792477 0.10096059 0.024471067
0.5971877 0.10189398 0.02382151
0.59645069 0.10283057 0.023171935
0.59571373 0.10377035 0.022522321
0.5949769 0.1047133 0.021872707
0.59424019 0.10565945 0.021223053
0.59350353 0.10660877 0.0205734
0.592767 0.10756129 0.019923707
0.59203058 0.10851698 0.019274015
0.59129423 0.10947587 0.018624304
0.59055799 0.11043794 0.017974554
0.58982182 0.11140319 0.017324802
0.58908576 0.11237163 0.016675012
0.58834982 0.11334326 0.016025223
0.58761394 0.11431807 0.015375396
0.58687818 0.11529607 0.014725568
0.58614254 0.11627724 0.01407572
0.58540696 0.11726161 0.013425834
0.5846715 0.11824916 0.012775947
0.58393615 0.11923989 0.012126042
0.58320081 0.12023383 0.011476078
0.58322507 0.12103175 0.011471216
0.58248997 0.12203044 0.010821261
0.58175492 0.12303233 0.010171288
0.58102 0.12403739 0.0095212944
0.58028519 0.12504566 0.0088712815
0.57955039 0.1260571 0.0082212118
0.57881576 0.12707172 0.0075711599
0.57732213 0.12829988 0.0062759393
0.57658768 0.12932247 0.0056258007
0.5750944 0.13056177 0.0043305117
0.5728423 0.13202254 0.002389966
0.57059056 0.13349287 0.00044940048
0.56909794 0.13475448 -0.00084606273
0.59604961 0.073580548 0.022754747
0.59607297 0.074349798 0.022750061
0.59609634 0.075119048 0.022745373
0.5961197 0.075888306 0.022740686
0.59614313 0.076657556 0.022735998
0.59616649 0.077426814 0.02273131
0.59695077 0.078078136 0.023372443
0.59697407 0.078845799 0.023367764
0.59699744 0.079613455 0.023363087
0.59854227 0.080135711 0.024650127
0.59856552 0.080900185 0.024645468
0.59934938 0.081538767 0.025286678
0.59937257 0.082301654 0.025282029
0.60015631 0.08293546 0.025923287
0.60093993 0.083566085 0.026564546
0.60096306 0.084325783 0.026559915
0.60174656 0.084951624 0.027201222
0.60176963 0.085709728 0.027196603
0.60179263 0.086467832 0.027191984
0.60257596 0.087087303 0.027833311
0.60259891 0.087843813 0.027828701
0.60262191 0.08860033 0.027824091
0.60264492 0.08935684 0.027819481
0.60266793 0.090113349 0.027814871
0.60269094 0.090869859 0.027810261
0.60271388 0.091626376 0.027805651
0.60273689 0.092382886 0.027801041
0.6027599 0.093139395 0.027796431
0.60278291 0.093895905 0.02779182
0.60204613 0.094806969 0.027141167
0.60130942 0.095721222 0.026490476
0.60133249 0.096480921 0.026485845
0.60059595 0.097399943 0.025835145
0.59985954 0.098322168 0.025184404
0.59988272 0.099085048 0.025179755
0.59914643 0.10001203 0.024529004
0.59765077 0.10110793 0.023232106
0.59691471 0.10204287 0.022581307
0.59617871 0.10298102 0.021930469
0.59620214 0.10375186 0.021925772
0.59470707 0.10486685 0.020628756
0.59473062 0.10564089 0.02062404
0.59399498 0.10659017 0.019973153
0.59250039 0.10771951 0.01867605
0.59176499 0.10867675 0.018025115
0.5910297 0.1096372 0.017374141
0.59029454 0.11060081 0.016723169
0.58955944 0.11156763 0.016072156
0.58882445 0.11253762 0.015421144
0.58808953 0.1135108 0.014770093
0.58735472 0.11448717 0.014119042
0.58662003 0.11546671 0.013467972
0.58588541 0.11644945 0.012816863
0.58590955 0.1172426 0.01281203
0.5851751 0.11823011 0.012160911
0.58444071 0.1192208 0.011509772
0.58370644 0.1202147 0.010858577
0.58297223 0.12121177 0.010207399
0.5822382 0.12221202 0.0095562022
0.58150423 0.12321546 0.008904987
0.58077037 0.12422208 0.0082537513
0.58003652 0.12523189 0.0076024579
0.57930285 0.12624489 0.0069511835
0.5793274 0.12705237 0.0069462629
0.5778358 0.12828043 0.0056485771
0.57634431 0.12951489 0.0043508136
0.57485312 0.13075569 0.00305305
0.57260412 0.13221796 0.0011087969
0.59651363 0.07279285 0.022164119
0.5957768 0.073670439 0.021512419
0.59580022 0.074441284 0.021507721
0.59582365 0.075212128 0.021503024
0.59584713 0.075982966 0.021498326
0.59663051 0.076639108 0.022140682
0.59665394 0.077408366 0.022135993
0.5966773 0.078177616 0.022131307
0.59746051 0.078827389 0.022773681
0.59748381 0.079595052 0.022769004
0.5982669 0.080240048 0.023411408
0.59904987 0.080881856 0.024053849
0.59907311 0.081646331 0.024049191
0.59985596 0.082283363 0.024691643
0.60063869 0.082917213 0.025334135
0.60066181 0.083678499 0.025329495
0.60144442 0.084307566 0.025971996
0.60222691 0.084933452 0.026614536
0.60224998 0.085691549 0.026609916
0.60227299 0.086449653 0.026605295
0.6030553 0.087069169 0.027247854
0.60307825 0.087825678 0.027243245
0.60310125 0.088582195 0.027238635
0.60312426 0.089338705 0.027234025
0.60314727 0.090095215 0.027229415
0.60317028 0.090851724 0.027224805
0.60319322 0.091608241 0.027220195
0.60321623 0.092364743 0.027215585
0.60323924 0.09312126 0.027210975
0.60250342 0.094030686 0.0265591
0.60252649 0.09478879 0.02655448
0.60179079 0.095703006 0.025902554
0.6010552 0.096620411 0.02525063
0.60107833 0.097381696 0.025245991
0.60034287 0.098303877 0.024594018
0.59960759 0.099229239 0.023942046
0.5988723 0.10015778 0.023290034
0.59813714 0.10108952 0.022638023
0.5974021 0.10202443 0.021985991
0.59666717 0.10296253 0.021333922
0.5959323 0.10390382 0.020681851
0.59519756 0.1048483 0.020029742
0.59446287 0.10579596 0.019377634
0.5937283 0.1067468 0.018725486
0.59299386 0.10770084 0.018073339
0.59225947 0.10865805 0.017421171
0.5915252 0.10961846 0.016768966
0.59079105 0.11058202 0.016116761
0.59005696 0.11154881 0.015464515
0.58932292 0.11251876 0.01481227
0.58858907 0.1134919 0.014159987
0.58785528 0.11446823 0.013507703
0.58712161 0.11544774 0.012855401
0.58638799 0.11643044 0.012203059
0.5856545 0.11741631 0.011550718
0.58492106 0.11840539 0.010898356
0.58418775 0.11939765 0.010245937
0.58345455 0.12039308 0.0095935371
0.58272141 0.12139171 0.0089411177
0.58274579 0.12219281 0.0089362357
0.58201283 0.12319621 0.0082837874
0.58127999 0.1242028 0.00763132
0.58054715 0.12521258 0.006978794
0.57981449 0.12622553 0.0063262871
0.57908189 0.12724167 0.0056737605
0.57759231 0.12847127 0.0043735611
0.57610297 0.12970722 0.0030733619
0.57385683 0.131163 0.0011254502
0.57236791 0.13241328 -0.00017483719
0.59624183 0.07288111 0.020920569
0.59626526 0.073651955 0.020915871
0.59628868 0.074422799 0.020911174
0.59631211 0.075193644 0.020906476
0.59633553 0.075964488 0.020901779
0.59635895 0.076735333 0.020897081
0.59638238 0.077506185 0.020892385
0.59716469 0.078159176 0.021535991
0.59718812 0.078928426 0.021531304
0.59797025 0.079576649 0.022174921
0.59799355 0.080344304 0.022170244
0.59877557 0.080987751 0.022813888
0.59955752 0.081628002 0.023457574
0.60033929 0.082265072 0.024101257
0.60112107 0.08289896 0.024744982
0.60114419 0.083660245 0.024740342
0.60192579 0.084289357 0.025384076
0.60270727 0.084915273 0.026027847
0.60273027 0.085673377 0.026023228
0.60275334 0.086431481 0.026018608
0.60353464 0.087051027 0.026662398
0.60355765 0.087807544 0.026657788
0.60358059 0.088564053 0.026653178
0.6036036 0.08932057 0.02664857
0.60362661 0.090077072 0.02664396
0.60364962 0.090833589 0.02663935
0.60367256 0.091590099 0.02663474
0.60369557 0.092346609 0.02663013
0.60296071 0.093254417 0.02597703
0.60298377 0.094012514 0.025972411
0.60224903 0.094925098 0.025319263
0.60227215 0.095684789 0.025314635
0.60153759 0.096602157 0.024661478
0.60080308 0.097522698 0.024008282
0.60006869 0.098446429 0.023355085
0.59933442 0.099373348 0.022701852
0.59860021 0.10030345 0.022048617
0.59786618 0.10123674 0.021395363
0.59713215 0.10217321 0.02074207
0.59639829 0.10311287 0.020088777
0.59566444 0.1040557 0.019435447
0.59493077 0.10500174 0.018782115
0.59419715 0.10595096 0.018128743
0.59346366 0.10690335 0.017475374
0.59273022 0.10785894 0.016821984
0.59199691 0.1088177 0.016168555
0.59126371 0.10977966 0.015515126
0.59053057 0.1107448 0.014861659
0.58979756 0.11171313 0.014208192
0.5890646 0.11268464 0.013554685
0.58833182 0.11365934 0.012901179
0.5875991 0.11463721 0.012247653
0.58686644 0.11561828 0.011594089
0.5861339 0.11660253 0.010940525
0.58540148 0.11758997 0.01028694
0.58466905 0.1185806 0.009633298
0.58393681 0.1195744 0.0089796754
0.58320469 0.12057139 0.0083260331
0.58322906 0.12137251 0.0083211511
0.58249706 0.12237427 0.0076674805
0.58176512 0.12337922 0.0070137894
0.58103329 0.12438737 0.0063600405
0.58030158 0.1253987 0.0057063112
0.57957 0.1264132 0.0050525623
0.57883847 0.1274309 0.0043987934
0.57735091 0.12866202 0.0030961193
0.57586366 0.12989949 0.0017934451
0.57362056 0.13135675 -0.00015817415
0.59673023 0.072862633 0.02032402
0.59675366 0.073633477 0.020319322
0.59677708 0.074404322 0.020314625
0.59680051 0.075175166 0.020309927
0.59682393 0.075946003 0.020305229
0.59684741 0.076716855 0.020300532
0.59687084 0.0774877 0.020295836
0.59689426 0.078258544 0.020291138
0.5976755 0.078909986 0.020935988
0.59769887 0.079679236 0.0209313
0.59847999 0.080325902 0.021576159
0.59926099 0.080969386 0.022221038
0.60004193 0.081609674 0.022865955
0.60082269 0.08224678 0.023510871
0.60160345 0.082880706 0.024155827
0.60162657 0.083641991 0.024151187
0.60240716 0.08427114 0.024796154
0.60318762 0.084897101 0.025441159
0.60321069 0.085655198 0.025436539
0.6032337 0.086413302 0.02543192
0.60401398 0.087032892 0.026076943
0.60403699 0.087789401 0.026072333
0.60405993 0.088545918 0.026067723
0.60408294 0.089302428 0.026063113
0.60410595 0.090058938 0.026058502
0.60412896 0.090815447 0.026053892
0.60415196 0.091571964 0.026049282
0.60341805 0.092478126 0.025394961
0.60344106 0.093236238 0.025390342
0.60270733 0.09414719 0.024735972
0.60273039 0.094906889 0.024731344
0.60199678 0.09582261 0.024076963
0.60201997 0.096583903 0.024072323
0.60128647 0.097504407 0.023417896
0.6005531 0.0984281 0.022763468
0.59981984 0.099354982 0.022109
0.59908664 0.10028505 0.021454534
0.59835356 0.1012183 0.020800047
0.59762061 0.10215472 0.020145521
0.59613138 0.10326312 0.018841149
0.59615493 0.10403715 0.018836433
0.59542221 0.10498314 0.018181868
0.59468961 0.10593233 0.017527265
0.59395713 0.10688468 0.016872663
0.59246862 0.10801697 0.015568144
0.59173638 0.10897728 0.014913493
0.59100419 0.1099408 0.014258802
0.59027219 0.11090749 0.013604112
0.58954018 0.11187737 0.012949383
0.5888083 0.11285044 0.012294654
0.58807653 0.11382668 0.011639905
0.58734488 0.11480612 0.010985117
0.5866133 0.11578874 0.01033033
0.58588183 0.11677454 0.0096755233
0.58515042 0.11776354 0.0090206582
0.58441913 0.11875572 0.0083658127
0.58368796 0.11975107 0.0077109477
0.58371228 0.12055219 0.0077060661
0.58298123 0.12155233 0.0070511722
0.5822503 0.12255564 0.0063962582
0.58151942 0.12356217 0.005741287
0.58078867 0.12457186 0.0050863344
0.58005804 0.12558474 0.0044313627
0.57932746 0.1266008 0.0037763715
0.57859695 0.12762007 0.0031213218
0.57711154 0.12885268 0.0018162115
0.5748713 0.13030346 -0.00013906597
0.59646147 0.072950773 0.019076789
0.59648496 0.073723204 0.019072082
0.59650844 0.074495643 0.019067375
0.59653193 0.075268082 0.019062668
0.59655541 0.076040521 0.019057961
0.59733582 0.07669837 0.019703984
0.59735924 0.077469222 0.019699287
0.59738266 0.078240059 0.019694591
0.59740609 0.079010911 0.019689893
0.59818631 0.079660796 0.020335983
0.59896642 0.080307499 0.020982075
0.59974641 0.080951013 0.021628186
0.60052627 0.081591345 0.022274336
0.60130608 0.082228489 0.022920486
0.60208583 0.082862452 0.023566674
0.6028654 0.083493233 0.024212863
0.60288846 0.084252931 0.024208235
0.60366797 0.084878922 0.02485447
0.60369104 0.085637026 0.024849851
0.60371405 0.08639513 0.024845231
0.60449332 0.087014757 0.025491487
0.60451633 0.087771267 0.025486877
0.60453928 0.088527784 0.025482267
0.60456228 0.089284293 0.025477657
0.60458529 0.090040803 0.025473047
0.6046083 0.090797313 0.025468439
0.60387534 0.091701858 0.024812894
0.60389841 0.092459954 0.024808275
0.60392141 0.093218066 0.024803655
0.60318869 0.094128974 0.024148053
0.60321176 0.094888672 0.024143422
0.60247916 0.095804363 0.02348781
0.60174668 0.096723244 0.022832159
0.60101426 0.097645298 0.022176508
0.60028195 0.098570548 0.021520818
0.59954971 0.099498987 0.020865129
0.59881759 0.10043059 0.020209419
0.59808558 0.1013654 0.019553671
0.59735364 0.10230339 0.018897923
0.59662181 0.10324457 0.018242136
0.5958901 0.10418892 0.017586349
0.59515846 0.10513648 0.016930522
0.59442693 0.10608721 0.016274698
0.59369546 0.10704111 0.015618852
0.59296411 0.10799821 0.014962967
0.59223288 0.1089585 0.014307084
0.59150171 0.10992198 0.013651161
0.59077066 0.11088862 0.012995238
0.59003973 0.11185847 0.012339277
0.58930886 0.1128315 0.011683315
0.58782333 0.11399397 0.010376147
0.5870927 0.11497495 0.0097201364
0.58636218 0.11595912 0.0090641072
0.58563173 0.1169465 0.0084080193
0.58490139 0.11793704 0.007751951
0.58417118 0.11893077 0.0070958636
0.58419555 0.11973187 0.007090982
0.58346546 0.12073038 0.0064348644
0.58273548 0.12173208 0.0057787285
0.58200556 0.12273696 0.0051225335
0.58127576 0.12374502 0.004466359
0.58130032 0.1245525 0.0044614384
0.5805707 0.12556535 0.0038052336
0.57908696 0.12678833 0.0024976777
0.57835758 0.12780914 0.0018414251
0.5768742 0.12904328 0.0005338398
0.59695089 0.072932251 0.018479008
0.59697437 0.07370469 0.018474301
0.59699786 0.074477129 0.018469594
0.59702134 0.07524956 0.018464888
0.59704483 0.076021999 0.018460181
0.59706831 0.076794438 0.018455474
0.5978477 0.077450737 0.019102739
0.59787112 0.078221582 0.019098042
0.59789455 0.078992426 0.019093344
0.5986737 0.079642348 0.019740669
0.59945279 0.080289096 0.020387992
0.60023177 0.080932647 0.021035336
0.60101068 0.081573017 0.021682717
0.60178947 0.082210198 0.0223301
0.60256815 0.082844205 0.022977522
0.60259134 0.083605491 0.022972882
0.60336983 0.084234715 0.023620313
0.60414833 0.08486075 0.024267782
0.6041714 0.085618846 0.024263162
0.6041944 0.08637695 0.024258543
0.60497266 0.086996615 0.024906032
0.60499567 0.087753132 0.024901422
0.60501868 0.088509642 0.024896812
0.60504162 0.089266151 0.024892202
0.60506463 0.090022661 0.024887592
0.60433269 0.090925574 0.024230825
0.60435569 0.091683678 0.024226205
0.60437876 0.092441775 0.024221586
0.60364693 0.093351074 0.02356476
0.60367006 0.094110765 0.023560131
0.60293841 0.095024824 0.022903295
0.60220683 0.095942065 0.022246422
0.60147542 0.096862502 0.021589547
0.60149866 0.097626969 0.021584889
0.60001278 0.098712914 0.020275723
0.59928167 0.099642903 0.019618791
0.59855056 0.10057608 0.018961819
0.59781963 0.10151243 0.018304849
0.59708875 0.10245198 0.017647838
0.596358 0.10339471 0.016990829
0.59562731 0.10434062 0.016333779
0.59489673 0.10528972 0.015676731
0.59416622 0.10624201 0.015019664
0.59343582 0.10719747 0.014362557
0.59270555 0.10815613 0.013705449
0.59197539 0.10911797 0.013048304
0.59124529 0.11008299 0.012391158
0.59051526 0.1110512 0.011733974
0.5897854 0.1120226 0.011076789
0.5890556 0.11299717 0.010419586
0.58832586 0.11397495 0.009762343
0.5875963 0.1149559 0.0091051003
0.58611304 0.11612944 0.00779538
0.58613729 0.11692737 0.0077905175
0.58465445 0.11811046 0.0064807781
0.58467877 0.11891156 0.0064758966
0.58394969 0.11990844 0.0058185561
0.58322066 0.1209085 0.0051611974
0.5824917 0.12191176 0.0045037796
0.58176285 0.12291819 0.0038463818
0.58178741 0.12372567 0.0038414614
0.58105874 0.12473688 0.0031840345
0.58033013 0.12575127 0.002526588
0.57960159 0.12676886 0.0018690831
0.57812017 0.12799814 0.00055906177
0.59741688 0.072141297 0.017885935
0.59744036 0.072913729 0.017881228
0.59746385 0.073686168 0.017876521
0.59748733 0.074458607 0.017871814
0.59751081 0.075231045 0.017867107
0.59753424 0.076003477 0.0178624
0.59755772 0.076775916 0.017857693
0.59758121 0.077548362 0.017852984
0.59835953 0.078203097 0.018501494
0.59838295 0.078973949 0.018496796
0.59916115 0.079623908 0.019145353
0.59918451 0.080393158 0.019140666
0.59996253 0.081038348 0.019789232
0.60149509 0.081554689 0.0210911
0.60227287 0.082191914 0.021739714
0.60305053 0.082825951 0.022388369
0.60307366 0.083587237 0.022383729
0.6038512 0.084216498 0.023032393
0.60462868 0.08484257 0.023681095
0.60465175 0.085600674 0.023676476
0.60467476 0.086358778 0.023671856
0.605452 0.08697848 0.024320576
0.60547501 0.08773499 0.024315966
0.60549802 0.088491507 0.024311356
0.60476691 0.089391187 0.023653377
0.60478997 0.090149291 0.023648757
0.60481304 0.090907395 0.023644138
0.60483605 0.091665506 0.023639517
0.60410523 0.092573151 0.022981469
0.6041283 0.093332857 0.02297684
0.60339767 0.094245277 0.022318782
0.60342079 0.09500657 0.022314142
0.60269022 0.095923774 0.021656036
0.60195982 0.096844174 0.02099793
0.60122943 0.097767748 0.020339785
0.60049921 0.098694511 0.01968164
0.59976906 0.099624462 0.019023474
0.59903902 0.1005576 0.018365271
0.59830904 0.10149392 0.017707067
0.59757918 0.10243342 0.017048825
0.59684944 0.10337611 0.016390583
0.59536654 0.10449224 0.015078766
0.5953902 0.10527105 0.01507402
0.59390759 0.10639673 0.013762146
0.59317827 0.10735375 0.013103817
0.59244901 0.10831397 0.012445448
0.59171987 0.10927736 0.011787079
0.59099084 0.11024395 0.011128672
0.59026194 0.1112137 0.010470265
0.58953309 0.11218666 0.0098118382
0.5888043 0.11316279 0.0091533726
0.5880757 0.11414211 0.0084949071
0.58734715 0.11512462 0.007836422
0.58661866 0.11611031 0.0071778786
0.58589029 0.1170992 0.0065193549
0.58516204 0.11809125 0.005860812
0.58443391 0.1190865 0.0052022492
0.58370584 0.12008492 0.0045436677
0.58297783 0.12108655 0.003885027
0.58224994 0.12209135 0.0032264062
0.5822745 0.12289882 0.0032214858
0.58154678 0.12390841 0.0025628353
0.58081919 0.12492117 0.0019041661
0.5800916 0.12593713 0.0012454388
0.57936418 0.12695627 0.00058673014
0.59790629 0.072122775 0.017288154
0.59792978 0.072895214 0.017283445
0.59795326 0.073667653 0.017278738
0.59797674 0.074440084 0.017274031
0.59800023 0.075212523 0.017269325
0.59802371 0.075984962 0.017264618
0.5980472 0.076757394 0.017259911
0.59807068 0.07752984 0.017255204
0.59884799 0.07818462 0.017904945
0.59887141 0.078955464 0.017900247
0.59964854 0.079605468 0.018550036
0.59967196 0.080374718 0.018545348
0.60044897 0.081019945 0.019195147
0.60197943 0.08153636 0.020499481
0.6027562 0.082173623 0.021149328
0.60353291 0.082807697 0.021799214
0.60355604 0.083568983 0.021794576
0.60433257 0.084198289 0.022444472
0.60510904 0.084824398 0.023094406
0.6051321 0.085582495 0.023089787
0.60515511 0.086340599 0.023085168
0.60593134 0.086960346 0.023735121
0.60595435 0.087716855 0.023730511
0.60522425 0.088614911 0.023071308
0.60524726 0.089373015 0.023066688
0.60527033 0.090131119 0.023062069
0.60529339 0.090889223 0.02305745
0.60456347 0.091795251 0.022398178
0.6045866 0.092554942 0.022393549
0.60385686 0.093465745 0.021734267
0.60387999 0.094227023 0.021729628
0.60315043 0.095142603 0.0210703
0.60242093 0.096061364 0.02041097
0.60169154 0.096983321 0.019751601
0.60096228 0.097908445 0.019092234
0.60023308 0.098836765 0.018432846
0.59950399 0.099768274 0.01777342
0.59877503 0.10070296 0.017113993
0.59804612 0.10164084 0.016454527
0.59731734 0.10258189 0.015795063
0.59658861 0.10352614 0.015135559
0.59586 0.10447357 0.014476055
0.59513152 0.10542417 0.013816532
0.59440309 0.10637799 0.013156969
0.59367478 0.10733496 0.012497407
0.59294653 0.10829514 0.011837806
0.5922184 0.1092585 0.011178205
0.59073842 0.1104048 0.0098637389
0.59001058 0.11137613 0.0092040896
0.58928275 0.11235064 0.0085444013
0.5885551 0.11332832 0.0078847129
0.5878275 0.1143092 0.0072250054
0.58709997 0.11529326 0.0065652388
0.58637261 0.11628051 0.0059054922
0.58564532 0.11727095 0.0052457266
0.58491808 0.11826456 0.0045859409
0.58419102 0.11926135 0.0039261361
0.58346397 0.12026135 0.0032662728
0.58273703 0.12126452 0.0026064294
0.58276159 0.122072 0.0026015087
0.58203483 0.12307994 0.0019416361
0.58130819 0.12409108 0.001281744
0.58058155 0.12510541 0.00062179321
0.57985508 0.12612291 -3.813771e-05
0.59837228 0.071331821 0.01669508
0.59839576 0.07210426 0.016690373
0.59841925 0.072876692 0.016685667
0.59844267 0.073649131 0.01668096
0.59846616 0.07442157 0.016676251
0.59848964 0.075194001 0.016671544
0.59851313 0.07596644 0.016666837
0.59853661 0.076738879 0.01666213
0.59931296 0.077395298 0.017313095
0.59933639 0.078166135 0.017308397
0.59935981 0.078936987 0.0173037
0.60013598 0.07958702 0.01795472
0.60015935 0.08035627 0.017950034
0.60093534 0.081001535 0.018601066
0.60246384 0.081518032 0.019907864
0.6032396 0.082155332 0.020558944
0.60401529 0.082789451 0.021210061
0.60403842 0.083550729 0.021205423
0.60481393 0.084180072 0.02185655
0.60558939 0.084806219 0.022507718
0.60561246 0.085564323 0.022503098
0.60563546 0.086322427 0.022498479
0.60565853 0.087080531 0.02249386
0.60568154 0.087838635 0.02248924
0.60570461 0.088596739 0.022484619
0.60572761 0.089354835 0.02248
0.60575068 0.090112939 0.02247538
0.60577375 0.090871044 0.022470761
0.60504484 0.091777034 0.021810258
0.60431612 0.092686199 0.021149753
0.60433924 0.093447492 0.021145115
0.60361063 0.094361432 0.020484563
0.60288209 0.095278569 0.019824011
0.60215366 0.096198879 0.01916342
0.60142535 0.097122379 0.01850283
0.60069716 0.09804906 0.017842218
0.59996897 0.098978944 0.01718157
0.59924096 0.099912003 0.016520919
0.59851301 0.10084825 0.015860232
0.59778517 0.10178768 0.015199544
0.5970574 0.10273029 0.014538817
0.59632981 0.10367609 0.01387809
0.59560227 0.10462507 0.013217344
0.5948748 0.10557724 0.012556558
0.59414744 0.1065326 0.011895774
0.59342015 0.10749114 0.01123495
0.59269303 0.10845286 0.010574127
0.59196591 0.10941777 0.0099132638
0.59123898 0.11038586 0.0092524011
0.5905121 0.11135715 0.0085915187
0.58978534 0.11233162 0.0079305973
0.58830786 0.11349377 0.0066135894
0.58758128 0.11447622 0.0059525999
0.58685488 0.11546183 0.0052916305
0.58612853 0.11645062 0.0046306415
0.58540231 0.11744261 0.0039696335
0.58467615 0.11843777 0.0033086059
0.5839501 0.11943615 0.0026475203
0.58322412 0.12043768 0.0019864538
0.58324867 0.12124516 0.0019815331
0.58252287 0.12225148 0.0013204376
0.58179718 0.12326097 0.00065932266
0.58107156 0.12427368 -1.8510085e-06
0.58034605 0.12528956 -0.00066300482
0.59888518 0.072085738 0.016092591
0.59890866 0.072858177 0.016087884
0.59893215 0.073630609 0.016083177
0.59895563 0.074403048 0.01607847
0.59897912 0.075175487 0.016073763
0.5990026 0.075947918 0.016069056
0.59902602 0.076720357 0.01606435
0.59980136 0.077376813 0.016716545
0.59982479 0.078147657 0.016711848
0.59984821 0.078918502 0.01670715
0.60062337 0.07956858 0.017359404
0.60064679 0.08033783 0.017354717
0.60142177 0.080983132 0.01800698
0.60294825 0.081499703 0.019316245
0.60372299 0.082137041 0.019968558
0.60449767 0.082771197 0.020620909
0.6045208 0.083532482 0.020616269
0.6052953 0.084161855 0.02126863
0.60606974 0.084788047 0.021921029
0.60609281 0.085546143 0.02191641
0.60611582 0.086304247 0.021911791
0.60613889 0.087062351 0.021907171
0.60616189 0.087820455 0.021902552
0.60618496 0.088578559 0.021897931
0.60620797 0.089336663 0.021893311
0.60548002 0.090239428 0.021231595
0.60550314 0.090999126 0.021226967
0.60552621 0.091758825 0.021222336
0.6047985 0.092667945 0.0205606
0.60407078 0.093580268 0.019898826
0.60334325 0.094495766 0.019237051
0.60336649 0.09526024 0.019232392
0.60263908 0.096180514 0.018570568
0.60191178 0.097103976 0.017908745
0.60118455 0.098030619 0.017246902
0.60045743 0.098960467 0.01658502
0.59897995 0.10005566 0.015265935
0.59900349 0.10082969 0.015261218
0.59827662 0.10176908 0.014599297
0.59754992 0.10271166 0.013937338
0.59682328 0.10365742 0.013275378
0.59534651 0.10477649 0.011956148
0.59462011 0.10573022 0.01129414
0.59389383 0.10668714 0.010632093
0.5931676 0.10764723 0.0099700466
0.5924415 0.10861051 0.009307961
0.59171551 0.10957697 0.0086458754
0.59098959 0.11054663 0.0079837712
0.59026378 0.11151946 0.0073216269
0.58953804 0.11249548 0.0066594831
0.58806264 0.11365917 0.0053399601
0.5880869 0.11445709 0.0053350981
0.58661181 0.11563031 0.004015557
0.58663613 0.11643142 0.0040106755
0.58516133 0.11761421 0.0026910754
0.58443624 0.11861093 0.0020287661
0.58371127 0.11961085 0.0013664768
0.58373576 0.12041832 0.0013615562
0.58301097 0.12142301 0.00069923775
0.58228618 0.12243089 3.6899859e-05
0.58156151 0.12344196 -0.00062549597
0.59937459 0.072067216 0.015494811
0.59939808 0.072839655 0.015490104
0.60017264 0.073504105 0.016143484
0.59944504 0.074384525 0.01548069
0.60021949 0.075045794 0.016134089
0.60024297 0.075816639 0.016129391
0.6002664 0.076587483 0.016124694
0.60028982 0.077358335 0.016119996
0.60031325 0.078129172 0.0161153
0.60108745 0.078780882 0.016768776
0.60111082 0.07955014 0.016764089
0.60188484 0.080197066 0.017417576
0.60265875 0.080840819 0.018071081
0.60343266 0.081481375 0.018724626
0.60420638 0.08211875 0.019378172
0.60498005 0.082752943 0.020031756
0.60500318 0.083514228 0.020027116
0.60577667 0.084143646 0.020680711
0.6065501 0.084769867 0.021334343
0.60657316 0.085527971 0.021329721
0.60659617 0.086286075 0.021325102
0.60661924 0.087044179 0.021320483
0.60664225 0.087802283 0.021315863
0.60666531 0.088560387 0.021311244
0.60593832 0.089461513 0.020648304
0.60596138 0.090221211 0.020643676
0.60523456 0.09112712 0.019980725
0.60525769 0.091888413 0.019976087
0.60453099 0.09279909 0.019313088
0.60455418 0.093561977 0.01930844
0.60382766 0.094477437 0.018645432
0.60310119 0.095396087 0.017982386
0.60237485 0.09631791 0.01731934
0.60164857 0.097242929 0.016656274
0.60092241 0.09817113 0.015993169
0.60019636 0.099102527 0.015330065
0.59947038 0.10003711 0.014666921
0.59874451 0.10097486 0.014003778
0.59801871 0.10191581 0.013340596
0.59729308 0.10285994 0.012677413
0.59656751 0.10380725 0.012014213
0.595842 0.10475775 0.011350972
0.59511662 0.10571144 0.010687731
0.59364223 0.10684159 0.0093659675
0.59291708 0.10780325 0.008702659
0.59219205 0.10876808 0.0080393506
0.59146708 0.10973609 0.0073760226
0.59074223 0.11070731 0.0067126565
0.59001744 0.11168168 0.0060492898
0.58929282 0.11265927 0.0053859036
0.58856821 0.11364003 0.0047224592
0.58784378 0.11462398 0.0040590339
0.5871194 0.11561111 0.0033955905
0.58639514 0.11660142 0.0027321267
0.58492237 0.11778574 0.0014100127
0.58419836 0.11878401 0.00074650126
0.58422285 0.11959149 0.00074158068
0.58349901 0.12059455 7.8039338e-05
0.58277524 0.12160079 -0.0005855207
0.60061425 0.071943939 0.01555633
0.60063767 0.072714783 0.015551632
0.6006611 0.073485628 0.015546935
0.60068452 0.074256472 0.015542237
0.60070795 0.075027317 0.01553754
0.60073137 0.075798154 0.015532843
0.6007548 0.076569006 0.015528145
0.60152811 0.077223942 0.016182836
0.60155147 0.077993184 0.01617815
0.60157484 0.078762442 0.016173461
0.60234791 0.079411007 0.01682817
0.60237128 0.080178663 0.016823493
0.60314417 0.080822453 0.017478231
0.603917 0.081463046 0.018133009
0.60468978 0.082100458 0.018787786
0.60546243 0.082734689 0.019442603
0.60623497 0.083365738 0.02009742
0.60625803 0.084125429 0.020092789
0.6062811 0.084885128 0.02008816
0.60705352 0.085509792 0.020743035
0.60707653 0.086267896 0.020738415
0.60709959 0.087026 0.020733796
0.60637349 0.087923907 0.020069642
0.60639656 0.088683605 0.020065013
0.60641968 0.089443304 0.020060385
0.60569382 0.090347573 0.019396212
0.60571694 0.091108866 0.019391572
0.6049912 0.092017926 0.018727351
0.60501438 0.092780806 0.018722704
0.60428882 0.093694635 0.018058473
0.60356331 0.094611652 0.017394204
0.60283792 0.095531859 0.016729934
0.60211265 0.096455239 0.016065646
0.60138744 0.097381808 0.015401318
0.60066229 0.098311566 0.014736992
0.59993732 0.099244513 0.014072625
0.59921241 0.10018064 0.013408259
0.59848756 0.10111996 0.012743854
0.59776288 0.10206246 0.012079448
0.59703827 0.10300813 0.011415024
0.59631371 0.10395701 0.010750561
0.59558928 0.10490906 0.010086098
0.59486496 0.10586431 0.0094215963
0.59414077 0.10682273 0.0087570939
0.59266853 0.10795918 0.0074328259
0.59194458 0.10892557 0.0067682755
0.59122068 0.10989514 0.0061036861
0.5904969 0.1108679 0.0054390966
0.58977318 0.11184385 0.0047744876
0.58904952 0.11282299 0.0041098199
0.58832604 0.11380529 0.0034451724
0.58760267 0.1147908 0.0027805052
0.58687937 0.11577948 0.0021158201
0.58615613 0.11677135 0.001451114
0.58468544 0.11795718 0.00012652496
0.58471 0.11876465 0.00012160445
0.58398706 0.11976609 -0.00054315984
0.60107923 0.071154609 0.014964478
0.60110265 0.071925461 0.01495978
0.60112607 0.072696298 0.014955084
0.6011495 0.073467143 0.014950386
0.60117292 0.074237987 0.014945689
0.60194534 0.074897736 0.015601583
0.60196877 0.075666986 0.015596895
0.60199213 0.076436237 0.015592208
0.6020155 0.077205494 0.01558752
0.60203886 0.077974744 0.015582833
0.60281098 0.078624941 0.016238764
0.60283434 0.079392597 0.016234087
0.60360628 0.080038019 0.016890047
0.60437816 0.080680244 0.017546048
0.60514992 0.081319287 0.018202048
0.60517311 0.082082167 0.018197399
0.60594475 0.082716443 0.018853448
0.60671633 0.083347522 0.019509496
0.6067394 0.08410722 0.019504867
0.60676247 0.084866911 0.019500237
0.6067856 0.08562661 0.019495608
0.60755688 0.086249724 0.020151725
0.60683179 0.087145999 0.019486349
0.60685486 0.087905698 0.01948172
0.60687792 0.088665396 0.019477092
0.60615301 0.089568034 0.018811697
0.6061762 0.090329319 0.018807057
0.60545141 0.091236748 0.018141614
0.60547459 0.091999635 0.018136965
0.60474998 0.092911825 0.017471513
0.60402542 0.093827225 0.016806019
0.60330099 0.094745785 0.016140528
0.60257667 0.095667548 0.015475017
0.60185242 0.096592486 0.014809467
0.60112828 0.097520612 0.014143917
0.6004042 0.09845192 0.013478328
0.5996803 0.099386416 0.012812737
0.59895641 0.10032411 0.012147111
0.59823269 0.10126498 0.011481483
0.59750903 0.10220903 0.010815836
0.59678543 0.10315627 0.010150149
0.596062 0.10410669 0.0094844634
0.59533858 0.1050603 0.0088187382
0.59461534 0.10601709 0.0081530139
0.59389216 0.10697708 0.0074872496
0.59316909 0.10794024 0.0068214862
0.59244609 0.10890659 0.0061557023
0.5909763 0.11005411 0.0048289015
0.59025353 0.11102843 0.0041630701
0.58953089 0.11200593 0.0034971805
0.58880836 0.11298662 0.0028313091
0.58808589 0.11397048 0.0021654197
0.58736354 0.11495754 0.001499511
0.58664131 0.11594778 0.00083358126
0.58591914 0.11694121 0.00016759447
0.58519709 0.11793783 -0.00049837254
0.60004771 0.070568286 0.013049116
0.60156763 0.071136132 0.01436793
0.60159105 0.071906976 0.014363232
0.60161453 0.072677821 0.014358535
0.602386 0.073340788 0.015015641
0.60240942 0.074110039 0.015010954
0.60243279 0.074879296 0.015006267
0.60245615 0.075648546 0.015001578
0.60247952 0.076417796 0.014996891
0.60325074 0.07707122 0.015654037
0.60327405 0.077838875 0.01564936
0.60329741 0.078606538 0.015644681
0.6040684 0.079253584 0.016301865
0.6040917 0.080019653 0.016297197
0.60486257 0.080661915 0.016954429
0.60563332 0.081300996 0.017611664
0.60640401 0.081936896 0.018268934
0.60642713 0.082698189 0.018264296
0.60719764 0.083329305 0.018921576
0.60722077 0.084089004 0.018916948
0.60724384 0.084848695 0.018912317
0.60726696 0.085608393 0.018907689
0.60729003 0.086368084 0.01890306
0.6073131 0.087127782 0.018898429
0.60733622 0.087887481 0.018893801
0.60661227 0.088788494 0.018227182
0.60663539 0.089549787 0.018222544
0.60591161 0.090455577 0.017555878
0.6059348 0.091218457 0.017551228
0.60521114 0.092129029 0.016884552
0.60448754 0.093042783 0.016217837
0.60376406 0.093959726 0.015551123
0.6030407 0.094879843 0.014884388
0.60306406 0.095649101 0.014879701
0.60234082 0.096574001 0.014212918
0.60161769 0.09750209 0.013546135
0.60089469 0.098433368 0.012879314
0.60017174 0.099367827 0.012212493
0.59944886 0.10030548 0.011545632
0.59872615 0.1012463 0.010878772
0.59800351 0.10219032 0.010211892
0.59728092 0.10313752 0.0095449733
0.59655851 0.1040879 0.008878055
0.59508997 0.10521146 0.0075489348
0.59436774 0.10616981 0.0068819472
0.59364563 0.10713135 0.0062149619
0.59292358 0.10809606 0.0055479556
0.59220165 0.10906398 0.0048809098
0.59073395 0.110213 0.0035516543
0.59001219 0.11118889 0.0028845407
0.58929062 0.11216793 0.0022174474
0.58856916 0.11315018 0.0015503357
0.58784777 0.11413559 0.00088320335
0.58712649 0.1151242 0.00021605156
0.58640528 0.11611601 -0.00045115894
0.58696568 0.068362579 0.00054081529
0.59222215 0.068499625 0.0051765582
0.60053813 0.070549734 0.012450104
0.60205609 0.071117647 0.013771382
0.60207951 0.071888499 0.013766686
0.60210294 0.072659336 0.013761988
0.60287344 0.073322348 0.014420326
0.60289681 0.074091598 0.014415639
0.60292017 0.074860848 0.014410951
0.6029436 0.075630106 0.014406264
0.60371381 0.076285154 0.015064632
0.60373718 0.077052809 0.015059954
0.60376048 0.077820472 0.015055276
0.60453051 0.07846915 0.015713684
0.60455382 0.079235218 0.015709015
0.60532373 0.079879113 0.016367471
0.60609353 0.080519825 0.017025927
0.60611671 0.081282705 0.017021278
0.60688639 0.081918642 0.017679781
0.60690951 0.082679935 0.017675143
0.60767901 0.083311096 0.018333657
0.60770214 0.084070787 0.018329028
0.6077252 0.084830485 0.018324399
0.60774833 0.085590176 0.018319769
0.6077714 0.086349875 0.01831514
0.60779446 0.087109573 0.01831051
0.60707152 0.088008948 0.017642669
0.60709465 0.088770241 0.01763803
0.60637176 0.089674406 0.016970141
0.60639495 0.090437286 0.016965494
0.60567224 0.091346227 0.016297592
0.60494965 0.092258357 0.015629657
0.60422713 0.093173653 0.014961718
0.60425049 0.093941323 0.01495704
0.60352814 0.094861403 0.014289073
0.60280585 0.095784679 0.013621069
0.60208368 0.096711136 0.012953062
0.60136157 0.097640783 0.012285018
0.60063964 0.09857361 0.011616973
0.59991771 0.099509627 0.010948891
0.59919596 0.10044882 0.010280807
0.59847426 0.1013912 0.0096127037
0.59775263 0.10233679 0.0089445617
0.59703118 0.10328553 0.0082764216
0.59630978 0.10423747 0.0076082405
0.59558845 0.1051926 0.0069400603
0.59486723 0.10615091 0.0062718424
0.59340107 0.10728554 0.0049402076
0.5926801 0.10825182 0.0042719394
0.59195924 0.10922127 0.0036036721
0.59049356 0.11037184 0.0022719025
0.58977294 0.11134926 0.0016035854
0.58905238 0.11232986 0.00093525031
0.588332 0.11331365 0.00026689575
0.58761168 0.11430063 -0.0004014782
0.5889672 0.068156414 0.0012479401
0.59347016 0.068385594 0.005228159
0.60177481 0.070429742 0.01251532
0.60254449 0.07109917 0.013174834
0.60256791 0.071870014 0.013170137
0.60333747 0.072534651 0.013829699
0.60336083 0.073303908 0.013825011
0.60338426 0.074073151 0.013820323
0.60340762 0.074842408 0.013815636
0.60417688 0.075499088 0.014475227
0.60420024 0.076266751 0.014470549
0.60422355 0.077034406 0.014465871
0.60424691 0.077802069 0.014461193
0.60501593 0.078450784 0.015120832
0.60578489 0.07909631 0.015780512
0.60580814 0.079860784 0.015775854
0.60657692 0.080501541 0.016435541
0.60734564 0.081139103 0.01709527
0.60736877 0.081900388 0.01709063
0.60739189 0.082661681 0.01708599
0.60816038 0.083292879 0.017745737
0.6081835 0.084052578 0.017741106
0.60820657 0.084812269 0.017736478
0.6082297 0.085571967 0.017731847
0.60825276 0.086331658 0.017727219
0.60753071 0.087229408 0.017058156
0.6075539 0.087990701 0.017053517
0.60683197 0.088893235 0.016384404
0.60685515 0.089656115 0.016379755
0.6061334 0.090563416 0.015710635
0.60541177 0.091473922 0.015041472
0.60469019 0.092387602 0.014372313
0.60471356 0.09315525 0.014367635
0.60399216 0.094073713 0.013698446
0.60327083 0.09499535 0.013029217
0.60254961 0.095920183 0.012359989
0.60182852 0.09684819 0.011690721
0.60110748 0.097779393 0.011021454
0.60038656 0.098713778 0.010352148
0.59966576 0.099651344 0.0096828416
0.59894502 0.10059209 0.0090135168
0.5982244 0.10153604 0.0083441529
0.59750384 0.10248316 0.0076747881
0.5967834 0.10343347 0.0070053851
0.59606308 0.10438697 0.0063359817
0.59534281 0.10534365 0.00566654
0.59462267 0.10630351 0.0049970979
0.59390265 0.10726657 0.0043276376
0.59243864 0.10840748 0.0029934798
0.59171885 0.1093785 0.0023239695
0.59099913 0.1103527 0.0016544007
0.58953565 0.11150955 0.00032016632
0.58881617 0.11249171 -0.00034941186
0.59096479 0.067950398 0.0019600347
0.59471607 0.068271644 0.0052822237
0.59998131 0.069160961 0.0099306423
0.60075021 0.069838375 0.010591358
0.60151905 0.070512615 0.011252075
0.60303295 0.071080685 0.012578284
0.60305637 0.071851537 0.012573587
0.6030798 0.072622374 0.012568889
0.60384828 0.07328546 0.013229694
0.60387164 0.074054711 0.013225007
0.60389501 0.074823961 0.01322032
0.60466331 0.075480685 0.013881142
0.60468662 0.07624834 0.013876464
0.60470998 0.077016003 0.013871787
0.60547805 0.07766635 0.014532649
0.60550129 0.078432418 0.01452798
0.60626924 0.079077981 0.015188892
0.60703707 0.079720363 0.015849803
0.60706031 0.08048325 0.015845153
0.60782796 0.081120849 0.016506115
0.60785115 0.081882142 0.016501475
0.60861868 0.082514971 0.017162444
0.60864174 0.08327467 0.017157815
0.60866487 0.084034361 0.017153185
0.60868794 0.084794059 0.017148556
0.60796684 0.085688584 0.01647828
0.60798997 0.086449869 0.016473642
0.60801309 0.087211162 0.016469002
0.60729218 0.088112056 0.015798666
0.60731536 0.088874944 0.015794018
0.60659456 0.089780621 0.015123674
0.60661781 0.090545088 0.015119015
0.60589719 0.091455549 0.014448621
0.60517663 0.092369191 0.013778228
0.60445619 0.093286015 0.013107817
0.6037358 0.094206035 0.012437364
0.6030156 0.095129222 0.011766913
0.6022954 0.096055605 0.011096423
0.60231894 0.09682963 0.011091706
0.60159898 0.097760797 0.010421206
0.60013556 0.098853856 0.0090848766
0.60015923 0.099632673 0.0090801306
0.59869611 0.1007353 0.0077437405
0.59871989 0.10151728 0.0077389753
0.59800035 0.10246438 0.0070683789
0.59728092 0.10341465 0.0063977428
0.59656161 0.10436811 0.0057271072
0.59584236 0.10532475 0.005056432
0.59438014 0.10645603 0.0037198879
0.59366113 0.10742065 0.0030491643
0.59294224 0.10838843 0.0023784416
0.59148043 0.10953566 0.001041761
0.59076178 0.11051141 0.00037098982
0.59004325 0.11149034 -0.00029980225
0.59370273 0.067651145 0.0033436671
0.59596008 0.068157762 0.005338775
0.60047376 0.069142327 0.0093291635
0.60124171 0.069819778 0.0099911122
0.60200948 0.070494056 0.010653063
0.60352135 0.071062207 0.011981737
0.60354477 0.071833052 0.011977039
0.6035682 0.072603896 0.011972343
0.60433567 0.07326702 0.012634379
0.60435909 0.07403627 0.012629692
0.60438246 0.07480552 0.012625004
0.60514969 0.075462282 0.013287059
0.60517305 0.076229937 0.013282381
0.60519636 0.0769976 0.013277703
0.60596341 0.077647984 0.013939799
0.6067304 0.078295179 0.014601933
0.60675365 0.079059653 0.014597274
0.60752046 0.079702079 0.015259419
0.60754365 0.080464959 0.015254769
0.60831034 0.081102602 0.015916962
0.60833353 0.081863888 0.015912322
0.60910004 0.082496755 0.016574522
0.60912311 0.083256453 0.016569894
0.60914624 0.084016144 0.016565265
0.6091693 0.084775843 0.016560635
0.60844922 0.08567033 0.015889127
0.60847235 0.086431615 0.015884489
0.60775238 0.087330893 0.015212931
0.60777557 0.088093765 0.015208282
0.60705572 0.088997819 0.014536714
0.60707897 0.089762293 0.014532055
0.6063593 0.090671115 0.013860439
0.6056397 0.091583125 0.013188823
0.60492021 0.092498325 0.012517189
0.60494363 0.093267575 0.012512501
0.60422426 0.09418755 0.011840818
0.60350502 0.0951107 0.011169133
0.60278589 0.096037045 0.010497411
0.60206681 0.096966572 0.0098256879
0.60134786 0.097899295 0.0091539258
0.60062903 0.098835185 0.0084821656
0.59991026 0.099774271 0.0078103845
0.59919161 0.10071655 0.0071385647
0.59847301 0.101662 0.0064667445
0.59775454 0.10261065 0.005794886
0.59703618 0.10356247 0.0051230285
0.59631789 0.10451748 0.0044511301
0.59559971 0.10547567 0.0037792337
0.59413958 0.10660848 0.0024401941
0.59342164 0.10757465 0.0017682491
0.59270382 0.10854398 0.0010962834
0.5912441 0.10969273 -0.00024287202
0.5956912 0.067445479 0.0040668165
0.59794539 0.067949019 0.0060656597
0.60096627 0.069123693 0.0087276855
0.60173315 0.069801189 0.0093908673
0.6024999 0.070475504 0.010054049
0.60400981 0.071043722 0.011385188
0.60403323 0.071814574 0.011380491
0.60479975 0.072479323 0.012043752
0.60482311 0.073248573 0.012039063
0.60484648 0.074017823 0.012034376
0.60486984 0.07478708 0.012029689
0.60563612 0.075443871 0.012692977
0.60565943 0.076211534 0.0126883
0.60568279 0.07697919 0.012683622
0.60644883 0.077629618 0.013346949
0.60721481 0.07827685 0.014010315
0.60723805 0.079041325 0.014005656
0.60800385 0.079683788 0.014669032
0.6087696 0.080323055 0.015332447
0.60879272 0.081084348 0.015327808
0.60881585 0.081845634 0.01532317
0.60958141 0.082478538 0.015986603
0.60960448 0.083238237 0.015981974
0.6096276 0.083997935 0.015977345
0.60890841 0.08489079 0.015304613
0.60893154 0.085652076 0.015299974
0.60895473 0.086413369 0.015295335
0.60823572 0.087312602 0.014622544
0.6082589 0.088075481 0.014617895
0.60754013 0.08897949 0.013945095
0.60682142 0.089886688 0.013272258
0.60610276 0.090797059 0.012599419
0.60612613 0.091564722 0.012594741
0.60540766 0.092479877 0.011921873
0.60468924 0.093398213 0.011248966
0.603971 0.094319753 0.01057606
0.60325277 0.09524446 0.0099031134
0.60253471 0.096172355 0.0092301685
0.60181671 0.097103439 0.0085571846
0.60109884 0.098037712 0.0078842007
0.60038102 0.098975159 0.0072111972
0.59966332 0.099915802 0.0065381541
0.59894574 0.10085963 0.0058651115
0.59822822 0.10180664 0.0051920298
0.59751081 0.10275684 0.0045189485
0.59679347 0.10371021 0.0038458291
0.59607625 0.10466678 0.0031727091
0.59535915 0.10562653 0.0024995697
0.5946421 0.10658947 0.0018263906
0.59318417 0.10772857 0.0004848674
0.59246737 0.10869947 -0.00018837913
0.59767562 0.067239963 0.0047949133
0.60145873 0.069105059 0.0081262067
0.60222459 0.069782592 0.0087906215
0.60299039 0.070456944 0.0094550364
0.60449821 0.071025245 0.01078864
0.60452163 0.071796089 0.010783942
0.60454506 0.072566934 0.010779245
0.6053105 0.073230132 0.011443747
0.60533392 0.073999383 0.01143906
0.60535729 0.074768633 0.011434372
0.60612249 0.075425468 0.012098894
0.60614586 0.076193132 0.012094215
0.60616916 0.076960787 0.012089538
0.60693425 0.077611253 0.012754098
0.60769922 0.078258522 0.013418696
0.60846406 0.078902617 0.014083296
0.60848725 0.079665497 0.014078647
0.60925198 0.080304809 0.014743295
0.6092751 0.081066094 0.014738656
0.61003965 0.08170063 0.015403312
0.61006278 0.082460329 0.015398682
0.61008584 0.083220027 0.015394053
0.60936767 0.084111251 0.014720099
0.6093908 0.084872536 0.01471546
0.60941392 0.085633829 0.014710821
0.60869592 0.08653143 0.014036808
0.60871911 0.08729431 0.014032159
0.60800129 0.088196687 0.013358136
0.60802454 0.088961162 0.013353477
0.60730678 0.089868315 0.012679406
0.6065892 0.090778656 0.012005336
0.60587168 0.091692179 0.011331244
0.60515428 0.092608899 0.010657115
0.6051777 0.093379736 0.010652417
0.60446042 0.094301231 0.0099782795
0.60374326 0.0952259 0.0093041016
0.60302615 0.096153758 0.0086299228
0.60230917 0.097084805 0.0079557057
0.6015923 0.098019041 0.0072814897
0.60013503 0.099115059 0.005937743
0.60015881 0.099897057 0.0059329779
0.59944224 0.10084084 0.0052587036
0.59872574 0.10178781 0.0045843883
0.59800929 0.10273797 0.0039100754
0.59729302 0.10369131 0.0032357227
0.59657681 0.10464785 0.0025613694
0.59512055 0.10577731 0.0012174203
0.59440464 0.1067418 0.00054301851
0.59368873 0.10770947 -0.00013140123
0.59367621 0.066191286 0.00017496938
0.59666628 0.066619307 0.0028514063
0.59891456 0.067127861 0.004857616
0.60118622 0.068405665 0.0068591195
0.60269248 0.068988375 0.0081951004
0.60271603 0.069763996 0.0081903739
0.604222 0.070337147 0.0095264148
0.60424548 0.071109585 0.0095217079
0.60501009 0.071777612 0.010187394
0.60503352 0.072548449 0.010182696
0.60579795 0.073211692 0.01084843
0.60582131 0.073980942 0.010843743
0.60584468 0.074750192 0.010839055
0.6058681 0.075519443 0.010834368
0.60663229 0.076174721 0.011500131
0.6066556 0.076942384 0.011495453
0.60741961 0.077592887 0.012161246
0.60818356 0.078240193 0.012827078
0.60894746 0.078884326 0.013492909
0.60897064 0.079647206 0.013488261
0.60973436 0.080286555 0.01415414
0.60975748 0.08104784 0.014149501
0.61052102 0.081682414 0.014815391
0.61054415 0.082442112 0.014810761
0.61056721 0.083201811 0.014806132
0.60985005 0.084092997 0.014130944
0.60987318 0.084854282 0.014126305
0.6098963 0.085615575 0.014121667
0.60917932 0.086513139 0.013446421
0.6092025 0.087276019 0.013441773
0.60848564 0.088178359 0.012766518
0.60776889 0.089083888 0.012091223
0.60705227 0.08999259 0.011415929
0.60707557 0.090760246 0.011411251
0.60635912 0.091673739 0.010735928
0.60564268 0.092590421 0.010060566
0.60492635 0.09351027 0.0093852049
0.60421014 0.094433323 0.0087098023
0.60349405 0.095359549 0.0080344016
0.60277802 0.096288964 0.0073589631
0.60206211 0.097221553 0.0066835233
0.60134625 0.098157339 0.0060080644
0.60063052 0.099096313 0.0053325659
0.59991491 0.10003847 0.0046570678
0.59919935 0.10098381 0.0039815321
0.5992232 0.10176899 0.0039767474
0.59850782 0.10271911 0.0033012009
0.59705335 0.10383894 0.0019548435
0.59633821 0.10479702 0.0012792486
0.59562314 0.10575829 0.00060361542
0.59490818 0.10672275 -7.2018243e-05
0.59492028 0.066082187 0.00023147144
0.59790629 0.06650877 0.0029128687
0.60091567 0.067703009 0.0055895867
0.60167968 0.068386994 0.006256409
0.60318393 0.068969779 0.007594855
0.60394776 0.0696458 0.0082617253
0.60397124 0.070419826 0.0082570091
0.60473496 0.071091071 0.0089239273
0.60549849 0.071759127 0.0095908456
0.60552192 0.072529972 0.009586148
0.60628533 0.073193245 0.010253116
0.60630876 0.073962495 0.010248427
0.60633212 0.074731752 0.01024374
0.60635549 0.075501002 0.010239053
0.60711867 0.076156318 0.010906048
0.60714203 0.076923981 0.01090137
0.60790503 0.077574514 0.011568395
0.60866797 0.078221865 0.01223546
0.60943079 0.078866035 0.012902523
0.60945398 0.079628915 0.012897874
0.61021674 0.080268301 0.013564987
0.61023986 0.081029594 0.013560348
0.61100239 0.081664197 0.014227471
0.61102545 0.082423896 0.014222842
0.61104858 0.083183594 0.014218212
0.61033243 0.084074743 0.013541792
0.61035556 0.084836036 0.013537153
0.60963953 0.085731968 0.012860684
0.60966271 0.086494848 0.012856035
0.6089468 0.087395556 0.012179558
0.60897005 0.088160031 0.0121749
0.60825431 0.089065522 0.011498373
0.6075387 0.089974187 0.010821845
0.60682315 0.090886042 0.0101453
0.60610765 0.091801085 0.0094687147
0.60539234 0.092719316 0.0087921312
0.60467708 0.09364073 0.0081155067
0.60396194 0.094565332 0.0074388827
0.60324687 0.095493108 0.0067622201
0.60253191 0.09642408 0.0060855583
0.60181701 0.097358227 0.0054088761
0.60110223 0.098295577 0.0047321548
0.60038757 0.099236093 0.0040554348
0.60041142 0.10001968 0.0040506599
0.59969687 0.10096499 0.0033738906
0.59898245 0.10191347 0.0026971223
0.59826809 0.10286515 0.0020203125
0.59755385 0.10382 0.0013435052
