# .PCD v0.7 - Point Cloud Data file format
VERSION 0.7
FIELDS x y z
SIZE 4 4 4
TYPE F F F
COUNT 1 1 1
WIDTH 1356
HEIGHT 1
VIEWPOINT 0 0 0 1 0 0 0
POINTS 1356
DATA ascii
0.41722691 0.067049123 0.0040624896
0.41553101 0.0682052 0.0030117668
0.41469854 0.069292091 0.0024833179
0.41386619 0.070382163 0.0019548493
0.41217077 0.071554169 0.00090402365
0.40961254 0.072812878 -0.00066912425
0.40705454 0.074081145 -0.0022423624
0.45951313 0.015125426 0.029751824
0.45954135 0.016053945 0.029746167
0.45956957 0.01698246 0.029740509
0.4595978 0.017910978 0.02973485
0.46049064 0.01884361 0.030252228
0.46051881 0.019770535 0.030246578
0.46054697 0.020697461 0.030240931
0.46057516 0.021624384 0.030235281
0.46060333 0.022551311 0.030229634
0.46063152 0.023478234 0.030223984
0.46152401 0.024399718 0.030741429
0.46155211 0.025325051 0.030735791
0.46158025 0.026250383 0.030730151
0.46160838 0.027175715 0.030724512
0.46077237 0.028112859 0.030195743
0.46080056 0.029039783 0.030190093
0.45996469 0.029981704 0.029661294
0.45999292 0.030910222 0.029655637
0.45915717 0.031856924 0.029126776
0.45832154 0.032806806 0.028597934
0.457486 0.033759877 0.028069068
0.45665058 0.034716133 0.027540181
0.45581529 0.035675574 0.027011275
0.45497999 0.0366382 0.026482318
0.45414487 0.037604012 0.025953373
0.45330983 0.038573008 0.025424413
0.45247489 0.03954519 0.02489543
0.45164001 0.040520556 0.024366396
0.44994181 0.041533221 0.023314105
0.4491072 0.042516548 0.02278506
0.44827271 0.043503065 0.022255989
0.44657496 0.044531655 0.02120357
0.4457407 0.045526132 0.02067445
0.44404325 0.046565872 0.019621968
0.4423461 0.047611978 0.018569475
0.44151223 0.048619196 0.018040279
0.43981531 0.049676452 0.016987691
0.43898168 0.050691634 0.016458444
0.43728518 0.05176004 0.015405815
0.43645179 0.052783184 0.014876521
0.43475559 0.053862739 0.013823798
0.43305963 0.054948661 0.012771062
0.43222657 0.055984553 0.012241658
0.43053094 0.057081621 0.011188859
0.42883551 0.058185063 0.010136016
0.42714021 0.059294879 0.0090831025
0.42544517 0.060411062 0.0080301873
0.42375025 0.061533619 0.0069771959
0.42291808 0.062596582 0.0064476593
0.42122358 0.063730285 0.005394632
0.4195292 0.064870358 0.0043415395
0.41869742 0.065946065 0.003811925
0.41700342 0.067097284 0.0027587907
0.41530958 0.068254881 0.0017055917
0.41447818 0.069343321 0.0011758995
0.41364688 0.07043495 0.00064618798
0.41281563 0.071529768 0.00011642502
0.41026041 0.072788365 -0.0014604171
0.40770546 0.074056514 -0.0030373551
0.46010146 0.015103164 0.029033257
0.46012968 0.016031682 0.0290276
0.4601579 0.0169602 0.029021941
0.46018612 0.017888715 0.029016282
0.46021435 0.018817235 0.029010626
0.46024257 0.019745752 0.029004967
0.46027079 0.02067427 0.028999308
0.46116248 0.021602161 0.029517947
0.46119064 0.022529088 0.029512299
0.46121883 0.023456011 0.02950665
0.461247 0.024382938 0.029501002
0.46127516 0.025309861 0.029495353
0.46130335 0.026236786 0.029489705
0.46133152 0.02716371 0.029484056
0.46135971 0.028090635 0.029478408
0.4605248 0.029030927 0.028948385
0.46055302 0.029959444 0.028942727
0.45971823 0.030904513 0.028412649
0.45888355 0.031852767 0.027882578
0.458049 0.032804206 0.027352488
0.45721453 0.03375883 0.026822383
0.45638019 0.03471664 0.026292253
0.45554587 0.035677638 0.025762072
0.45471171 0.036641818 0.025231909
0.45474026 0.037581485 0.025226183
0.45304364 0.038579732 0.024171514
0.45220971 0.039553471 0.02364126
0.45137593 0.040530391 0.023111016
0.45054224 0.0415105 0.02258075
0.44884625 0.042529456 0.02152596
0.44801277 0.043517526 0.020995613
0.44631714 0.044547629 0.019940756
0.44548392 0.045543663 0.019410394
0.44378856 0.046584915 0.018355437
0.44209346 0.047632538 0.017300466
0.44126064 0.048641313 0.016770033
0.43956581 0.049700085 0.015714962
0.43873325 0.050716825 0.01518448
0.43703881 0.051786743 0.014129374
0.43620643 0.052811448 0.01359881
0.43451235 0.053892516 0.012543636
0.43368024 0.054925181 0.012013056
0.43198645 0.056017399 0.010957783
0.43029287 0.057115987 0.009902508
0.42946118 0.058161389 0.0093718451
0.4277679 0.059271131 0.0083164703
0.42521331 0.060449973 0.0067364136
0.424382 0.061509714 0.0062056305
0.42268935 0.062638558 0.0051501715
0.42099684 0.063773789 0.0040946356
0.41930458 0.064915374 0.003039099
0.41847387 0.065992631 0.0025082415
0.4167819 0.06714537 0.0014526048
0.4159514 0.068230592 0.00092169875
0.41512102 0.069319002 0.00039077908
0.41342953 0.070487671 -0.00066496048
0.41259935 0.071584038 -0.0011959287
0.41004723 0.07284411 -0.0027764861
0.45896417 0.015059778 0.027263733
0.45985523 0.016000452 0.027783528
0.45988351 0.016930562 0.02777786
0.45991176 0.017860672 0.027772192
0.45994005 0.018790781 0.027766524
0.4599683 0.019720891 0.027760856
0.46085912 0.020652007 0.028280741
0.46088734 0.021580525 0.028275084
0.46091557 0.022509042 0.028269425
0.46094379 0.02343756 0.028263766
0.46183431 0.024360713 0.028783662
0.4618625 0.025287637 0.028778013
0.46189067 0.026214562 0.028772365
0.46191886 0.027141487 0.028766716
0.4610849 0.028080147 0.028235476
0.46111313 0.029008664 0.028229818
0.46027929 0.029952103 0.027698509
0.4594456 0.030898726 0.027167216
0.45947391 0.03183043 0.027161539
0.45864037 0.032781828 0.026630219
0.45780692 0.033736415 0.026098875
0.45611173 0.034717072 0.02504182
0.45527855 0.035679623 0.024510434
0.4553071 0.036619287 0.024504708
0.45447403 0.037586614 0.023973288
0.45277944 0.038586386 0.022916116
0.45194662 0.039561674 0.022384651
0.45111388 0.040540151 0.021853162
0.45028126 0.04152181 0.021321654
0.44944873 0.042506658 0.020790132
0.44775489 0.04353191 0.019732805
0.44692263 0.044524718 0.019201228
0.44522914 0.04556112 0.018143833
0.44353589 0.046603885 0.017086431
0.44270399 0.047609437 0.016554778
0.44101104 0.048663355 0.015497277
0.44017938 0.049676869 0.014965579
0.43848681 0.050741933 0.013908042
0.43765542 0.051763412 0.013376291
0.43596312 0.052839629 0.012318653
0.4342711 0.053922214 0.011261009
0.43344003 0.054956436 0.010729154
0.43174833 0.056050166 0.0096714357
0.43091753 0.05709235 0.0091395639
0.42922613 0.058197234 0.0080817519
0.427535 0.059308488 0.0070239333
0.42584401 0.060426109 0.0059660752
0.42415321 0.061550103 0.0049081412
0.42332309 0.062614582 0.0043761334
0.42163262 0.063749731 0.003318137
0.41994238 0.064891241 0.0022601336
0.41911265 0.065968461 0.0017280427
0.41742271 0.067121126 0.00066993944
0.41573301 0.068280153 -0.00038817068
0.41490367 0.069370113 -0.00092033914
0.41407436 0.07046327 -0.0014525533
0.41238514 0.071638227 -0.0025107604
0.41069612 0.072819553 -0.0035690065
0.41190824 0.0063000373 -0.002376056
0.41624984 0.0074280803 0.00025088515
0.45958284 0.015969144 0.026537027
0.45961115 0.016900847 0.02653135
0.45963949 0.017832549 0.026525673
0.4596678 0.018764252 0.026519995
0.46055764 0.019698592 0.027041055
0.46058592 0.020628702 0.027035387
0.4606142 0.021558812 0.027029719
0.46150389 0.022486782 0.027550858
0.46153212 0.023415299 0.027545199
0.46156034 0.024343817 0.02753954
0.46158856 0.025272334 0.027533883
0.46161678 0.026200851 0.027528225
0.46164501 0.027129369 0.027522566
0.46167323 0.028057886 0.027516909
0.46084037 0.028999694 0.026984377
0.46000764 0.029944686 0.026451865
0.46003595 0.030876389 0.026446186
0.45920336 0.031826157 0.025913645
0.45837086 0.032779112 0.025381077
0.45753849 0.033735257 0.024848497
0.45670614 0.034694582 0.024315858
0.45587394 0.035657093 0.023783239
0.45504183 0.036622789 0.0232506
0.4542098 0.037591673 0.022717936
0.45337784 0.03856374 0.022185227
0.45168552 0.039569803 0.021125581
0.45085385 0.04054983 0.02059285
0.45002228 0.041533049 0.020060103
0.44919077 0.04251945 0.019527307
0.44749907 0.043546215 0.018467534
0.44666782 0.04454058 0.017934715
0.44497642 0.045578495 0.01687485
0.44414541 0.046580821 0.016341982
0.4424544 0.047629885 0.015282075
0.4407635 0.04868532 0.014222103
0.43993291 0.049700391 0.013689158
0.43824241 0.050766971 0.012629143
0.43741199 0.051790006 0.012096123
0.43572184 0.052867737 0.011036041
0.43489173 0.053898729 0.010503004
0.43320185 0.054987613 0.0094428221
0.43237197 0.05602657 0.0089097312
0.43068251 0.057126597 0.0078495191
0.42899317 0.058232997 0.0067892307
0.42730409 0.059345767 0.0057289354
0.42561513 0.060464907 0.0046685692
0.42478594 0.061526161 0.0041353479
0.42309737 0.062656447 0.0030749459
0.42226836 0.063725673 0.002541644
0.42058015 0.064867109 0.0014811739
0.41889212 0.066014916 0.00042066514
0.41720426 0.067169093 -0.00063991453
0.41637582 0.068255834 -0.0011732911
0.41468829 0.069421157 -0.0022339388
0.41386011 0.070515864 -0.0027673696
0.41775182 0.0074256207 -3.8873127e-06
0.45931247 0.01593776 0.025288055
0.4602015 0.01687851 0.025810311
0.46022984 0.017810211 0.025804633
0.46025816 0.018741915 0.025798954
0.46028647 0.019673618 0.025793277
0.46031478 0.02060532 0.025787599
0.46120355 0.021536512 0.026309919
0.4612318 0.022466624 0.026304251
0.46126008 0.023396732 0.026298583
0.4621487 0.024321556 0.026820967
0.46217692 0.025250072 0.02681531
0.46220514 0.026178589 0.026809651
0.46137315 0.027117174 0.026275912
0.46140143 0.028047284 0.026270244
0.46056965 0.028990645 0.025736501
0.46059799 0.029922348 0.025730824
0.45976636 0.030870488 0.025197059
0.45893481 0.031821813 0.024663273
0.45810339 0.032776322 0.024129469
0.45727199 0.03373402 0.023595609
0.45644078 0.034694899 0.023061765
0.45560962 0.035658963 0.022527901
0.45477858 0.036626216 0.021994015
0.45394757 0.037596654 0.021460081
0.45311671 0.038570274 0.020926161
0.45228598 0.039547082 0.02039222
0.45059586 0.040559437 0.019330069
0.45062473 0.04151025 0.019324275
0.44893485 0.042532165 0.01826204
0.44810456 0.043523304 0.017728006
0.44641501 0.044556368 0.016665705
0.44472569 0.045595799 0.015603389
0.44389576 0.046599679 0.015069284
0.44220677 0.047650259 0.014006868
0.44137707 0.048662104 0.013472714
0.43968844 0.04972383 0.012410263
0.43799996 0.05079193 0.011347746
0.43717065 0.051816519 0.010813515
0.43548259 0.052895762 0.0097509567
0.43465346 0.053928319 0.0092166448
0.43296573 0.055018712 0.0081540188
0.43213689 0.056059223 0.0076196902
0.43044946 0.057160772 0.006556964
0.42876223 0.058268685 0.0054942369
0.42707521 0.059382968 0.0044314652
0.42624685 0.060441006 0.003896998
0.42456019 0.061566435 0.0028341585
0.42373213 0.062632434 0.0022996746
0.42204574 0.06376902 0.0012367408
0.42121795 0.064842977 0.00070220279
0.41953194 0.065990709 -0.00036076689
0.41784605 0.067144811 -0.0014238132
0.41616043 0.068305284 -0.0024868606
0.41533312 0.069396764 -0.0030215373
0.41925171 0.0074232365 -0.00025622515
0.42014241 0.0084516201 0.00026672956
0.421893 0.0094954586 0.0013188174
0.4590441 0.015906302 0.024036627
0.45993218 0.01684868 0.024560105
0.45996055 0.017781977 0.024554418
0.45998892 0.018715272 0.024548732
0.46087682 0.019651279 0.025072249
0.46090513 0.020582983 0.025066571
0.46093345 0.021514686 0.025060894
0.46182114 0.022444325 0.02558445
0.46184942 0.023374433 0.025578782
0.4618777 0.024304545 0.025573114
0.46190596 0.025234653 0.025567448
0.46193424 0.026164765 0.02556178
0.46196249 0.027094875 0.025556112
0.46113169 0.028036606 0.025021151
0.46116 0.028968308 0.025015473
0.46032935 0.029914817 0.024480484
0.4603577 0.030848112 0.024474798
0.45952719 0.031799398 0.023939779
0.45869675 0.03275387 0.023404742
0.45700759 0.033732705 0.022340296
0.45703617 0.034672368 0.02233457
0.45620602 0.035636399 0.021799473
0.45451728 0.036629565 0.020734947
0.4536874 0.037601557 0.020199802
0.45285761 0.038576733 0.019664638
0.45202792 0.039555095 0.01912945
0.45119831 0.040536642 0.018594246
0.45036876 0.041521374 0.018058993
0.448681 0.042544801 0.016994314
0.44785172 0.043537498 0.016459042
0.44616425 0.044572074 0.015394257
0.44533524 0.045572735 0.014858939
0.44364813 0.046618458 0.013794123
0.4428193 0.047627084 0.013258724
0.44113258 0.048683953 0.012193841
0.439446 0.049747199 0.011128913
0.43861756 0.050768562 0.010593436
0.43693134 0.051842954 0.0095284451
0.43610319 0.052872282 0.0089929514
0.43441728 0.053957824 0.0079278564
0.43358937 0.054995116 0.0073923138
0.43190384 0.056091804 0.0063271881
0.43107611 0.057137057 0.0057915649
0.42939091 0.058244895 0.0047263713
0.42770591 0.059359103 0.0036611331
0.4268786 0.060417101 0.0031254324
0.42519391 0.061542455 0.0020601321
0.42350939 0.062674187 0.00099476066
0.42268252 0.063744925 0.00045900876
0.42099836 0.064887799 -0.00060639845
0.41931438 0.066037051 -0.0016718765
0.41848788 0.067120522 -0.0022077004
0.41680428 0.06828092 -0.00327322
0.4172824 0.0063205482 -0.0026212486
0.4207496 0.0074209287 -0.00050610211
0.42078018 0.0084274877 -0.0005122358
0.42252877 0.0094714025 0.0005423128
0.42771304 0.010577286 0.0037183675
0.456173 0.014906139 0.021197226
0.45963648 0.015883887 0.02331312
0.45966491 0.016818775 0.023307424
0.46055192 0.017759601 0.023832146
0.46058029 0.018692896 0.023826458
0.46060866 0.019626191 0.023820771
0.46149549 0.020560645 0.024345532
0.4615238 0.021492347 0.024339855
0.46155214 0.02242405 0.024334177
0.46243876 0.023352133 0.024858976
0.46246704 0.024282245 0.024853308
0.4624953 0.025212353 0.02484764
0.46252358 0.026142465 0.024841972
0.46169373 0.027082564 0.024305789
0.46172205 0.028014267 0.024300111
0.46175036 0.028945969 0.024294434
0.46092072 0.029892439 0.023758212
0.46009114 0.030842096 0.02322197
0.45926169 0.031794935 0.022685708
0.45843226 0.032750964 0.022149395
0.45760301 0.033710174 0.021613095
0.45677382 0.034672573 0.021076776
0.45594475 0.035638154 0.020540437
0.45511571 0.036606923 0.020004047
0.45428684 0.037578877 0.019467669
0.45260051 0.038583115 0.018400639
0.45177186 0.03956303 0.017864212
0.45094326 0.040546134 0.017327735
0.45011482 0.04153242 0.016791269
0.44928649 0.04252189 0.016254785
0.44760087 0.043551616 0.015187568
0.44677275 0.044549052 0.014651035
0.44508755 0.04558992 0.013583783
0.44425967 0.046595316 0.013047201
0.44257477 0.047647338 0.011979848
0.44089007 0.048705727 0.010912489
0.44006261 0.049723867 0.010375829
0.43837821 0.050793406 0.0093083698
0.43669406 0.051869314 0.0082409037
0.43586692 0.052900199 0.007704135
0.43418312 0.053987257 0.0066366009
0.43335626 0.055026099 0.0060998155
0.43252951 0.05606813 0.0055630109
0.43084612 0.057171114 0.0044953474
0.42916301 0.058280468 0.0034276776
0.42833662 0.059335239 0.002890795
0.4266538 0.060455743 0.0018230251
0.42582765 0.061518475 0.0012860941
0.42414516 0.062650129 0.00021825619
0.42331928 0.06372083 -0.00031872332
0.42163718 0.06486363 -0.0013865972
0.41995519 0.0660128 -0.0024545419
0.41827348 0.06716834 -0.0035224934
0.41878235 0.006319758 -0.0028736019
0.42224547 0.0074186991 -0.00075351249
0.42227602 0.0084236646 -0.00075963646
0.42488056 0.0094847782 0.0008289892
0.42834276 0.010553459 0.002949263
0.45591167 0.014872819 0.019937176
0.45937118 0.015852312 0.022057988
0.46025726 0.016796362 0.022583922
0.46028569 0.017731249 0.022578226
0.4603141 0.018666137 0.022572529
0.46120003 0.019603815 0.023098504
0.4612284 0.02053711 0.023092816
0.46211416 0.02147001 0.023618819
0.46214247 0.022401713 0.023613142
0.46217081 0.023333415 0.023607465
0.46219912 0.024265118 0.023601787
0.46222743 0.02519682 0.02359611
0.46225575 0.026128523 0.023590432
0.46228409 0.027060226 0.023584755
0.4623124 0.02799193 0.023579078
0.46148369 0.028936768 0.02304163
0.46065509 0.029884793 0.022504166
0.45982659 0.030836003 0.021966681
0.45899814 0.031790398 0.021429144
0.45816985 0.03274798 0.02089162
0.4581984 0.033687647 0.020885894
0.45651349 0.034672696 0.01981652
0.45568544 0.035639837 0.019278906
0.4548575 0.036610156 0.018741306
0.45402968 0.037583664 0.018203685
0.45320195 0.038560357 0.017666044
0.45237434 0.039540235 0.017128384
0.45154676 0.040523298 0.016590673
0.44986293 0.041543391 0.015521086
0.44903561 0.042534415 0.014983359
0.44735208 0.043565653 0.013913665
0.44652504 0.044564646 0.01337589
0.44569808 0.04556682 0.012838094
0.44401503 0.046613984 0.011768309
0.44233224 0.047667522 0.010698512
0.44150567 0.048682436 0.010160639
0.43982315 0.049747121 0.0090907421
0.43814087 0.050818175 0.0080208387
0.43731469 0.05184583 0.0074828877
0.43563271 0.052928038 0.0064128898
0.43480676 0.053963657 0.0058748904
0.43312517 0.055057008 0.004804851
0.43229944 0.056100596 0.004266771
0.43061817 0.057205092 0.0031966693
0.4297927 0.058256641 0.002658573
0.42811173 0.059372295 0.0015883654
0.42728654 0.060431805 0.0010502205
0.42560595 0.061558601 -2.0022924e-05
0.42478094 0.062626079 -0.00055824837
0.42310068 0.063764021 -0.001628554
0.42142063 0.064908333 -0.0026989041
0.42288223 0.0073946053 -0.0015312446
0.4237698 0.0084199179 -0.0010045705
0.42637128 0.0094795544 0.00058776484
0.43068632 0.010563956 0.0032457933
0.45996454 0.015829859 0.021333259
0.459993 0.016766341 0.021327551
0.46087804 0.017708834 0.02185473
0.46090648 0.018643724 0.021849034
0.46093488 0.01957861 0.021843337
0.46181974 0.020514734 0.022370555
0.46184811 0.021448029 0.022364868
0.46273282 0.022379374 0.022892108
0.46276116 0.023311079 0.022886431
0.46278948 0.024242781 0.022880754
0.46281779 0.025174484 0.022875076
0.4628461 0.026106186 0.022869399
0.46201831 0.027047802 0.022330744
0.46204668 0.027981097 0.022325056
0.46121904 0.028927492 0.021786368
0.46124747 0.02986238 0.02178067
0.46041998 0.030813551 0.021241952
0.45959252 0.031767908 0.020703182
0.45876524 0.032725453 0.020164432
0.45793802 0.03368618 0.019625654
0.45711091 0.034650091 0.019086858
0.45628387 0.035617191 0.018548012
0.45460132 0.036613315 0.017476102
0.45377457 0.037588377 0.016937239
0.45294788 0.038566623 0.016398355
0.45212126 0.039548058 0.015859427
0.45129478 0.040532675 0.015320505
0.45046839 0.04152048 0.014781564
0.44878674 0.042546865 0.013709439
0.44796062 0.043542631 0.013170449
0.44627932 0.044580162 0.012098288
0.44545344 0.045583889 0.01155925
0.44377246 0.046632573 0.010486983
0.44294679 0.047644265 0.0099479016
0.44126621 0.048704095 0.0088755991
0.43958575 0.049770296 0.0078032315
0.43876049 0.050794732 0.007264067
0.43708035 0.051872082 0.0061916257
0.43625534 0.052904475 0.0056524184
0.43457562 0.053992976 0.0045799413
0.43375084 0.055033337 0.0040406794
0.43207139 0.056132983 0.0029681083
0.43124685 0.057181306 0.002428798
0.42956781 0.058292098 0.0013561907
0.42874345 0.05934839 0.00081679987
0.42791927 0.060407862 0.00027742167
0.42624068 0.06153458 -0.0007952826
0.42456228 0.062667675 -0.0018680635
0.42373845 0.063739888 -0.0024075136
0.42437506 0.0073924884 -0.001774955
0.42526165 0.0084162485 -0.0012470116
0.428716 0.0094931973 0.00088307442
0.43388182 0.010591806 0.0040813284
0.46055791 0.015807407 0.020608524
0.4605864 0.016743889 0.020602819
0.46061486 0.017680367 0.020597111
0.46149886 0.018621309 0.021125527
0.46152726 0.019556196 0.021119831
0.46241111 0.020492358 0.02164828
0.46243948 0.021425653 0.021642594
0.46246785 0.02235895 0.021636907
0.46335149 0.02328874 0.022165397
0.46337983 0.024220442 0.02215972
0.46340814 0.025152145 0.022154041
0.46258131 0.026092131 0.021614159
0.46260968 0.027025426 0.02160847
0.46178302 0.027970189 0.021068558
0.46181142 0.028905077 0.02106286
0.46098489 0.029854618 0.020522924
0.46015841 0.030807346 0.019982932
0.45933205 0.031763256 0.019442957
0.45936063 0.032702923 0.019437231
0.45767969 0.033684637 0.018362937
0.45685357 0.034650106 0.017822871
0.45602763 0.03561876 0.017282814
0.45520177 0.036590595 0.016742742
0.45437601 0.037565619 0.016202644
0.45355034 0.038543828 0.015662529
0.45272473 0.039525222 0.015122365
0.45104486 0.040541973 0.014047865
0.45021954 0.041531332 0.01350768
0.44853994 0.042559233 0.012433079
0.44771487 0.043556556 0.011892846
0.44688988 0.044557061 0.011352599
0.44521075 0.045600887 0.010277895
0.44438601 0.046609357 0.0097375996
0.4427073 0.047664333 0.0086628655
0.44102871 0.04872568 0.007588055
0.44020435 0.04974689 0.0070476821
0.43852615 0.050819382 0.0059728408
0.437702 0.051848561 0.0054323818
0.43602416 0.052932203 0.004357473
0.43520027 0.053969339 0.0038169974
0.43352273 0.055064134 0.0027419885
0.43269908 0.056109231 0.0022014645
0.43187556 0.057157516 0.0016609266
0.43019852 0.058268234 0.00058585271
0.42852163 0.059385326 -0.00048929773
0.42769849 0.060446352 -0.0010299132
0.42602196 0.061574593 -0.0021051259
0.42519906 0.06264358 -0.0026457955
0.42501083 0.0073684324 -0.0025514537
0.42675138 0.0084126526 -0.0014870124
0.43191159 0.0095258243 0.0017185539
0.43792614 0.010637122 0.005459547
0.4611513 0.015784957 0.019883797
0.46117976 0.016721437 0.019878089
0.46206281 0.017664006 0.020407729
0.46209121 0.018598896 0.020402033
0.46211964 0.019533781 0.020396335
0.46300247 0.020469982 0.020926019
0.46303084 0.021403277 0.020920333
0.46305919 0.022336574 0.020914646
0.46308756 0.023269869 0.020908957
0.46311593 0.024203165 0.020903271
0.4631443 0.02513646 0.020897584
0.46317267 0.026069755 0.020891896
0.46320105 0.02700305 0.020886209
0.46237537 0.027947774 0.020345062
0.46154979 0.028895685 0.019803902
0.46157825 0.029832166 0.019798197
0.46075279 0.030784855 0.01925697
0.45992747 0.031740729 0.018715762
0.45910221 0.032699786 0.018174529
0.45827708 0.033662032 0.017633282
0.457452 0.034627464 0.017091976
0.45577341 0.035620246 0.016015161
0.4549486 0.036593638 0.01547384
0.45412391 0.037570219 0.014932505
0.45329925 0.038549982 0.014391114
0.45247474 0.03953293 0.013849741
0.45165032 0.040519062 0.013308342
0.4499726 0.041542113 0.012231303
0.44914845 0.04253621 0.011689862
0.44832438 0.043533493 0.011148396
0.4466472 0.044572461 0.010071292
0.44582331 0.045577712 0.0095297508
0.44414645 0.046627831 0.0084525794
0.44246981 0.047684323 0.0073753688
0.44164631 0.048702311 0.0068337498
0.43996999 0.049769953 0.0057564713
0.43914679 0.050795902 0.0052148304
0.43747076 0.051874693 0.0041374522
0.4366478 0.052908603 0.0035957682
0.43497217 0.053998541 0.002518354
0.43414938 0.055040419 0.0019765839
0.43247411 0.056141507 0.00089910161
0.43165162 0.057191346 0.00035732077
0.42997661 0.05830358 -0.00072026142
0.42915437 0.059361383 -0.0012620909
0.42833224 0.060422372 -0.0018039453
0.42665771 0.061550535 -0.0028816245
0.42909312 0.0084295971 -0.00118806
0.43510115 0.0095586814 0.0025614537
0.44196242 0.010682744 0.0068476209
0.45656511 0.013814552 0.015951155
0.45915505 0.014793305 0.01755508
0.46174467 0.015762504 0.019159062
0.46262676 0.016706705 0.019689925
0.46265516 0.017641593 0.019684229
0.46268359 0.018576482 0.019678531
0.46271199 0.019511368 0.019672835
0.46359384 0.020447606 0.020203747
0.46362221 0.021380901 0.020198058
0.46365055 0.022314198 0.020192372
0.46367893 0.023247493 0.020186685
0.4637073 0.024180789 0.020180997
0.46373567 0.025114084 0.02017531
0.46376404 0.026047379 0.020169623
0.46293932 0.026990473 0.019627258
0.46296775 0.027925361 0.019621562
0.46214318 0.028873233 0.019079169
0.46131867 0.02982429 0.018536719
0.46134719 0.030762365 0.018531002
0.46052286 0.031718198 0.017988561
0.45969862 0.032677222 0.017446101
0.45802173 0.033660375 0.016366838
0.45719773 0.034627359 0.015824327
0.45637384 0.035597529 0.015281793
0.45555007 0.036570881 0.014739245
0.45472637 0.037547421 0.014196677
0.45390272 0.03852715 0.013654052
0.45222679 0.039540563 0.012574643
0.45140344 0.040528249 0.012032001
0.45058012 0.041519124 0.011489314
0.44890466 0.042548466 0.010409802
0.44808164 0.043547302 0.0098670982
0.44725874 0.044549324 0.0093243755
0.4455837 0.045594592 0.0082447343
0.44476104 0.046604577 0.0077019627
0.44308639 0.047660992 0.0066222856
0.44141188 0.04872378 0.0055425377
0.44058961 0.049746506 0.0049996884
0.43891546 0.05082044 0.0039198725
0.43809339 0.051851131 0.003376975
0.43641964 0.052936215 0.002297123
0.43559784 0.053974867 0.0017541768
0.43477607 0.055016708 0.0012111792
0.43310279 0.056117717 0.00013123028
0.43142971 0.057225093 -0.00094875746
0.43060833 0.058279678 -0.0014918327
0.4297871 0.059337445 -0.0020348954
0.4281145 0.060460746 -0.0031149802
0.45543021 0.012817577 0.014149257
0.45801729 0.013804406 0.015756801
0.46060413 0.014781682 0.017364435
0.46233806 0.015740052 0.018434329
0.46321911 0.01668429 0.018966425
0.46324754 0.017619178 0.018960727
0.46327594 0.018554067 0.018955031
0.46330437 0.019488953 0.018949334
0.46418518 0.02042523 0.019481478
0.46421355 0.021358525 0.019475792
0.46424192 0.022291822 0.019470105
0.46427029 0.023225117 0.019464416
0.46429867 0.024158413 0.01945873
0.46432704 0.025091708 0.019453043
0.46350327 0.026033171 0.018909454
0.4635317 0.026968058 0.018903758
0.46270809 0.027914301 0.018360142
0.46273655 0.028850781 0.018354435
0.46191305 0.029801801 0.017810756
0.4610897 0.030756006 0.017267091
0.46026644 0.031713396 0.016723402
0.45944327 0.03267397 0.016179698
0.45862013 0.033637732 0.015635943
0.45779717 0.034604676 0.0150922
0.4569743 0.035574809 0.014548438
0.45529994 0.036573812 0.013466643
0.45447725 0.037551906 0.0129228
0.45365471 0.038533185 0.01237897
0.45283225 0.039517652 0.011835121
0.45115849 0.040537361 0.010753168
0.45033628 0.04152979 0.01020927
0.44951418 0.042525403 0.0096653523
0.44784093 0.043561034 0.0085833343
0.44701904 0.044564612 0.0080393367
0.44619727 0.045571376 0.0074953511
0.4445245 0.046622936 0.0064132423
0.44285187 0.04768087 0.0053310567
0.44203049 0.048700374 0.0047869938
0.44035828 0.04976945 0.0037047782
0.43953708 0.050796919 0.0031606287
0.4378652 0.051877148 0.002078345
0.43704429 0.052912578 0.0015341849
0.43622351 0.053951193 0.00099000544
0.43455204 0.055047352 -9.2413e-05
0.4337315 0.056093927 -0.00063664105
0.43206042 0.057201229 -0.0017190896
0.43124005 0.058255773 -0.002263404
0.42956933 0.059374228 -0.0033459205
0.45001069 0.010774903 0.0096533187
0.45429909 0.011814076 0.012342445
0.46031925 0.013806913 0.016103953
0.46205124 0.014770135 0.017176252
0.46378309 0.015726989 0.018248621
0.46381149 0.016661877 0.018242924
0.46383992 0.017596764 0.018237228
0.4647198 0.018536264 0.018770587
0.46474817 0.019469559 0.018764898
0.46477655 0.020402854 0.018759212
0.46480492 0.021336149 0.018753525
0.46483329 0.022269446 0.018747836
0.46486166 0.023202742 0.01874215
0.46489003 0.024136037 0.018736463
0.46406722 0.025075868 0.018191651
0.46409565 0.026010757 0.018185955
0.46412405 0.026945645 0.018180257
0.46330148 0.027891848 0.017635407
0.46332994 0.028828328 0.017629702
0.46250743 0.029779309 0.01708479
0.46168509 0.030733477 0.01653989
0.46086285 0.031690829 0.015994973
0.46004069 0.032651365 0.015450036
0.45921856 0.03361509 0.014905048
0.45754594 0.03460446 0.01382085
0.45672411 0.035576146 0.013275845
0.4559024 0.036551014 0.01273082
0.45508072 0.037529074 0.012185744
0.45425919 0.038510315 0.011640681
0.45258734 0.039525166 0.010556329
0.45176598 0.040514372 0.010011178
0.45094481 0.041506764 0.0094660474
0.44927344 0.042537544 0.0083815977
0.44845247 0.043537896 0.0078364182
0.44763157 0.044541437 0.0072911866
0.4459607 0.045588143 0.0062066405
0.44428998 0.046641219 0.0051220553
0.44346946 0.047657501 0.0045767464
0.4417991 0.048721723 0.0034920929
0.44097888 0.049745969 0.0029467675
0.43930882 0.050821345 0.0018620086
0.43848884 0.051853552 0.0013166346
0.43766895 0.052888941 0.00077124115
0.43599936 0.053980246 -0.00031360905
0.43517974 0.055023599 -0.00085905101
0.43351054 0.056126047 -0.0019439372
0.43269113 0.057177365 -0.0024894276
0.45915672 0.011870232 0.014306522
0.46088704 0.012843087 0.015381261
0.4626171 0.013809572 0.016456006
0.46349636 0.014758665 0.016990572
0.46522605 0.015714001 0.018065386
0.46440387 0.016639462 0.017519429
0.4652828 0.017580593 0.018054012
0.46531117 0.018513888 0.018048324
0.46533954 0.019447183 0.018042637
0.46536791 0.020380478 0.01803695
0.46539629 0.021313773 0.018031262
0.46542466 0.02224707 0.018025575
0.465453 0.023180366 0.018019889
0.46548137 0.024113661 0.0180142
0.4646596 0.025053455 0.017468156
0.464688 0.025988342 0.017462458
0.46386638 0.026932916 0.016916385
0.46389484 0.027869396 0.01691068
0.46307331 0.028818747 0.016364545
0.46225193 0.029771281 0.015818423
0.46228048 0.030710949 0.015812697
0.46145925 0.031668261 0.015266545
0.45978829 0.032648001 0.014179908
0.45896727 0.033613279 0.013633708
0.45814636 0.034581739 0.013087489
0.45732558 0.035553388 0.01254125
0.45650485 0.036528219 0.011994992
0.45483467 0.037533443 0.010908205
0.45401418 0.038516238 0.010361899
0.45319381 0.039502218 0.0098155728
0.45152414 0.040523369 0.008728683
0.45070398 0.041517314 0.0081823086
0.44988397 0.042514443 0.0076359147
0.44821474 0.043551516 0.0065489281
0.44739497 0.04455661 0.0060024858
0.44657525 0.04556489 0.0054560238
0.44490659 0.046617888 0.004368972
0.44323805 0.047677264 0.003281855
0.44241872 0.04869828 0.0027353158
0.44159952 0.049722485 0.0021887568
0.43993145 0.050797783 0.0011015371
0.43911248 0.051829953 0.00055492984
0.43744484 0.052916396 -0.00053232588
0.43662605 0.053956531 -0.0010790137
0.43495873 0.055054128 -0.0021663373
0.43329161 0.056158092 -0.0032536997
0.46142623 0.010938002 0.014664304
0.46315446 0.011910936 0.015741471
0.46318299 0.012849009 0.015735755
0.46406126 0.013799732 0.016271545
0.46493939 0.014747271 0.016807321
0.46581742 0.015691625 0.017343119
0.46584579 0.016624922 0.01733743
0.46587417 0.017558217 0.017331744
0.46590254 0.018491512 0.017326057
0.46593091 0.019424807 0.01732037
0.46595928 0.020358102 0.017314682
0.46598762 0.021291398 0.017308995
0.46601599 0.022224694 0.017303308
0.46604437 0.02315799 0.01729762
0.46607274 0.024091285 0.017291933
0.46525198 0.025031039 0.016744655
0.46528038 0.025965929 0.016738959
0.46445978 0.026910463 0.016191652
0.46448824 0.027846944 0.016185945
0.46366769 0.028796256 0.015638577
0.46284732 0.029748753 0.015091227
0.46202704 0.030704437 0.014543853
0.46120685 0.031663302 0.013996459
0.46038669 0.032625359 0.013449012
0.45956671 0.033590596 0.01290158
0.45789817 0.034581408 0.011812446
0.4570784 0.03555461 0.011264964
0.45625871 0.036530998 0.010717431
0.45543915 0.03751057 0.01016991
0.45377123 0.038522083 0.0090806503
0.45295185 0.039509621 0.0085330494
0.45213264 0.040500343 0.0079854606
0.4504652 0.041527785 0.0068961033
0.44964623 0.042526469 0.0063484665
0.4488273 0.043528341 0.005800778
0.44800851 0.044533394 0.0052531026
0.44634169 0.045581542 0.0041636191
0.44552317 0.046594556 0.0036158948
0.44385666 0.047653854 0.0025263054
0.44303834 0.048674833 0.0019785326
0.44137216 0.04974528 0.00088888122
0.44055411 0.050774224 0.00034105996
0.43888831 0.051855817 -0.00074863323
0.43807051 0.052892722 -0.0012964972
0.436405 0.053985465 -0.0023862903
0.43558744 0.055030338 -0.0029342086
0.4654181 0.010985304 0.016106609
0.4662953 0.011936069 0.016643601
0.46632367 0.012869365 0.016637912
0.46635205 0.013802659 0.016632225
0.46638042 0.014735954 0.016626539
0.46725741 0.015678754 0.017163573
0.46643716 0.016602546 0.016615164
0.46731403 0.017542159 0.017152216
0.46734235 0.018473862 0.017146539
0.46737069 0.019405564 0.017140862
0.467399 0.020337269 0.017135184
0.46742731 0.021268969 0.017129507
0.46660736 0.022202319 0.01658104
0.46663573 0.023135614 0.016575353
0.46666411 0.024068909 0.016569667
0.46584433 0.025008626 0.016021155
0.46587276 0.025943514 0.016015457
0.46505314 0.026888011 0.015466923
0.4650816 0.027824491 0.015461217
0.4642621 0.028773766 0.014912616
0.46344271 0.029726224 0.014364026
0.46262345 0.030681869 0.013815424
0.46180427 0.031640697 0.013266796
0.46098512 0.032602716 0.012718118
0.45931846 0.03358867 0.011626546
0.45849961 0.03455865 0.01107785
0.45768088 0.035531811 0.010529142
0.45686218 0.036508162 0.0099803749
0.45519611 0.037514824 0.0088886768
0.45437771 0.038499136 0.008339894
0.45355937 0.039486635 0.00779106
0.45189381 0.040509224 0.006699265
0.45107573 0.041504681 0.0061504142
0.45025778 0.042503327 0.00560155
0.44859263 0.043541845 0.0045096204
0.44777492 0.044548452 0.0039607072
0.44695729 0.045558248 0.0034117692
0.44529265 0.046612691 0.002319748
0.44447526 0.047630448 0.0017707614
0.44281098 0.048696037 0.00067870447
0.4419938 0.049721759 0.00012963732
0.44032988 0.050798498 -0.00096248765
0.43951297 0.05183218 -0.0015115713
0.43784934 0.05292007 -0.0026037963
0.4370327 0.053961717 -0.0031529283
0.4668583 0.010980396 0.01592702
0.46773449 0.011929605 0.016465249
0.46691504 0.012846989 0.015915645
0.46779111 0.013793011 0.016453892
0.46781942 0.014724713 0.016448215
0.46784776 0.015656417 0.016442537
0.46787608 0.016588118 0.01643686
0.46790439 0.01751982 0.016431183
0.4679327 0.018451525 0.016425505
0.46796104 0.019383227 0.016419828
0.46798936 0.02031493 0.016414151
0.46801767 0.021246633 0.016408473
0.46804598 0.022178335 0.016402794
0.4672271 0.023113238 0.015853085
0.46725547 0.024046533 0.015847398
0.46643671 0.024986211 0.015297654
0.46646512 0.025921101 0.015291957
0.46564651 0.026865559 0.014742189
0.465675 0.027802039 0.014736483
0.46485648 0.028751275 0.014186648
0.4640381 0.029703695 0.013636831
0.46321985 0.030659303 0.01308699
0.46240169 0.031618092 0.012537135
0.46073681 0.032599196 0.011443093
0.45991889 0.033565953 0.010893185
0.45910105 0.034535892 0.010343261
0.45828333 0.035509016 0.0097933132
0.45661911 0.036510825 0.0086991461
0.45580161 0.037491914 0.0081491545
0.45413774 0.038504869 0.0070549138
0.45332047 0.039493922 0.0065048742
0.45250332 0.040486161 0.0059548095
0.45083997 0.041515041 0.0048605092
0.45002303 0.042515244 0.0043103695
0.4492062 0.043518629 0.003760237
0.44838947 0.044525199 0.0032100908
0.44672677 0.045574784 0.0021156643
0.44591025 0.046589322 0.0015654317
0.44424784 0.047650058 0.0004709372
0.44343162 0.048672553 -7.9306075e-05
0.44176954 0.049744438 -0.0011739006
0.44095352 0.050774898 -0.0017241981
0.43929183 0.05185793 -0.0028188284
0.4682965 0.010975563 0.015749892
0.46832481 0.011907267 0.015744213
0.46835315 0.012838969 0.015738536
0.46838146 0.013770673 0.015732858
0.46840978 0.014702375 0.015727181
0.46843809 0.015634079 0.015721504
0.46846643 0.016565781 0.015715826
0.46849474 0.017497484 0.015710149
0.46852306 0.018429186 0.015704472
0.46855137 0.019360889 0.015698794
0.46857971 0.020292593 0.015693115
0.46860802 0.021224296 0.015687438
0.46863633 0.022155998 0.01568176
0.46866465 0.023087701 0.015676083
0.46784681 0.024024157 0.015125125
0.46787518 0.024957452 0.015119438
0.4670575 0.025898686 0.014568456
0.4662399 0.026843106 0.014017455
0.46542236 0.02779071 0.013466396
0.46545085 0.028728785 0.013460681
0.46463352 0.029681167 0.012909631
0.46297044 0.030652637 0.011813213
0.46215329 0.031612985 0.011262083
0.46133626 0.032576516 0.01071096
0.46051934 0.033543233 0.010159823
0.45885688 0.034535408 0.0090632793
0.45804018 0.035510089 0.008512062
0.45722359 0.036487952 0.0079608513
0.45556164 0.037496053 0.0068642157
0.45474523 0.038481884 0.0063129249
0.45392901 0.039470896 0.0057616518
0.45226753 0.040494923 0.0046649138
0.45145151 0.0414919 0.0041135927
0.45063558 0.042492066 0.0035622141
0.44981977 0.043495413 0.0030108539
0.44815892 0.044540145 0.0019139899
0.44734335 0.045551457 0.0013625812
0.44568279 0.046607338 0.00026561716
0.44486746 0.047626611 -0.00028584004
0.44405225 0.048649069 -0.00083732238
0.44239217 0.04972088 -0.0019343835
0.44073233 0.050799053 -0.0030314457
0.46888685 0.010953226 0.015028857
0.46891516 0.01188493 0.015023179
0.46894351 0.012816631 0.015017502
0.46897182 0.013748336 0.015011825
0.46900013 0.014680037 0.015006147
0.46902844 0.015611742 0.015000469
0.46990231 0.016551469 0.015541223
0.46993059 0.017481579 0.015535555
0.46995884 0.018411689 0.015529887
0.46998712 0.0193418 0.015524219
0.47001541 0.02027191 0.015518551
0.46919838 0.021201957 0.014966404
0.46922669 0.02213366 0.014960727
0.469255 0.023065362 0.014955049
0.46843818 0.024001781 0.014402864
0.46846655 0.024935076 0.014397176
0.46764988 0.025876272 0.013844956
0.46683329 0.026820654 0.013292721
0.46601674 0.027768221 0.012740435
0.46520033 0.028718973 0.012188156
0.46438405 0.02967291 0.011635863
0.46356785 0.030630032 0.011083552
0.46275169 0.031590343 0.010531188
0.46109098 0.032572884 0.0094322357
0.46027511 0.033541154 0.0088798562
0.45945936 0.034512609 0.0083274562
0.45864365 0.035487253 0.0077750003
0.45698354 0.0364905 0.0066759274
0.45616812 0.037473105 0.0061234604
0.45450833 0.038487501 0.0050242818
0.45369315 0.039478067 0.0044717658
0.45287806 0.040471822 0.0039192308
0.45206305 0.041468762 0.0033666703
0.4504039 0.042503864 0.0022673716
0.44958913 0.043508764 0.0017147685
0.44877449 0.04451685 0.0011621402
0.44795993 0.045528125 0.00060949812
0.4463014 0.046583928 -0.00048992678
0.44548708 0.047603168 -0.0010426231
0.44382888 0.048670121 -0.002142116
0.4686324 0.010913268 0.013760217
0.46950552 0.011862592 0.014302146
0.46953383 0.012794293 0.014296468
0.46956217 0.013725998 0.01429079
0.46959049 0.0146577 0.014285113
0.47046337 0.015599059 0.014827089
0.47049165 0.016529169 0.014821421
0.47051993 0.017459279 0.014815754
0.47054818 0.018389391 0.014810086
0.47057647 0.019319501 0.014804418
0.47060475 0.020249611 0.01479875
0.470633 0.021179719 0.014793082
0.46981704 0.022111323 0.014239692
0.46984535 0.023043025 0.014234015
0.46902955 0.023979405 0.013680596
0.46905792 0.0249127 0.013674908
0.46824223 0.025853857 0.013121461
0.46742666 0.026798202 0.012567987
0.46661112 0.027745731 0.012014468
0.46579576 0.028696444 0.011460961
0.46498045 0.029650344 0.010907435
0.46416527 0.030607428 0.01035389
0.46250635 0.031585116 0.0092524737
0.46169141 0.032550164 0.0086988797
0.46087658 0.033518396 0.0081452616
0.45921814 0.034512013 0.0070437482
0.45840356 0.035488207 0.0064900862
0.45758903 0.036467589 0.0059364052
0.4559311 0.037477132 0.0048347949
0.45511684 0.038464475 0.0042810654
0.45430267 0.039455004 0.0037273103
0.45264527 0.040480472 0.0026256351
0.45183128 0.041478969 0.0020718055
0.45101747 0.042480648 0.0015179885
0.45020372 0.043485511 0.00096415204
0.44854695 0.044531681 -0.00013764929
0.4477334 0.045544513 -0.00069157209
0.44692001 0.046560522 -0.0012454765
0.44526374 0.047622621 -0.0023473748
0.44445053 0.048646599 -0.0029013597
0.46835151 0.0099383462 0.012494808
0.46922374 0.010890892 0.01303795
0.46925211 0.01182419 0.013032262
0.47012419 0.012771957 0.013575434
0.47015253 0.01370366 0.013569756
0.47018084 0.014635362 0.013564079
0.47105271 0.015576759 0.014107289
0.47108099 0.016506869 0.014101621
0.47110927 0.017436979 0.014095953
0.47113752 0.018367091 0.014090286
0.47116581 0.019297201 0.014084618
0.47119409 0.020227311 0.01407895
0.47122234 0.021157419 0.014073282
0.4704074 0.022088984 0.013518658
0.47043571 0.023020688 0.013512981
0.47046402 0.023952391 0.013507303
0.46964926 0.024890324 0.012952641
0.46883461 0.025831444 0.01239796
0.46802002 0.026775749 0.011843259
0.46720552 0.02772324 0.011288506
0.46639115 0.028673915 0.010733766
0.46557686 0.029627776 0.010179007
0.46391985 0.030600611 0.0090751536
0.4631058 0.031562436 0.0085203461
0.46229187 0.032527443 0.0079655182
0.46063536 0.033516206 0.0068616001
0.45982164 0.034489177 0.0063066925
0.45816547 0.035489086 0.005202706
0.45735201 0.036470022 0.0046477816
0.45569617 0.037481081 0.0035436952
0.45488295 0.038469981 0.0029887224
0.45406982 0.039462063 0.0024337303
0.45325682 0.040457334 0.0018787187
0.45244384 0.04145579 0.0013236557
0.4507888 0.04249233 0.00021944605
0.44997612 0.043498747 -0.00033563343
0.44916356 0.044508349 -0.00089073234
0.448351 0.045521144 -0.0014458827
0.44669661 0.046578385 -0.0025502185
0.46894389 0.0099159321 0.011771307
0.46897233 0.01085082 0.011765609
0.46984348 0.011801814 0.012309995
0.46987185 0.012735109 0.012304308
0.46990022 0.013668403 0.01229862
0.47077119 0.014613024 0.012843044
0.47079951 0.015544728 0.012837367
0.47082782 0.01647643 0.01283169
0.47169861 0.01741468 0.013376147
0.47172686 0.018344792 0.013370479
0.47175515 0.019274902 0.01336481
0.47178343 0.020205012 0.013359142
0.47181168 0.02113512 0.013353475
0.47099775 0.022066647 0.012797624
0.47102606 0.02299835 0.012791947
0.47105438 0.023930052 0.012786269
0.47024062 0.024867948 0.012230374
0.46942696 0.025809029 0.011674459
0.46861342 0.026753297 0.011118525
0.4677999 0.02770075 0.010562539
0.46698654 0.028651386 0.010006566
0.46533144 0.029619366 0.0089003127
0.46451825 0.030577967 0.0083442582
0.46370524 0.031539753 0.0077882176
0.46205062 0.032523658 0.0066818614
0.46123782 0.033493407 0.0061257775
0.46042511 0.034466345 0.0055696368
0.45877096 0.035466176 0.0044631837
0.45711699 0.03647238 0.0033566596
0.45630467 0.037458055 0.0028004728
0.45549247 0.038446918 0.0022442725
0.45383903 0.039469045 0.0011376836
0.45302701 0.040465873 0.00058139703
0.45221514 0.041465882 2.5123016e-05
0.45140338 0.042469077 -0.0005311704
0.45059171 0.043475457 -0.0010874833
0.44893897 0.044523068 -0.0021942537
0.44812754 0.045537412 -0.0027506151
0.46869442 0.0098741911 0.010496513
0.46956468 0.010828406 0.011042112
0.46959311 0.011763297 0.011036415
0.47046322 0.012712733 0.01158204
0.47049159 0.013646027 0.011576353
0.47136155 0.014590686 0.012122007
0.47138986 0.015522391 0.01211633
0.47141817 0.016454093 0.012110652
0.47144648 0.017385794 0.012104975
0.47231621 0.018322492 0.012650681
0.47234449 0.019252602 0.012645013
0.47237277 0.020182712 0.012639345
0.47240102 0.02111282 0.012633678
0.4715881 0.022044308 0.012076587
0.47161642 0.022976013 0.012070909
0.47080362 0.023912277 0.011513793
0.47083199 0.024845572 0.011508106
0.47001934 0.025786616 0.010950961
0.46920678 0.026730845 0.010393793
0.46839428 0.027678259 0.0098365769
0.46758193 0.028628858 0.0092793703
0.46592885 0.029596761 0.0081706503
0.46511668 0.030555325 0.0076133637
0.46346393 0.031534377 0.0065045757
0.46265206 0.0325009 0.0059472723
0.4618403 0.033470612 0.0053899493
0.46018797 0.034465592 0.0042810324
0.45853591 0.035466939 0.0031721031
0.45772448 0.036449391 0.0026146704
0.45607275 0.037461892 0.0015056789
0.45526162 0.038452305 0.00094822986
0.45445055 0.039445907 0.00039076712
0.45363957 0.040442694 -0.0001667528
0.45282871 0.041442666 -0.00072426011
0.45117775 0.042480644 -0.001833407
0.45036715 0.043488577 -0.0023909628
0.44955659 0.044499699 -0.0029485701
0.45829868 0.0076856189 0.0026004994
0.46928781 0.0098517388 0.009771782
0.46931627 0.01078822 0.0097660748
0.47018546 0.011740883 0.010312914
0.47021389 0.01267577 0.010307217
0.47024229 0.013610657 0.01030152
0.4711113 0.014556947 0.010848398
0.47113967 0.015490242 0.010842711
0.47200853 0.016431754 0.011389618
0.47203684 0.017363457 0.01138394
0.47206518 0.018295161 0.011378263
0.47209349 0.019226862 0.011372586
0.4721218 0.020158567 0.011366908
0.47215012 0.021090269 0.01136123
0.47217843 0.022021972 0.011355553
0.47220677 0.022953674 0.011349875
0.47139499 0.023889901 0.010791526
0.47058329 0.024829313 0.010233157
0.47061172 0.025764203 0.01022746
0.46980017 0.026708392 0.0096690618
0.46814877 0.027666664 0.0085578989
0.46733746 0.028618816 0.0079994518
0.46652627 0.029574156 0.0074409861
0.46487534 0.030548355 0.0063297288
0.46406439 0.031511657 0.0057712141
0.46241385 0.032497 0.0046599181
0.46160308 0.033468269 0.004101323
0.46079248 0.034442719 0.0035427378
0.45914242 0.035443991 0.0024313475
0.45749253 0.036451634 0.0013198863
0.45668229 0.037438828 0.00076122908
0.45587215 0.038429204 0.00020254667
0.45422274 0.039452776 -0.00090901152
0.45341283 0.040451113 -0.0014677425
0.45260304 0.041452643 -0.0020264871
0.45179334 0.042457353 -0.0025852567
0.46820149 0.0097904801 0.0079394989
0.46990964 0.010765768 0.0090413438
0.4699381 0.011702249 0.0090356376
0.46996659 0.01263873 0.0090299305
0.47083467 0.013588243 0.0095780194
0.47086307 0.014523131 0.0095723225
0.47173104 0.015467866 0.010120444
0.47175941 0.016401162 0.010114756
0.47178775 0.017334457 0.010109069
0.4726555 0.018272823 0.010657229
0.47268385 0.019204525 0.010651551
0.47271216 0.02013623 0.010645874
0.47274047 0.02106793 0.010640197
0.47276878 0.021999633 0.010634519
0.47195798 0.02293423 0.010074946
0.47198635 0.023867525 0.010069259
0.47117567 0.0248069 0.0095096566
0.47036508 0.02574946 0.008950037
0.46955454 0.026695205 0.0083903642
0.46874416 0.027644135 0.0078307036
0.46793386 0.02859625 0.0072710239
0.46712369 0.029551551 0.0067113247
0.46547478 0.030525673 0.0055976007
0.46466482 0.031488936 0.0050378526
0.4630163 0.032474205 0.0039240955
0.46220657 0.033445433 0.0033642645
0.46055838 0.034441851 0.0022504395
0.45891035 0.035444643 0.0011365409
0.45810103 0.036428612 0.00057666685
0.45645338 0.037442546 -0.00053726777
0.45564431 0.038434479 -0.0010971874
0.45483527 0.039429598 -0.0016571614
0.4540264 0.040427897 -0.0022171256
0.46457398 0.0087231128 0.0044430816
0.46795809 0.0097485092 0.0066573052
0.46882546 0.010707617 0.0072065722
0.46969274 0.01166354 0.0077558556
0.47055995 0.012616278 0.0083051939
0.47058842 0.013552757 0.0082994867
0.47061688 0.014489238 0.0082937805
0.47148386 0.015435606 0.0088431248
0.47235075 0.016378786 0.009392486
0.47237912 0.017312082 0.0093867984
0.47240749 0.018245379 0.0093811117
0.4732742 0.019182187 0.0099305147
0.47246423 0.020111969 0.0093697375
0.47249261 0.021045262 0.0093640499
0.47252098 0.021978559 0.0093583623
0.47254935 0.022911854 0.0093526756
0.47173962 0.023849597 0.0087918527
0.47176802 0.024784485 0.0087861549
0.47095847 0.025727008 0.0082253003
0.47014895 0.026672713 0.0076643941
0.46933955 0.027621606 0.0071035032
0.46853027 0.028573683 0.00654259
0.46688324 0.029542951 0.0054264311
0.46607423 0.030502992 0.0048654694
0.46442759 0.031483404 0.0037492749
0.46361879 0.03245141 0.0031882676
0.46197242 0.033442974 0.0020719701
0.46116388 0.034418941 0.0015109143
0.45951787 0.035421655 0.00039454899
0.45787209 0.036430739 -0.00072182028
0.45706391 0.037419446 -0.0012829538
0.45625585 0.038411338 -0.0018441096
0.42680514 0.11743906 -0.023420166
0.42600268 0.1186157 -0.02398245
0.42603391 0.11964296 -0.023988711
0.42689866 0.12051607 -0.023438916
0.46687883 0.0096869832 0.0048163952
0.46858311 0.0106672 0.0059231413
0.4694494 0.011624756 0.0064736484
0.47031564 0.012579123 0.007024175
0.47034416 0.013517196 0.0070184586
0.47121027 0.014466786 0.007569049
0.47123873 0.015403267 0.0075633423
0.47210467 0.016348079 0.0081139272
0.47213307 0.017282967 0.0081082303
0.4721615 0.018217856 0.0081025334
0.47302723 0.019156296 0.0086531593
0.4730556 0.020089593 0.0086474726
0.47308394 0.021022886 0.008641785
0.47311231 0.021956183 0.0086360984
0.47230357 0.022892294 0.0080740489
0.472332 0.023827184 0.0080683511
0.47152337 0.024768073 0.007506276
0.47155184 0.025704555 0.0075005693
0.47074333 0.026650224 0.0069384295
0.46993497 0.027599078 0.0063763051
0.46912667 0.028551117 0.0058141616
0.46748167 0.029520307 0.0046955361
0.46667364 0.03048031 0.0041333442
0.46502903 0.03146065 0.003014683
0.46422124 0.032428615 0.0024524422
0.4625769 0.033420101 0.0013336812
0.46093282 0.034417961 0.00021491322
0.45928887 0.035422187 -0.00090392551
0.45848161 0.036407676 -0.001466273
0.45683807 0.037423052 -0.0025851447
0.46664047 0.0096448204 0.0035280434
0.46834275 0.010626708 0.0046372437
0.46920812 0.011585894 0.0051889741
0.47007337 0.012541892 0.0057407245
0.47010192 0.013481557 0.0057349983
0.47096705 0.014432779 0.0062867776
0.4718321 0.015380815 0.0068386113
0.47186056 0.016317297 0.0068329046
0.47188905 0.017253775 0.006827198
0.47275385 0.018195443 0.0073790355
0.47278228 0.019130329 0.0073733386
0.47281069 0.020065218 0.0073676412
0.47283912 0.021000106 0.0073619443
0.47286752 0.021934994 0.0073562474
0.47289595 0.022869881 0.0073505505
0.47292435 0.023804769 0.0073448536
0.47211677 0.024745621 0.0067815445
0.47130921 0.02568966 0.0062181815
0.47133771 0.026627732 0.006212465
0.47053036 0.027576549 0.0056491075
0.46888727 0.028540885 0.0045280796
0.4680801 0.029497664 0.0039646416
0.46727309 0.030457629 0.0034012159
0.46563047 0.031437892 0.0022800909
0.46482369 0.03240582 0.0017166169
0.46318138 0.033397231 0.00059539208
0.46153933 0.034395009 -0.00052583957
0.4598974 0.035399165 -0.0016471449
0.45825571 0.036409687 -0.0027684544
0.46556833 0.009583028 0.0016785378
0.46810439 0.010586139 0.0033488502
0.46980453 0.011563327 0.0044605462
0.46983314 0.012504585 0.0044548102
0.47069731 0.013459029 0.0050078034
0.47072589 0.014398695 0.0050020772
0.47158995 0.015348363 0.0055550965
0.47161844 0.016286436 0.0055493806
0.47248241 0.017231323 0.0061024665
0.47251087 0.018167805 0.0060967598
