# .PCD v0.7 - Point Cloud Data file format
VERSION 0.7
FIELDS x y z
SIZE 4 4 4
TYPE F F F
COUNT 1 1 1
WIDTH 1371
HEIGHT 1
VIEWPOINT 0 0 0 1 0 0 0
POINTS 1371
DATA ascii
0.52283752 0.066893481 0.028250594
0.52286345 0.067747138 0.028245393
0.52206701 0.06868916 0.027668515
0.52127063 0.069634378 0.027091585
0.52129662 0.070491225 0.027086364
0.52050042 0.071441218 0.026509438
0.52052653 0.072299652 0.026504207
0.51973045 0.073254421 0.025927253
0.51975662 0.074114449 0.025922013
0.51978272 0.074974485 0.025916772
0.51980889 0.07583452 0.02591153
0.51901305 0.076797247 0.025334528
0.51903927 0.077658869 0.025329277
0.54776329 0.0015381401 0.046304125
0.54861289 0.0023783324 0.046871375
0.54863727 0.0031794363 0.046866491
0.54866159 0.0039805421 0.046861611
0.54868597 0.0047816481 0.046856727
0.54953533 0.0056138774 0.047424026
0.54955965 0.0064133895 0.047419157
0.55040884 0.0072408421 0.047986481
0.5504331 0.0080387602 0.04798162
0.55045736 0.008836681 0.047976758
0.55048162 0.0096345991 0.047971897
0.55133063 0.010454091 0.048539303
0.55135483 0.011250418 0.048534449
0.55137908 0.012046745 0.048529599
0.55140328 0.012843073 0.048524745
0.55142748 0.0136394 0.048519894
0.55145168 0.014435726 0.04851504
0.55147588 0.015232054 0.048510186
0.55150008 0.016028382 0.048505336
0.55152428 0.016824709 0.048500482
0.55154848 0.017621035 0.048495632
0.55074841 0.01841172 0.047918409
0.55077267 0.01920964 0.047913548
0.55079693 0.02000756 0.047908686
0.54999703 0.020804614 0.04733146
0.55002135 0.021604128 0.047326587
0.54922163 0.02240596 0.046749331
0.54924601 0.023207067 0.046744451
0.54844642 0.024013678 0.046167169
0.54847085 0.024816375 0.046162277
0.54767144 0.025627764 0.045584962
0.54769588 0.026432054 0.045580059
0.54689658 0.027248222 0.045002684
0.54692107 0.028054105 0.04499777
0.54612195 0.028875049 0.044420402
0.54614645 0.029682526 0.044415481
0.54534751 0.030508248 0.04383808
0.54454863 0.031337157 0.04326066
0.54457325 0.032147817 0.04325572
0.54377449 0.032981504 0.042678237
0.54379916 0.033793759 0.04267329
0.54300058 0.034632225 0.04209581
0.54302531 0.03544607 0.042090848
0.54222685 0.036289312 0.041513346
0.54225165 0.037104752 0.041508377
0.54145336 0.03795277 0.040930837
0.54147816 0.038769804 0.04092586
0.54068005 0.039622601 0.040348291
0.53988194 0.040478587 0.039770674
0.53990686 0.041298803 0.039765678
0.53910893 0.042159565 0.039188061
0.53831112 0.043023512 0.038610429
0.53833616 0.043846913 0.038605411
0.53753847 0.044715635 0.038027748
0.53674084 0.045587547 0.03745003
0.53594339 0.046462644 0.036872331
0.53596854 0.047290824 0.036867287
0.53517121 0.048170697 0.036289554
0.534374 0.049053755 0.035711803
0.53357685 0.049939997 0.035134036
0.53360218 0.050772954 0.035128962
0.53280514 0.05166398 0.034551125
0.53200823 0.052558187 0.033973306
0.53121144 0.053455576 0.033395473
0.53123689 0.054293312 0.033390369
0.53044027 0.055195484 0.032812499
0.52964371 0.056100842 0.032234613
0.52966923 0.056941763 0.032229491
0.52887279 0.057851899 0.031651542
0.52807647 0.058765218 0.031073606
0.52810216 0.059609324 0.031068463
0.52730596 0.060527422 0.030490501
0.52650988 0.061448701 0.029912518
0.52571386 0.062373169 0.029334482
0.52491796 0.063300826 0.02875646
0.52494383 0.064151302 0.028751276
0.52414811 0.065083735 0.028173225
0.52335244 0.066019349 0.027595155
0.5225569 0.066958152 0.027017066
0.52258295 0.067813404 0.027011855
0.52178746 0.06875699 0.026433701
0.52181351 0.069613829 0.02642848
0.52101827 0.070562191 0.025850333
0.52022314 0.071513735 0.025272164
0.52024925 0.07237377 0.025266925
0.52027541 0.073233798 0.025261683
0.51948047 0.074191712 0.024683477
0.51950663 0.075053334 0.024678227
0.5195328 0.075914964 0.024672976
0.51873803 0.076879255 0.024094699
0.51876426 0.077742465 0.024089437
0.54827189 0.0015188954 0.045682929
0.54912049 0.0023591258 0.046251409
0.54914486 0.0031602297 0.046246525
0.54916918 0.0039613354 0.046241645
0.54919356 0.0047624414 0.046236765
0.55004191 0.005594709 0.046805292
0.55006623 0.006394221 0.04680042
0.55091441 0.0072217118 0.047368981
0.55093867 0.0080196299 0.047364119
0.55096292 0.0088175507 0.047359254
0.55181104 0.0096386708 0.047927886
0.55183524 0.010434999 0.047923036
0.55185944 0.011231326 0.047918182
0.55188364 0.012027653 0.047913328
0.55190784 0.012823981 0.047908477
0.55193204 0.013620308 0.047903623
0.55195624 0.014416634 0.047898773
0.55198044 0.015212961 0.047893919
0.55200464 0.01600929 0.047889065
0.55202883 0.016805617 0.047884215
0.55122972 0.017594669 0.04730577
0.55125397 0.018392589 0.047300909
0.55127823 0.019190509 0.047296047
0.55047935 0.019985933 0.046717595
0.55050367 0.020785445 0.046712723
0.54970491 0.021585649 0.046134248
0.54972923 0.022386754 0.046129365
0.54975361 0.023187859 0.046124484
0.54895502 0.023994433 0.045545969
0.54815662 0.02480419 0.044967432
0.54818106 0.02560848 0.044962529
0.54738271 0.026423017 0.044383932
0.54740721 0.027228901 0.044379018
0.54660904 0.028048215 0.043800429
0.54663354 0.028855691 0.043795507
0.54583555 0.029679783 0.04321688
0.54503763 0.03050706 0.042638239
0.54506224 0.031317722 0.042633299
0.54426444 0.032149777 0.042054594
0.54428911 0.032962032 0.042049646
0.54349148 0.033798866 0.041470941
0.54351622 0.034612712 0.041465983
0.54271877 0.035454322 0.040887255
0.54274356 0.036269762 0.040882286
0.54194623 0.037116151 0.040303525
0.54197103 0.037933182 0.040298544
0.54117388 0.038784351 0.039719757
0.54119873 0.039602973 0.039714769
0.54040164 0.040458921 0.039135918
0.53960466 0.041318052 0.038557079
0.53962964 0.042139862 0.038552072
0.53883284 0.043003768 0.037973206
0.53803617 0.043870863 0.037394322
0.5380612 0.044695858 0.037389297
0.53726459 0.045567732 0.036810346
0.53646815 0.046442788 0.036231413
0.53567177 0.047321029 0.035652459
0.53569698 0.048150804 0.035647403
0.53490078 0.049033824 0.035068419
0.53410465 0.04992003 0.034489419
0.53330857 0.050809421 0.033910364
0.5333339 0.051643971 0.033905279
0.53253806 0.052538142 0.033326227
0.53174227 0.053435493 0.032747157
0.53094655 0.054336034 0.032168068
0.53015095 0.055239756 0.03158896
0.53017652 0.05608068 0.031583834
0.52938104 0.056989186 0.031004664
0.52858567 0.057900872 0.030425506
0.5286113 0.058744978 0.030420361
0.52781612 0.059661444 0.029841175
0.52702099 0.060581096 0.029261971
0.52622592 0.061503936 0.028682711
0.52625173 0.062352818 0.028677538
0.52545685 0.063280433 0.028098285
0.52466208 0.064211234 0.027519012
0.52386743 0.065145217 0.026939718
0.52307284 0.066082388 0.026360406
0.52309883 0.06693764 0.026355194
0.52230436 0.067879595 0.02577582
0.52151 0.068824723 0.025196457
0.52153611 0.069683172 0.025191225
0.52074194 0.070633076 0.024611836
0.52076805 0.071493119 0.024606597
0.51997399 0.072447799 0.024027174
0.51918 0.073405683 0.023447704
0.51920623 0.0742689 0.023442443
0.51923251 0.075132117 0.023437181
0.51925874 0.075995341 0.023431921
0.5487805 0.0014996504 0.045061726
0.54962808 0.0023399191 0.045631438
0.54965246 0.003141023 0.045626558
0.54967684 0.0039421287 0.045621675
0.54970115 0.0047432347 0.045616794
0.55054849 0.0055755405 0.046186555
0.55139577 0.0064046592 0.046756338
0.55142003 0.0072025815 0.046751477
0.55144429 0.0080004996 0.046746612
0.55229139 0.0088232523 0.047316469
0.55231559 0.0096195787 0.047311615
0.55233979 0.010415907 0.047306765
0.55236399 0.011212233 0.047301911
0.55238819 0.012008561 0.047297057
0.55241239 0.012804889 0.047292206
0.55243659 0.013601216 0.047287352
0.55246079 0.014397542 0.047282502
0.55248505 0.015193869 0.047277648
0.55250925 0.015990198 0.047272794
0.55253345 0.016786525 0.047267944
0.55173528 0.01757554 0.046688266
0.55175954 0.01837346 0.046683405
0.55096161 0.019167254 0.046103731
0.55098593 0.019966764 0.046098862
0.55018818 0.020765336 0.045519162
0.5502125 0.021566443 0.045514278
0.55023688 0.022367546 0.045509398
0.54943925 0.02317249 0.044929657
0.5486418 0.023980618 0.044349898
0.54866624 0.024784908 0.044344999
0.54786885 0.025597813 0.043765176
0.54789335 0.026403695 0.043760266
0.54709613 0.02722138 0.043180447
0.54712069 0.028028855 0.043175526
0.5463236 0.028851317 0.042595681
0.54552662 0.029676963 0.042015813
0.5455513 0.030487625 0.042010874
0.54475445 0.03131805 0.041430946
0.54477912 0.032130305 0.041425996
0.54398245 0.032965507 0.040846072
0.54400718 0.033779353 0.040841114
0.54321069 0.034619331 0.040261161
0.54323542 0.035434771 0.040256191
0.54243904 0.036279529 0.039676208
0.5424639 0.03709656 0.039671231
0.5416677 0.037946098 0.039091218
0.54169255 0.038764723 0.03908623
0.54089642 0.03961904 0.038506158
0.54010046 0.040476538 0.037926096
0.54012543 0.041298348 0.03792109
0.53932959 0.042160627 0.037341002
0.53853381 0.043026086 0.036760889
0.5385589 0.043851081 0.036755864
0.53776324 0.044721324 0.036175691
0.53696775 0.045594752 0.035595536
0.53699291 0.046422932 0.035590488
0.53619754 0.047301136 0.035010304
0.5354023 0.048182525 0.034430098
0.53542757 0.04901389 0.034425031
0.53463244 0.049900059 0.033844799
0.53383738 0.050789412 0.03326451
0.53304243 0.051681951 0.032684237
0.5322476 0.052577674 0.032103945
0.53145289 0.053476579 0.031523634
0.5314784 0.05431591 0.031518519
0.53068382 0.055219594 0.030938175
0.52988923 0.056126472 0.030357784
0.52909487 0.057036527 0.0297774
0.5291205 0.057880633 0.029772257
0.52832627 0.058795467 0.029191848
0.5275321 0.05971349 0.02861142
0.52673799 0.060634699 0.028030938
0.5267638 0.061483581 0.028025765
0.52596992 0.062409565 0.027445288
0.52517611 0.063338734 0.026864793
0.52438235 0.064271085 0.026284277
0.52358878 0.065206625 0.025703743
0.52361476 0.066061877 0.025698531
0.52282125 0.067002207 0.025117932
0.52202785 0.067945704 0.024537349
0.52205396 0.068804145 0.024532117
0.52126074 0.069752425 0.023951503
0.52046758 0.070703886 0.023370869
0.52049375 0.071565524 0.023365621
0.51970077 0.072521769 0.022784924
0.51972699 0.073384985 0.022779664
0.51893413 0.074346006 0.022198973
0.51896042 0.075210817 0.022193704
0.5189867 0.076075628 0.022188434
0.51819408 0.077043019 0.021607704
0.51822037 0.077909425 0.021602426
0.54928911 0.0014804057 0.044440527
0.55013573 0.0023207127 0.045011476
0.55016005 0.0031218166 0.045006592
0.55018443 0.0039229221 0.045001712
0.55020875 0.0047240281 0.044996828
0.55105513 0.005556372 0.045567822
0.55190134 0.0063855289 0.046138834
0.5519256 0.0071834512 0.046133973
0.55194986 0.0079813693 0.046129111
0.55279595 0.0088041602 0.046700198
0.55282015 0.0096004866 0.046695348
0.55284435 0.010396815 0.046690494
0.55286855 0.011193141 0.046685643
0.5528928 0.011989469 0.046680789
0.55373853 0.012802701 0.047251903
0.5529412 0.013582123 0.046671085
0.5529654 0.01437845 0.046666231
0.5529896 0.015174777 0.046661381
0.5530138 0.015971106 0.046656527
0.55221665 0.016758488 0.046075627
0.55224091 0.017556408 0.046070762
0.55226517 0.018354328 0.0460659
0.55146825 0.019148085 0.045484997
0.5506714 0.019945025 0.044904076
0.55069578 0.02074613 0.044899195
0.5507201 0.021547236 0.044894312
0.54992348 0.022350548 0.044313349
0.54994786 0.023153245 0.044308458
0.54915142 0.023961334 0.043727469
0.54835498 0.024772609 0.04314642
0.54837948 0.025578491 0.04314151
0.54758322 0.026394544 0.042560469
0.54760778 0.027202019 0.042555548
0.54681164 0.02802285 0.041974481
0.54601568 0.028846867 0.041393396
0.5460403 0.029657528 0.041388456
0.5452444 0.030486323 0.040807303
0.54526907 0.031298578 0.040802352
0.54447341 0.032132149 0.040221203
0.54449815 0.032945994 0.040216245
0.54370254 0.033784345 0.03963507
0.54372734 0.034599781 0.0396301
0.54293191 0.035442911 0.039048895
0.54295677 0.036259942 0.039043918
0.54216146 0.037107848 0.038462684
0.54218638 0.037926473 0.038457695
0.54139119 0.038779158 0.037876397
0.54141611 0.039599374 0.037871402
0.54062116 0.040456835 0.037290107
0.53982627 0.041317482 0.036708795
0.53985131 0.042140882 0.036703777
0.53905654 0.043006308 0.036122438
0.53826183 0.043874919 0.035541043
0.53828698 0.044701509 0.035536006
0.53749251 0.045574896 0.034954619
0.5366981 0.046451468 0.034373209
0.53672332 0.047281239 0.034368154
0.53592902 0.048162594 0.033786714
0.53513491 0.049047127 0.033205256
0.5343408 0.049934853 0.032623746
0.53354681 0.05082576 0.03204225
0.53275293 0.051719852 0.031460736
0.53195918 0.052617129 0.0308792
0.53198469 0.053456459 0.030874085
0.53119105 0.054358512 0.030292522
0.53039747 0.055263758 0.029710902
0.52960408 0.056172185 0.0291293
0.52962971 0.057016291 0.029124156
0.52883643 0.057929493 0.028542526
0.52804321 0.058845881 0.027960874
0.52725011 0.059765462 0.027379168
0.52727586 0.060614347 0.027373996
0.52648294 0.061538696 0.026792295
0.52569008 0.062466234 0.026210576
0.52489734 0.06339696 0.025628841
0.52410465 0.064330868 0.025047082
0.52413064 0.065186121 0.025041871
0.52333814 0.066124812 0.024460047
0.5225457 0.067066684 0.023878241
0.5225718 0.067925125 0.023873009
0.52177954 0.068871774 0.023291174
0.52098733 0.069821611 0.022709318
0.52019525 0.07077463 0.02212741
0.52022147 0.071637854 0.02212215
0.5194295 0.072595656 0.021540247
0.51945579 0.07346046 0.021534977
0.518664 0.074423037 0.020953044
0.51869035 0.075289443 0.020947764
0.51789874 0.076256789 0.020365803
0.51792508 0.077124789 0.020360513
0.54979771 0.0014611608 0.043819327
0.54982215 0.0022638584 0.043814436
0.54984653 0.0030665542 0.043809544
0.55069202 0.0039037156 0.044381741
0.55071634 0.0047048214 0.044376861
0.55156171 0.0055372035 0.044949088
0.55158597 0.006336716 0.044944216
0.55243117 0.0071643209 0.045516476
0.55245543 0.0079622399 0.045511611
0.55247968 0.0087601598 0.045506749
0.55332476 0.0095813945 0.046079077
0.55334896 0.010377723 0.046074226
0.55337316 0.011174049 0.046069372
0.55339736 0.011970377 0.046064522
0.55342156 0.012766705 0.046059668
0.55344576 0.013563031 0.046054814
0.55346996 0.014359358 0.046049964
0.55349416 0.015155685 0.04604511
0.55269796 0.015941439 0.045462988
0.55272222 0.016739359 0.045458127
0.55274647 0.017537279 0.045453265
0.55195051 0.018329404 0.044871137
0.55197483 0.019128917 0.044866264
0.55117899 0.01992582 0.044284109
0.55120337 0.020726925 0.044279225
0.55040771 0.021528605 0.043697044
0.55043209 0.022331303 0.043692153
0.54963654 0.023137761 0.043109935
0.54884112 0.023947405 0.042527668
0.54886562 0.024753287 0.042522758
0.54807031 0.02556771 0.041940495
0.54809487 0.026375186 0.041935574
0.54729974 0.027194384 0.041353285
0.54650468 0.02801677 0.04077097
0.54652929 0.028827431 0.040766031
0.54573441 0.029654594 0.04018366
0.54575908 0.030466849 0.040178709
0.54496431 0.03129879 0.039596338
0.54498905 0.032112636 0.039591379
0.54419446 0.032949354 0.039008979
0.54421926 0.033764794 0.039004009
0.54342479 0.034606289 0.038421582
0.54344964 0.035423324 0.038416605
0.54265529 0.036269598 0.037834149
0.5426802 0.037088219 0.037829157
0.54188597 0.037939277 0.037246641
0.54191089 0.038759492 0.037241641
0.54111689 0.039615322 0.036659125
0.54032296 0.040474337 0.036076594
0.54034799 0.041297741 0.036071576
0.53955424 0.042161535 0.035489012
0.53957927 0.042986527 0.035483982
0.53878558 0.043855105 0.034901358
0.53799206 0.04472686 0.034318745
0.53801721 0.04555504 0.034313697
0.53722388 0.046431575 0.033731058
0.53643054 0.047311295 0.033148397
0.53563738 0.0481942 0.032565713
0.53566265 0.04902716 0.032560639
0.53486955 0.049914844 0.031977896
0.53407663 0.050805714 0.031395167
0.53328377 0.051699765 0.03081242
0.53249097 0.052597009 0.030229652
0.53169835 0.05349743 0.029646868
0.53090572 0.054401044 0.029064026
0.53011322 0.055307839 0.0284812
0.53013891 0.056151945 0.028476058
0.52934659 0.05706352 0.027893202
0.52855432 0.057978276 0.027310327
0.52776217 0.058896225 0.026727399
0.52778798 0.059745111 0.026722226
0.52699596 0.060667831 0.026139302
0.52620411 0.061593737 0.025556363
0.52541226 0.062522829 0.0249734
0.52462059 0.063455105 0.02439042
0.52464658 0.064310364 0.024385208
0.52385497 0.065247424 0.023802163
0.52306354 0.066187657 0.023219135
0.52308965 0.067046106 0.023213904
0.52229834 0.067991123 0.022630844
0.52150708 0.068939328 0.022047766
0.52071595 0.069890715 0.021464635
0.52074218 0.070753939 0.021459375
0.51995122 0.071710102 0.020876247
0.51916033 0.072669454 0.020293104
0.51918668 0.07353586 0.020287823
0.51921302 0.074402265 0.020282544
0.51842231 0.075367987 0.019699357
0.51844871 0.07623598 0.019694069
0.54866588 0.0013633568 0.042041507
0.5495106 0.0022069262 0.042614937
0.54953504 0.0030112173 0.042610034
0.55037951 0.0038500088 0.043183453
0.55122393 0.0046856147 0.043756895
0.55124831 0.0054867188 0.043752015
0.55209261 0.0063175475 0.044325486
0.55293679 0.0071451906 0.044898972
0.55296099 0.0079431096 0.04489411
0.55298525 0.0087410295 0.044889249
0.55382931 0.0095623024 0.04546281
0.55385351 0.010358631 0.045457959
0.55387771 0.011154958 0.045453105
0.55390191 0.011951284 0.045448251
0.55392611 0.012747613 0.045443401
0.55395031 0.013543939 0.045438547
0.55397451 0.014340267 0.045433693
0.55317932 0.015124388 0.044850349
0.55320352 0.015922308 0.044845488
0.55322778 0.01672023 0.044840626
0.55243284 0.017510723 0.044257276
0.55245709 0.018310236 0.044252403
0.55166227 0.019105507 0.043669023
0.55168658 0.019906612 0.043664142
0.55089188 0.020706661 0.043080736
0.55091631 0.021509361 0.043075845
0.55012172 0.022314187 0.042492408
0.55014616 0.023118477 0.042487506
0.54935175 0.023928083 0.041904002
0.5485574 0.024740875 0.041320518
0.54858196 0.02554835 0.0413156
0.54778779 0.026365919 0.040732086
0.54699367 0.027186673 0.040148549
0.54701835 0.027997334 0.040143609
0.54622436 0.028822867 0.039560013
0.54624903 0.02963512 0.039555062
0.54545528 0.030465432 0.038971473
0.54548001 0.031279277 0.03896651
0.54468638 0.032114364 0.038382892
0.54471111 0.032929804 0.038377922
0.54391766 0.033769671 0.03779427
0.54394245 0.034586702 0.037789289
0.54314911 0.035431344 0.03720561
0.54317403 0.036249969 0.037200622
0.54238075 0.037099391 0.03661688
0.54240566 0.037919611 0.036611881
0.54161263 0.038773809 0.036028147
0.54081964 0.039631195 0.035444386
0.54084468 0.040454596 0.035439368
0.54005188 0.041316759 0.034855582
0.54007697 0.042141754 0.034850556
0.53928423 0.043008696 0.034266707
0.53849167 0.043878824 0.033682872
0.53851682 0.044707004 0.033677824
0.53772438 0.045581907 0.033093959
0.53693205 0.046459995 0.032510079
0.53695732 0.047291365 0.032505013
0.53616512 0.048174229 0.0319211
0.53537297 0.049060285 0.031337131
0.53458101 0.049949523 0.03075318
0.5337891 0.050841946 0.030169211
0.53299731 0.051737554 0.029585218
0.53220558 0.052636348 0.02900121
0.53141397 0.05353833 0.028417148
0.53062242 0.054443493 0.0278331
0.53064811 0.0552876 0.027827956
0.52985674 0.056197543 0.027243877
0.52906543 0.057110671 0.026659781
0.52827424 0.058026988 0.02607563
0.52830005 0.058875874 0.026070457
0.52750903 0.059796963 0.025486313
0.52671808 0.060721241 0.024902146
0.52674395 0.061573308 0.024896953
0.52595317 0.062502362 0.024312761
0.52516252 0.063434601 0.023728548
0.52437186 0.064370029 0.023144279
0.52358139 0.065308638 0.022560028
0.52360749 0.066167079 0.022554796
0.52281713 0.067110471 0.021970516
0.52202684 0.068057045 0.021386215
0.52123666 0.069006801 0.020801859
0.52126288 0.069870025 0.020796599
0.52047288 0.070824556 0.02021225
0.51968294 0.071782283 0.019627882
0.51889318 0.072743192 0.019043492
0.51891953 0.073611185 0.019038204
0.51894593 0.074479185 0.019032914
0.51815629 0.075446457 0.018448489
0.51818275 0.076316044 0.01844319
0.54751348 0.00045633403 0.040263724
0.54835725 0.0013047182 0.04083832
0.54838181 0.002112193 0.040833399
0.54922545 0.0029557999 0.041408021
0.55006909 0.0037962256 0.041982703
0.55091256 0.0046334616 0.042557366
0.55175591 0.0054675122 0.043132048
0.55178028 0.0062686177 0.043127164
0.55262345 0.0070978929 0.043701876
0.55346662 0.0079239793 0.04427661
0.55349088 0.0087218992 0.044271745
0.55351514 0.0095198173 0.044266883
0.55435807 0.010339539 0.044841688
0.55438226 0.011135866 0.044836838
0.55440652 0.011932192 0.044831984
0.55443072 0.012728521 0.04482713
0.55445492 0.013524847 0.044822279
0.55366063 0.014307338 0.044237711
0.55368489 0.015105258 0.044232849
0.55370915 0.015903179 0.044227984
0.5529151 0.016692042 0.043643415
0.55293941 0.017491555 0.043638542
0.55214548 0.018285194 0.04305394
0.55216986 0.019086299 0.04304906
0.55219424 0.019887406 0.043044176
0.55140048 0.020687416 0.042459536
0.55060691 0.021490615 0.041874878
0.55063134 0.022294905 0.041869976
0.54983783 0.02310288 0.04128525
0.54904449 0.023914039 0.040700544
0.54906905 0.024721514 0.040695623
0.54827583 0.025537454 0.040110886
0.54748273 0.026356576 0.039526127
0.54750735 0.027167236 0.039521188
0.54671431 0.02799114 0.038936369
0.54673904 0.028803393 0.038931418
0.54594618 0.029632073 0.038346604
0.54597092 0.030445918 0.038341645
0.54517823 0.031279378 0.037756801
0.54520303 0.032094814 0.037751831
0.54441053 0.032933049 0.037166957
0.54443532 0.033750083 0.03716198
0.54364294 0.034593094 0.036577076
0.54366785 0.035411719 0.036572088
0.54287553 0.03625951 0.035987124
0.54290044 0.037079729 0.035982125
0.54210836 0.037932295 0.035397165
0.54213333 0.038754106 0.035392154
0.54134136 0.039611455 0.034807164
0.54054952 0.040471986 0.034222156
0.54057461 0.041296981 0.03421713
0.53978282 0.042162292 0.033632055
0.53980798 0.042988881 0.033627018
0.53901643 0.043858968 0.033041954
0.53822494 0.044732243 0.032456867
0.53825015 0.045562014 0.032451808
0.53745884 0.046440065 0.031866692
0.53666759 0.047321301 0.031281557
0.53587645 0.048205726 0.030696368
0.53508538 0.049093332 0.030111196
0.53429443 0.049984127 0.029526001
0.53350359 0.050878104 0.028940788
0.53271288 0.051775265 0.028355556
0.53273845 0.052616186 0.028350431
0.53194779 0.053518131 0.027765136
0.53115726 0.054423254 0.027179854
0.5303669 0.055331569 0.026594555
0.52957654 0.056243066 0.026009236
0.5287863 0.057157751 0.02542386
0.52881211 0.058006633 0.025418688
0.52802205 0.058926094 0.02483332
0.52723205 0.059848741 0.024247933
0.52725798 0.060700811 0.02424274
0.52646816 0.061628234 0.023657324
0.5256784 0.062558837 0.023071887
0.52488875 0.063492641 0.022486398
0.52409923 0.064429618 0.021900922
0.52412528 0.065288059 0.021895692
0.52333593 0.066229813 0.021310188
0.52254659 0.067174762 0.020724664
0.52175736 0.068122894 0.020139085
0.52178359 0.06898611 0.020133825
0.52099454 0.06993901 0.019548254
0.52020562 0.070895106 0.018962663
0.52023196 0.071761511 0.018957382
0.51944315 0.072722375 0.018371763
0.5194695 0.073590375 0.018366473
0.51868087 0.074556023 0.017780824
0.51870728 0.07542561 0.017775524
0.51710379 0.076496877 0.016609432
0.54723251 0.0012066492 0.039051905
0.54807532 0.0020550715 0.039627735
0.54891801 0.0029003085 0.040203582
0.54976058 0.0037423635 0.040779449
0.55060315 0.0045812321 0.041355368
0.55144554 0.0054169144 0.041931275
0.55228788 0.0062494115 0.042507201
0.5523122 0.007050517 0.042502318
0.55315435 0.0078782346 0.043078274
0.55399644 0.0087027689 0.043654244
0.5540207 0.009500687 0.043649383
0.55404496 0.01029861 0.043644521
0.55488688 0.011116774 0.044220567
0.55491108 0.0119131 0.044215716
0.55493528 0.012709429 0.044210862
0.55414194 0.013490289 0.043625072
0.5541662 0.014288208 0.043620206
0.55419046 0.015086127 0.043615345
0.55339736 0.015873361 0.043029554
0.55342168 0.016672874 0.043024682
0.55262876 0.017464884 0.042438857
0.55265313 0.018265989 0.042433973
0.55267745 0.019067094 0.042429093
0.55188471 0.019865474 0.041843228
0.55109209 0.020667041 0.041257344
0.55111653 0.021471331 0.041252445
0.55032396 0.022277676 0.040666498
0.54953158 0.023087204 0.04008057
0.54955614 0.023894681 0.040075649
0.54876387 0.024708986 0.039489686
0.54797173 0.025526479 0.038903706
0.54799634 0.026337141 0.038898766
0.54720432 0.027159411 0.038312726
0.54722899 0.027971666 0.038307775
0.54643714 0.028798714 0.037721738
0.54646188 0.02961256 0.037716776
0.54567015 0.030444387 0.03713071
0.54569495 0.031259827 0.03712574
0.54490334 0.032096431 0.036539644
0.54492819 0.032913461 0.036534663
0.54413676 0.033754844 0.035948541
0.54416162 0.034573469 0.035943553
0.54337031 0.035419628 0.035357364
0.54339522 0.036239848 0.035352364
0.54260409 0.037090786 0.034766182
0.54181308 0.037944909 0.034179978
0.54183811 0.03876831 0.03417496
0.54104722 0.039627213 0.03358873
0.54107225 0.040452205 0.033583704
0.54028147 0.041315887 0.032997407
0.54030657 0.042142473 0.03299237
0.53951597 0.043010931 0.032406077
0.5387255 0.043882575 0.031819772
0.53875071 0.044712346 0.031814713
0.53796035 0.045588765 0.031228375
0.53717005 0.046468373 0.030642016
0.53637987 0.047351167 0.030055603
0.53640521 0.048185717 0.030050518
0.53561521 0.049073286 0.029464113
0.53482527 0.049964041 0.028877687
0.53403544 0.05085798 0.02829124
0.53324568 0.051755104 0.027704775
0.53245604 0.052655417 0.027118258
0.53166646 0.053558912 0.026531754
0.53087705 0.054465592 0.025945229
0.53008765 0.055375457 0.025358686
0.52929837 0.056288514 0.024772093
0.52932417 0.0571374 0.024766918
0.52853507 0.058055226 0.024180327
0.52774608 0.05897624 0.023593716
0.52777195 0.059828311 0.023588523
0.52698308 0.060754105 0.023001883
0.52619433 0.061683081 0.022415226
0.52540565 0.062615246 0.021828514
0.52543163 0.0634721 0.021823291
0.52464312 0.064409032 0.021236584
0.52385473 0.065349162 0.020649856
0.5230664 0.066292472 0.020063112
0.52227807 0.067238979 0.019476309
0.52230436 0.068102196 0.019471049
0.52151626 0.069053471 0.018884255
0.52154255 0.069918275 0.018878985
0.52075458 0.070874333 0.018292159
0.51996672 0.071833573 0.017705319
0.51917899 0.072795995 0.017118456
0.51920545 0.073665582 0.017113157
0.51841778 0.074632786 0.016526228
0.51681626 0.075702377 0.015357716
0.51440096 0.076879144 0.013607517
0.54692894 0.0011478172 0.037842516
0.54695362 0.001960071 0.037837569
0.54779547 0.0028085341 0.038414665
0.54945415 0.0036884276 0.039573766
0.55029571 0.0045289253 0.040150873
0.55113721 0.0053662402 0.040728036
0.55197859 0.0062003671 0.041305184
0.55281979 0.0070313103 0.041882351
0.55284417 0.0078324145 0.041877471
0.55368525 0.0086585786 0.042454667
0.55452627 0.0094815576 0.043031882
0.55455053 0.010279479 0.043027021
0.55457479 0.011077398 0.043022159
0.55459905 0.011875318 0.043017294
0.55462331 0.012673238 0.043012433
0.55464756 0.013471159 0.043007571
0.55467176 0.014269077 0.04300271
0.55387968 0.015054679 0.04241569
0.553904 0.015854193 0.042410817
0.55311203 0.016644573 0.041823771
0.55313635 0.017445678 0.041818891
0.55316073 0.018246783 0.041814007
0.55236894 0.019043531 0.04122692
0.55239332 0.019846229 0.041222028
0.55160171 0.020647759 0.040634915
0.5508101 0.021452472 0.040047746
0.55001867 0.02226037 0.039460592
0.55004323 0.023067845 0.039455671
0.54925191 0.023880521 0.038868487
0.54846072 0.024696382 0.038281288
0.5484854 0.025507044 0.038276345
0.54769427 0.026327685 0.037689079
0.547719 0.027139938 0.037684128
0.54692805 0.027965356 0.037096869
0.54695278 0.028779201 0.037091911
0.54616207 0.029609397 0.036504619
0.5461868 0.030424837 0.036499649
0.54539621 0.031259809 0.035912331
0.54460573 0.032097969 0.035324991
0.54463059 0.032916594 0.035320003
0.54384017 0.033759531 0.034732603
0.54386508 0.034579746 0.034727603
0.54389 0.035399966 0.034722608
0.54309982 0.036249273 0.0341352
0.54230976 0.037101764 0.033547774
0.54233479 0.037925165 0.033542756
0.54154485 0.038782436 0.032955304
0.54156995 0.039607432 0.032950275
0.54078007 0.040469483 0.032362755
0.54080522 0.041296069 0.032357719
0.54001558 0.042162895 0.031770207
0.54004073 0.042991076 0.031765159
0.53925127 0.043862682 0.031177618
0.53846186 0.044737469 0.030590057
0.53767252 0.045615442 0.030002475
0.53769785 0.046448402 0.029997399
0.53690863 0.047331158 0.029409755
0.53611958 0.048217095 0.028822124
0.53533059 0.049106222 0.028234476
0.53454173 0.049998526 0.027646808
0.53375298 0.050894022 0.027059121
0.53296423 0.051792704 0.026471378
0.53217566 0.05269457 0.025883652
0.53138715 0.053599618 0.025295904
0.5314129 0.054445319 0.025290752
0.53062457 0.055355143 0.024702977
0.52983624 0.056268163 0.024115149
0.52904809 0.057184361 0.023527334
0.52826005 0.058103744 0.022939503
0.52828598 0.058955811 0.02293431
0.52749807 0.059879974 0.022346446
0.52671027 0.060807321 0.021758566
0.52673626 0.061662577 0.021753354
0.52594852 0.062594704 0.021165406
0.52516097 0.063530013 0.020577477
0.52437353 0.06446851 0.019989528
0.52439964 0.065328546 0.019984286
0.52361232 0.066271812 0.019396309
0.52282506 0.067218281 0.018808274
0.52203792 0.068167925 0.018220257
0.52206421 0.069032736 0.018214988
0.52127725 0.069987155 0.017626939
0.52130353 0.070853561 0.017621661
0.52051675 0.071812764 0.017033584
0.51972997 0.072775148 0.016445488
0.51894331 0.073740721 0.015857341
0.51896977 0.074611902 0.015852032
0.51655734 0.075780585 0.014098219
0.51333219 0.077059582 0.011761467
0.54410422 -0.0014852539 0.034895997
0.54494536 -0.00062401342 0.035474211
0.54497021 0.00019301964 0.035469234
0.54581124 0.0010494811 0.036047477
0.54665214 0.0019027588 0.036625743
0.54749298 0.0027528512 0.037204023
0.54833376 0.0035997606 0.037782364
0.54999036 0.0044765431 0.038943946
0.55083084 0.0053154873 0.039522298
0.55167127 0.0061512468 0.040100705
0.55251157 0.0069838217 0.040679093
0.55335176 0.0078132078 0.041257501
0.55419183 0.0086394101 0.041835934
0.55421615 0.0094389226 0.041831061
0.5550561 0.010260349 0.042409517
0.55508035 0.011058267 0.042404655
0.55510461 0.011856188 0.042399794
0.55512887 0.012654108 0.042394932
0.55515313 0.013452029 0.042390071
0.55436194 0.014235999 0.041801829
0.55438626 0.015035511 0.041796956
0.55441058 0.015835024 0.041792084
0.55361962 0.016625365 0.041203804
0.55364394 0.01742647 0.04119892
0.55285317 0.018221589 0.040610611
0.55287755 0.019024286 0.04060572
0.55208689 0.019824184 0.040017385
0.55129623 0.020627266 0.039428994
0.55132073 0.02143315 0.03942408
0.55053031 0.022241009 0.038835697
0.54974002 0.023052055 0.038247287
0.54976457 0.023861123 0.038242359
0.54897439 0.024676947 0.037653923
0.54818428 0.025495956 0.037065435
0.54820895 0.026308211 0.037060484
0.54741901 0.027131997 0.036472004
0.54662913 0.027958969 0.035883501
0.54665393 0.028774409 0.035878532
0.54586422 0.029606158 0.035289995
0.54588908 0.030423189 0.035285018
0.5450995 0.031259716 0.034696456
0.54512441 0.032078341 0.034691468
0.54433495 0.032919649 0.034102846
0.54435986 0.033739865 0.034097847
0.54438478 0.034560084 0.034092847
0.54359561 0.035407759 0.033504218
0.54280645 0.036258619 0.032915574
0.54283148 0.037082024 0.032910556
0.54204249 0.037937663 0.032321874
0.54206759 0.038762659 0.032316849
0.54127872 0.039623078 0.031728107
0.54130381 0.040449664 0.031723067
0.54051518 0.041314859 0.031134333
0.54054034 0.042143039 0.031129288
0.53975177 0.043013014 0.030540522
0.53896332 0.04388617 0.029951738
0.53898859 0.044717539 0.029946674
0.53820032 0.045595475 0.029357858
0.53741205 0.046476599 0.02876899
0.53662395 0.047360905 0.028180139
0.53583598 0.048248399 0.027591268
0.53504807 0.049139075 0.027002377
0.53426021 0.05003294 0.026413463
0.53347248 0.05092999 0.0258245
0.53349811 0.051772505 0.025819365
0.53271049 0.052674331 0.025230408
0.53192306 0.053579342 0.02464143
0.53113568 0.054487538 0.024052432
0.5303483 0.055398926 0.023463378
0.52956116 0.056313492 0.022874342
0.52958697 0.057163969 0.022869159
0.52879995 0.058083314 0.022280093
0.52801299 0.059005845 0.021691009
0.52722615 0.059931561 0.021101905
0.52725214 0.060786817 0.021096693
0.52646542 0.061717313 0.020507522
0.52567881 0.062650993 0.019918369
0.52570492 0.063509434 0.019913139
0.52491844 0.064447887 0.019323958
0.52413207 0.065389529 0.018734757
0.52334577 0.066334367 0.018145502
0.52337199 0.067197584 0.018140242
0.52258587 0.06814719 0.017550988
0.52179986 0.069099978 0.01696172
0.52182621 0.069966383 0.016956439
0.52104032 0.070923954 0.016367141
0.52025455 0.071884707 0.015777824
0.51946878 0.072848655 0.015188452
0.51949531 0.073719837 0.015183143
0.51708573 0.074883625 0.013425659
0.51548839 0.075957842 0.012252153
0.51145542 0.077340595 0.0093263742
0.54464781 -0.00068625389 0.034257483
0.54548794 0.00017343115 0.03483694
0.54551274 0.00099046051 0.03483196
0.54635268 0.0018453702 0.035411447
0.54719257 0.0026970925 0.035990953
0.54803234 0.0035456312 0.036570478
0.54887205 0.0043909852 0.037150059
0.55052656 0.0052646585 0.038314126
0.55136597 0.0061020474 0.038893718
0.55220532 0.0069362549 0.039473366
0.55304456 0.0077672726 0.040052999
0.55388373 0.0085951071 0.04063265
0.55472273 0.0094197541 0.041212324
0.55474705 0.010219268 0.041207451
0.55477136 0.01101878 0.041202579
0.55561018 0.011837058 0.04178229
0.55481994 0.012617806 0.041192833
0.55484426 0.013417318 0.041187964
0.55486858 0.01421683 0.041183092
0.55489284 0.015016343 0.041178219
0.55410284 0.015805053 0.040588718
0.55412722 0.01660616 0.040583834
0.55333734 0.017399646 0.039994303
0.55336177 0.018202344 0.039989412
0.55257207 0.01900061 0.039399851
0.55178237 0.019802062 0.038810235
0.55180687 0.020607945 0.038805325
0.5510174 0.021414174 0.038215715
0.55022806 0.02222359 0.037626088
0.55025262 0.023032658 0.037621159
0.54946339 0.02384685 0.037031502
0.54867423 0.024664229 0.036441788
0.5486989 0.025476482 0.036436837
0.54790992 0.026298638 0.035847131
0.54712105 0.027123978 0.035257407
0.54714584 0.027939418 0.035252437
0.5463571 0.028769538 0.034662683
0.54638195 0.02958657 0.034657702
0.54559332 0.030421466 0.034067918
0.54561824 0.031240091 0.034062929
0.54482973 0.032079767 0.033473082
0.54485464 0.032899983 0.033468086
0.54406637 0.033744436 0.032878242
0.54409134 0.034566246 0.032873236
0.54330319 0.035415478 0.032283362
0.54332823 0.036238879 0.032278344
0.54254019 0.037092887 0.031688444
0.54256529 0.037917882 0.031683419
0.54177737 0.038776673 0.031093452
0.54180247 0.039603259 0.031088416
0.54101473 0.040466823 0.030498456
0.54103994 0.041295003 0.03049341
0.54025233 0.042163346 0.029903423
0.53946483 0.043034874 0.029313415
0.5394901 0.043866239 0.029308349
0.53870279 0.044742547 0.028718315
0.53791553 0.04562204 0.028128225
0.53712833 0.046504717 0.027538149
0.53715378 0.047340859 0.027533054
0.53636676 0.048228312 0.02694295
0.53557986 0.049118955 0.026352827
0.53479308 0.050012778 0.025762683
0.5340063 0.050909791 0.025172485
0.5332197 0.051809985 0.024582302
0.53243321 0.052713368 0.023992101
0.53164679 0.053619932 0.023401881
0.53086042 0.054529686 0.022811605
0.53088623 0.055378571 0.022806432
0.53010005 0.056293104 0.022216164
0.52931398 0.057210814 0.021625875
0.52933985 0.058062885 0.021620682
0.5285539 0.058985379 0.021030365
0.52776808 0.059911057 0.020440029
0.52698231 0.060839921 0.019849638
0.52700835 0.061696772 0.019844417
0.52622277 0.062630415 0.019254031
0.52543724 0.063567236 0.018663626
0.52465183 0.064507246 0.018073201
0.52386647 0.065450452 0.017482722
0.52389276 0.066313669 0.017477462
0.52310759 0.067261644 0.016886989
0.52313387 0.068126455 0.016881719
0.52234882 0.069079205 0.016291216
0.52156395 0.070035145 0.015700694
0.52077913 0.070994265 0.015110154
0.51999432 0.071956582 0.014519558
0.51920974 0.072922081 0.013928978
0.51842517 0.073890753 0.013338379
0.51601869 0.075057618 0.011577147
0.51523447 0.076035857 0.010986489
0.51039571 0.077520691 0.0074692271
0.49747658 0.080963179 -0.0019070313
0.54351294 -0.001613081 0.032457594
0.54435217 -0.00074857677 0.033038255
0.54437715 7.1639864e-05 0.033033259
0.54521626 0.00093136547 0.03361398
0.54605526 0.0017879033 0.034194693
0.54689419 0.0026412574 0.034775421
0.54773295 0.003491428 0.035356168
0.54857171 0.0043384111 0.035936937
0.54941034 0.0051822118 0.036517758
0.5510627 0.0060527739 0.03768431
0.5519011 0.0068886112 0.038265146
0.55273944 0.0077212611 0.038846038
0.5535776 0.0085507259 0.039426912
0.55441564 0.0093770046 0.040007807
0.55444002 0.010178111 0.040002923
0.55527794 0.010999612 0.040583845
0.55530226 0.011799123 0.040578976
0.55532652 0.012598637 0.040574104
0.55535084 0.01339815 0.040569231
0.55456173 0.014183637 0.039978515
0.55458611 0.014984741 0.039973635
0.55461049 0.015785847 0.039968751
0.55382156 0.016577706 0.039377999
0.55384594 0.017380401 0.039373107
0.55305719 0.018177038 0.038782321
0.55308169 0.018981328 0.038777422
0.552293 0.019782741 0.038186572
0.55150449 0.02058734 0.037595741
0.55152905 0.021394815 0.03759082
0.55074072 0.022204192 0.036999959
0.54995245 0.023016755 0.03640908
0.54916424 0.023832502 0.035818145
0.54918891 0.024644755 0.035813194
0.54840088 0.02546528 0.035222266
0.54761297 0.02628899 0.034631319
0.54763776 0.02710443 0.03462635
0.54684997 0.027932918 0.03403537
0.54687482 0.02874995 0.034030393
0.54608715 0.029583216 0.033439383
0.54611206 0.030401839 0.033434395
0.5453245 0.031239886 0.032843325
0.54534942 0.032060102 0.03283833
0.5445621 0.032902922 0.032247264
0.54458708 0.033724733 0.032242253
0.54379988 0.034572333 0.031651162
0.54382491 0.035395734 0.031646144
0.54303783 0.036248114 0.03105502
0.54306293 0.037073109 0.031049993
0.54227597 0.037930265 0.030458806
0.54230106 0.038756855 0.030453768
0.54151434 0.039618786 0.029862586
0.54153949 0.040446967 0.029857539
0.54075289 0.041313682 0.029266331
0.5407781 0.042143453 0.029261274
0.53999162 0.043014944 0.028670033
0.53920525 0.043889616 0.028078774
0.53841895 0.04476748 0.027487462
0.53844428 0.045602031 0.027482377
0.53765815 0.046484668 0.026891068
0.53687215 0.047370493 0.026299739
0.5360862 0.0482595 0.025708396
0.53530031 0.049151696 0.025117029
0.53451455 0.050047077 0.024525607
0.5337289 0.05094564 0.023934204
0.53294331 0.051847391 0.023342779
0.53296906 0.052693091 0.023337627
0.53218365 0.053599618 0.022746172
0.5313983 0.054509334 0.022154666
0.53061306 0.055422232 0.021563174
0.53063893 0.056272712 0.02155799
0.52985382 0.057190388 0.020966468
0.52906889 0.058111247 0.02037493
0.52828401 0.059035294 0.019783368
0.5274992 0.059962533 0.019191753
0.52752519 0.06081938 0.019186532
0.52674055 0.061751392 0.018594926
0.52595603 0.062686585 0.018003296
0.52517158 0.063624963 0.017411649
0.52438724 0.064566538 0.016819948
0.52441347 0.065429755 0.016814688
0.52362925 0.066376098 0.016222991
0.52365553 0.067240909 0.016217722
0.52287149 0.068192035 0.015625997
0.52289784 0.069058433 0.015620717
0.52211392 0.070014335 0.015028965
0.52133012 0.070973419 0.01443719
0.52054632 0.071935698 0.013845361
0.51895261 0.072995424 0.012667046
0.51897919 0.073869795 0.012661718
0.51657575 0.075036541 0.010896786
0.51498258 0.07611379 0.0097183641
0.5101499 0.077599987 0.0061936984
0.49886671 0.080837391 -0.0020291405
0.5424071 -0.0017214317 0.03064782
0.54243219 -0.00089643791 0.030642793
0.54408365 1.0836534e-05 0.031811588
0.54492176 0.00087218976 0.0323935
0.54575986 0.0017303618 0.032975469
0.54659778 0.0025853459 0.033557419
0.54743564 0.0034371484 0.034139391
0.54827338 0.0042857616 0.034721382
0.54911101 0.0051311892 0.035303392
0.54994863 0.0059734359 0.035885457
0.55159891 0.0068408931 0.037054494
0.55243623 0.0076751728 0.037636571
0.5532735 0.0085062692 0.038218703
0.55411059 0.0093341786 0.038800821
0.55494761 0.010158905 0.039382957
0.55497199 0.010960009 0.039378077
0.55499631 0.011761113 0.039373193
0.55502069 0.012562221 0.039368313
0.55504501 0.013363324 0.039363429
0.55506939 0.01416443 0.039358549
0.55509371 0.014965534 0.039353665
0.55430579 0.015755763 0.03876169
0.55433017 0.016558461 0.038756799
0.55354238 0.017353464 0.038164791
0.55356681 0.018157754 0.038159888
0.55277914 0.018957537 0.03756782
0.55199158 0.019760504 0.036975764
0.55201614 0.02056798 0.036970843
0.55122876 0.021375727 0.03637876
0.55044144 0.022186657 0.035786659
0.54965419 0.023000773 0.035194498
0.54967886 0.023813028 0.03518955
0.54889184 0.024631921 0.034597397
0.54891658 0.025445767 0.034592438
0.54812962 0.02626944 0.034000259
0.54734284 0.027096298 0.033408057
0.54736763 0.027913328 0.033403076
0.54658097 0.028744964 0.032810848
0.54660589 0.029563589 0.03280586
0.54581928 0.030400002 0.032213565
0.5458442 0.03122022 0.032208566
0.54505783 0.032061413 0.031616278
0.54508281 0.032883219 0.031611271
0.54429656 0.033729192 0.031018956
0.5443216 0.034552593 0.031013938
0.54353553 0.035403341 0.030421592
0.54356056 0.036228333 0.030416565
0.54277456 0.03708386 0.029824154
0.54279971 0.03791045 0.029819116
0.54201388 0.038770754 0.029226713
0.5420391 0.039598931 0.029221665
0.54125345 0.040464014 0.028629234
0.54127866 0.041293785 0.028624177
0.54049313 0.042163644 0.028031712
0.53970772 0.043036688 0.027439231
0.53892237 0.043912921 0.026846698
0.5389477 0.044747472 0.026841611
0.53816253 0.045628477 0.026249079
0.53737748 0.046512671 0.025656531
0.53659248 0.04740005 0.02506396
0.53661799 0.048239376 0.025058845
0.53583318 0.049131535 0.024466246
0.53504837 0.050026879 0.023873596
0.53426373 0.050925404 0.023280956
0.53347921 0.051827114 0.022688301
0.53269476 0.052732013 0.022095622
0.53191036 0.053640097 0.021502893
0.53193617 0.054488983 0.021497721
0.53115195 0.055401843 0.020904997
0.53036785 0.056317888 0.020312252
0.52958381 0.057237118 0.019719491
0.52879989 0.058159534 0.019126706
0.52882594 0.05901479 0.019121494
0.52804208 0.059941988 0.018528648
0.5272584 0.060872369 0.017935818
0.52647483 0.06180593 0.017342966
0.526501 0.062665962 0.017337725
0.52571756 0.06360431 0.016744846
0.52493417 0.06454584 0.016151911
0.52415091 0.065490551 0.015558993
0.52417719 0.066355363 0.015553722
0.52339411 0.067304857 0.014960776
0.52342045 0.068171263 0.014955496
0.52263755 0.069125526 0.014362518
0.52185464 0.070082985 0.013769522
0.52107185 0.071043625 0.013176473
0.52028918 0.072007455 0.012583436
0.51950663 0.072974466 0.011990382
0.5187242 0.073944658 0.011397307
0.5163238 0.075112887 0.0096286684
0.51473266 0.076191649 0.00844777
0.51071501 0.077578604 0.0055034743
0.53884304 -0.0027959843 0.027073784
0.54049289 -0.0018742979 0.028244957
0.5413304 -0.0010017565 0.028828034
0.54297996 -9.1219619e-05 0.029999312
0.54381722 0.00077335723 0.030582437
0.54546642 0.0016727416 0.031753745
0.54630345 0.0025293601 0.032336954
0.5471403 0.0033827906 0.032920148
0.54797709 0.0042330357 0.033503361
0.54881382 0.0050800955 0.034086596
0.55046231 0.0059540002 0.035258096
0.55129874 0.0067930971 0.035841376
0.55213511 0.0076290085 0.036424674
0.55297136 0.0084617343 0.037007995
0.55380756 0.0092912763 0.037591372
0.55464363 0.010117633 0.03817473
0.55466801 0.01092033 0.038169838
0.5555039 0.011741906 0.038753226
0.55552828 0.012543014 0.038748346
0.5547412 0.013328423 0.038155165
0.55476558 0.01413112 0.038150273
0.55479002 0.014933818 0.038145382
0.5548144 0.015736518 0.038140491
0.55402756 0.016529892 0.037547261
0.554052 0.01733418 0.037542362
0.55326527 0.018132333 0.036949065
0.55247867 0.018933669 0.03635579
0.55250323 0.019741146 0.036350869
0.5517168 0.02054726 0.03575756
0.55093044 0.02135656 0.035164237
0.5501442 0.022169046 0.034570854
0.55016887 0.022981299 0.034565903
0.54938275 0.023798563 0.033972528
0.54940748 0.02461241 0.033967569
0.54862154 0.025434451 0.033374168
0.54783565 0.026259677 0.032780744
0.5478605 0.027076708 0.032775763
0.54707479 0.027906714 0.032182314
0.54628915 0.028739905 0.031588804
0.54631406 0.029560121 0.031583808
0.54633898 0.030380338 0.031578809
0.54555357 0.031219898 0.030985298
0.54557854 0.03204171 0.030980291
0.54479325 0.032886047 0.030386752
0.54481828 0.033709448 0.030381734
0.54403317 0.034558564 0.029788164
0.54405826 0.03538356 0.029783137
0.54327321 0.036237456 0.029189503
0.54329836 0.037064042 0.029184466
0.54251349 0.037922718 0.028590839
0.54253864 0.038750898 0.028585793
0.54175395 0.039614346 0.027992137
0.54177916 0.040444117 0.027987082
0.54099464 0.041312348 0.027393395
0.54021019 0.042183761 0.02679969
0.53942579 0.043058362 0.026205931
0.53945112 0.043892913 0.026200846
0.5386669 0.04477229 0.025607092
0.5378828 0.045654848 0.02501332
0.53790826 0.046492588 0.025008215
0.53712434 0.047379926 0.024414413
0.53634042 0.048270449 0.023820592
0.53555661 0.049164165 0.023226716
0.53477293 0.050061058 0.022632856
0.53479856 0.050905164 0.022627713
0.53401506 0.051806841 0.022033824
0.53323162 0.052711699 0.021439916
0.53244823 0.053619746 0.020845952
0.53166497 0.054530974 0.020252004
0.53088182 0.055445388 0.019658038
0.53090775 0.056297462 0.019652847
0.53012472 0.057216652 0.019058852
0.52934182 0.05813903 0.018464833
0.52855897 0.059064597 0.017870763
0.52858502 0.059921447 0.017865542
0.52780235 0.060851786 0.017271478
0.5270198 0.061785311 0.016677396
0.52623731 0.062722027 0.016083293
0.52545488 0.063661925 0.015489137
0.5254811 0.064525142 0.015483877
0.52469891 0.065469816 0.014889725
0.52391678 0.066417679 0.014295556
0.52394313 0.067284085 0.014290276
0.52316111 0.068236724 0.013696074
0.52237922 0.069192544 0.013101854
0.52240568 0.070062131 0.013096556
0.52162385 0.071022741 0.012502273
0.52003407 0.072079137 0.011319047
0.5192526 0.073047698 0.01072475
0.51766312 0.074115239 0.0095414221
0.51526588 0.07528653 0.0077690985
0.51367682 0.076368414 0.0065856827
0.50885648 0.077858932 0.0030461964
0.50403666 0.079368569 -0.00049340335
0.54020739 -0.0019385939 0.027013447
0.5418551 -0.0010216122 0.028187117
0.54269147 -0.00015221628 0.028771445
0.54433894 0.00075361604 0.029945215
0.54517502 0.0016150475 0.030529594
0.54601103 0.0024732933 0.03111399
0.54684705 0.0033283583 0.031698443
0.5484938 0.0042134854 0.032872304
0.54932946 0.0050605834 0.033456769
0.55016506 0.0059044957 0.034041252
0.5510006 0.0067452267 0.034625795
0.55183595 0.0075827683 0.035210315
0.55267125 0.0084171239 0.035794858
0.55350649 0.0092482967 0.036379423
0.55434161 0.010076284 0.036964037
0.55436605 0.010880576 0.036959138
0.55520099 0.011703783 0.037543748
0.55522543 0.012506482 0.037538856
0.55524981 0.013309178 0.037533965
0.55527419 0.014111876 0.037529074
0.5544883 0.014902025 0.036934633
0.55451274 0.015706317 0.03692973
0.55372691 0.016501244 0.036335226
0.55375141 0.017307127 0.036330312
0.55296582 0.018106835 0.035735812
0.55299032 0.01891431 0.035730891
0.55220485 0.019718794 0.035136361
0.5514195 0.020526463 0.034541816
0.55144411 0.021337125 0.034536876
0.55065882 0.022149572 0.03394226
0.54987371 0.022965206 0.033347663
0.54989845 0.023779051 0.033342704
0.54911345 0.024599461 0.032748077
0.54832852 0.025423057 0.032153431
0.54835337 0.026240088 0.032148451
0.54756862 0.027068462 0.031553775
0.54678392 0.027900022 0.030959046
0.54680884 0.028720239 0.030954048
0.54602432 0.029556576 0.030359326
0.5460493 0.030378386 0.030354317
0.54526496 0.031219501 0.029759564
0.54528999 0.032042902 0.029754547
0.54450577 0.032888796 0.029159764
0.54453081 0.033713792 0.029154737
0.5445559 0.034538787 0.029149709
0.5437718 0.035391051 0.028554853
0.54379696 0.036217637 0.028549816
0.5430131 0.037074681 0.027954968
0.54303825 0.037902862 0.02794992
0.54225451 0.038764678 0.027355041
0.54147089 0.039629683 0.026760142
0.54149616 0.040461048 0.026755076
0.54071265 0.041330833 0.026160149
0.53992921 0.042203803 0.025565168
0.53995454 0.043038353 0.025560081
0.53917134 0.043916099 0.024965106
0.53838819 0.044797029 0.024370112
0.53841364 0.045634765 0.024365006
0.53763062 0.046520475 0.02376998
0.53684771 0.047409367 0.023174936
0.53606486 0.048301451 0.022579838
0.53609043 0.049143966 0.022574704
0.53530777 0.050040822 0.021979611
0.53452522 0.050940864 0.0213845
0.53374273 0.051844094 0.020789368
0.5329603 0.052750509 0.020194182
0.53217798 0.05366011 0.019599013
0.53220385 0.054510586 0.019593829
0.53142172 0.055424962 0.01899863
0.53063971 0.056342524 0.018403413
0.52985775 0.05726327 0.017808173
0.52988374 0.058118526 0.017802961
0.52910191 0.059044052 0.01720766
0.52832019 0.059972767 0.016612371
0.5275386 0.060904659 0.016017066
0.5275647 0.061764691 0.016011827
0.52678329 0.062701367 0.015416491
0.52600187 0.063641228 0.014821101
0.52522057 0.06458427 0.014225728
0.52524686 0.065449089 0.014220458
0.52446574 0.066396907 0.013625054
0.52368474 0.067347914 0.013029631
0.5229038 0.06830211 0.01243419
0.5229302 0.069171697 0.012428891
0.52214938 0.070130669 0.011833385
0.52056152 0.071183801 0.010647711
0.51897389 0.072243303 0.0094620027
0.51819342 0.073215015 0.0088664182
