# .PCD v0.7 - Point Cloud Data file format
VERSION 0.7
FIELDS x y z
SIZE 4 4 4
TYPE F F F
COUNT 1 1 1
WIDTH 1345
HEIGHT 1
VIEWPOINT 0 0 0 1 0 0 0
POINTS 1345
DATA ascii
0.41247228 0.0023911428 0.026795041
0.41250232 0.0033801794 0.026789013
0.41253239 0.0043692193 0.026782986
0.41256246 0.0053582578 0.02677696
0.41170508 0.0063233171 0.026275139
0.41173518 0.0073139472 0.026269102
0.41176531 0.0083045773 0.026263067
0.41179541 0.0092952112 0.026257031
0.41182551 0.010285841 0.026250994
0.41185564 0.011276471 0.026244957
0.41188574 0.012267103 0.02623892
0.41191584 0.013257735 0.026232883
0.41194597 0.014248366 0.026226847
0.41197607 0.015238996 0.02622081
0.41200617 0.016229628 0.026214773
0.4120363 0.017220259 0.026208736
0.4120664 0.01821089 0.026202701
0.4120965 0.019201521 0.026196664
0.41212663 0.02019215 0.026190627
0.41215673 0.021182783 0.026184591
0.41218683 0.022173414 0.026178554
0.41221696 0.023164045 0.026172517
0.41224706 0.024154676 0.02616648
0.41139066 0.025151588 0.025664467
0.41142082 0.026143812 0.025658421
0.41145098 0.027136033 0.025652375
0.41148114 0.028128257 0.025646327
0.4115113 0.029120481 0.025640281
0.41154146 0.030112706 0.025634235
0.41157162 0.031104928 0.025628189
0.41160175 0.032097153 0.025622142
0.41163191 0.033089377 0.025616096
0.41166207 0.034081601 0.02561005
0.41169223 0.035073824 0.025604004
0.41172239 0.036066048 0.025597958
0.41175255 0.037058271 0.02559191
0.41178271 0.038050495 0.025585864
0.41181287 0.039042719 0.025579818
0.41184303 0.040034942 0.025573771
0.41187319 0.041027166 0.025567725
0.41101766 0.042052746 0.025065538
0.41104788 0.04304656 0.02505948
0.41107807 0.044040378 0.025053425
0.40591967 -0.029851271 0.022745736
0.40595007 -0.028851079 0.022739641
0.40598047 -0.027850894 0.022733545
0.4060109 -0.02685071 0.02272745
0.40604129 -0.025850521 0.022721356
0.40695962 -0.024776945 0.023211986
0.40698996 -0.023778353 0.023205901
0.40790817 -0.022709552 0.023696555
0.40793848 -0.021712553 0.023690479
0.40885657 -0.020648522 0.0241812
0.40977451 -0.01958769 0.024671901
0.41069236 -0.018530043 0.025162628
0.41072252 -0.017537819 0.025156582
0.41075268 -0.016545596 0.025150536
0.41167033 -0.015494318 0.025641302
0.41170046 -0.014503688 0.025635265
0.41173056 -0.013513057 0.025629228
0.41176066 -0.01252242 0.025623193
0.41179079 -0.011531789 0.025617156
0.41182089 -0.010541159 0.025611119
0.4127382 -0.0095010297 0.026101952
0.41276827 -0.0085119931 0.026095927
0.41279832 -0.0075229532 0.026089899
0.41282839 -0.0065339166 0.026083872
0.41197145 -0.0055880086 0.025580935
0.41200155 -0.0045973747 0.025574898
0.41203165 -0.0036067443 0.025568862
0.41206178 -0.0026161105 0.025562827
0.41209188 -0.0016254804 0.02555679
0.41212198 -0.00063485029 0.025550753
0.41215211 0.00035577986 0.025544716
0.41218221 0.00134641 0.025538679
0.41221231 0.0023370439 0.025532642
0.41224244 0.003327674 0.025526606
0.41227254 0.0043183044 0.025520569
0.41230264 0.0053089364 0.025514532
0.41233277 0.0062995665 0.025508497
0.41236287 0.0072901966 0.02550246
0.412393 0.0082808267 0.025496423
0.4124231 0.0092714606 0.025490386
0.4124532 0.010262091 0.02548435
0.41248333 0.011252721 0.025478313
0.41251343 0.012243353 0.025472276
0.41254354 0.013233985 0.025466239
0.41257367 0.014224615 0.025460202
0.41260377 0.015215245 0.025454167
0.41263387 0.016205877 0.02544813
0.412664 0.017196508 0.025442094
0.4126941 0.018187139 0.025436057
0.41183841 0.019174457 0.024932867
0.41186857 0.02016668 0.024926821
0.41189873 0.021158904 0.024920775
0.41192889 0.022151127 0.024914728
0.41195905 0.023143351 0.024908682
0.41198921 0.024135575 0.024902636
0.41201937 0.025127798 0.02489659
0.4120495 0.026120022 0.024890544
0.41119426 0.027121672 0.024387266
0.41122445 0.02811549 0.024381211
0.41125467 0.029109305 0.024375156
0.41128489 0.030103123 0.0243691
0.41131508 0.031096939 0.024363043
0.4113453 0.032090753 0.024356987
0.41137549 0.033084571 0.024350932
0.41052064 0.034098964 0.023847584
0.41055089 0.035094373 0.023841517
0.41058114 0.036089782 0.023835452
0.41061139 0.03708519 0.023829386
0.41152653 0.038053654 0.024320651
0.41067192 0.039076008 0.023817254
0.41070217 0.040071417 0.023811189
0.41073242 0.041066825 0.023805123
0.41076267 0.042062234 0.023799058
0.41079295 0.043057643 0.023792991
0.4108232 0.044053052 0.023786927
0.40652302 -0.030875435 0.021977799
0.40655342 -0.029875251 0.021971703
0.40658382 -0.028875059 0.021965608
0.40661421 -0.027874874 0.021959513
0.40753165 -0.026798075 0.022451358
0.40756199 -0.025799479 0.022445273
0.40759236 -0.024800885 0.022439187
0.40762269 -0.023802295 0.022433102
0.40853989 -0.022733456 0.022924995
0.40945703 -0.021667803 0.023416933
0.40948728 -0.020672388 0.023410868
0.41040421 -0.019611517 0.023902802
0.41132104 -0.018553831 0.024394764
0.4113512 -0.017561607 0.024388717
0.41138136 -0.016569383 0.024382671
0.41141152 -0.01557716 0.024376623
0.41232812 -0.014527437 0.024868634
0.41235825 -0.013536807 0.024862597
0.41238835 -0.01254617 0.02485656
0.41241845 -0.011555539 0.024850523
0.41244859 -0.010564909 0.024844486
0.41247869 -0.0095742792 0.024838449
0.41250879 -0.0085836491 0.024832413
0.41253892 -0.0075930189 0.024826378
0.41256902 -0.0066023888 0.024820341
0.41259912 -0.0056117587 0.024814304
0.41262925 -0.0046211248 0.024808267
0.41265935 -0.0036304947 0.02480223
0.41268945 -0.0026398608 0.024796193
0.41183376 -0.0016860301 0.024291975
0.41186392 -0.00069380627 0.024285929
0.41189408 0.00029841752 0.024279883
0.41192424 0.0012906414 0.024273837
0.4119544 0.0022828651 0.024267791
0.41198456 0.003275089 0.024261743
0.41201472 0.0042673126 0.024255697
0.41204488 0.0052595367 0.024249651
0.41207504 0.0062517603 0.024243604
0.4121052 0.0072439844 0.024237558
0.41213536 0.0082362061 0.024231512
0.41216549 0.0092284316 0.024225466
0.41219565 0.010220655 0.02421942
0.41222581 0.011212878 0.024213374
0.41225597 0.012205103 0.024207328
0.41228613 0.013197327 0.02420128
0.41231629 0.014189549 0.024195233
0.41234645 0.015181772 0.024189187
0.41237661 0.016173998 0.024183141
0.41240677 0.01716622 0.024177095
0.41243693 0.018158443 0.024171049
0.41246709 0.019150669 0.024165003
0.41249725 0.020142892 0.024158956
0.41164273 0.02113495 0.023654506
0.41167292 0.022128765 0.023648448
0.41170314 0.023122583 0.023642393
0.41173333 0.024116397 0.023636337
0.41176355 0.025110215 0.02363028
0.4109093 0.026111826 0.023125777
0.41093954 0.027107237 0.02311971
0.41096982 0.028102646 0.023113646
0.41100007 0.029098054 0.023107579
0.41103032 0.030093463 0.023101514
0.41106057 0.031088872 0.023095448
0.41109082 0.032084282 0.023089383
0.4111211 0.033079691 0.023083316
0.41115135 0.0340751 0.023077251
0.4111816 0.035070509 0.023071185
0.41121185 0.036065917 0.02306512
0.4112421 0.037061326 0.023059053
0.41127238 0.038056735 0.023052989
0.41130263 0.039052144 0.023046922
0.41133288 0.040047552 0.023040857
0.41136312 0.041042961 0.023034791
0.41050965 0.042071652 0.02253009
0.41142365 0.043033779 0.023022659
0.4114539 0.044029187 0.023016594
0.41060057 0.045062657 0.022511864
0.40624011 -0.031984214 0.020710737
0.40715677 -0.030899415 0.02120376
0.40718716 -0.02989923 0.021197665
0.40721756 -0.028899038 0.021191571
0.40813404 -0.027820608 0.021684639
0.40816438 -0.026822016 0.021678554
0.40819472 -0.025823422 0.021672469
0.40822509 -0.024824828 0.021666383
0.4091413 -0.02375436 0.022159493
0.40917161 -0.022757359 0.022153419
0.41008773 -0.021691667 0.022646595
0.41011798 -0.020696253 0.02264053
0.41103393 -0.019635344 0.023133699
0.41106412 -0.018641528 0.023127642
0.41197991 -0.017585397 0.02362084
0.41201007 -0.016593173 0.023614794
0.41204023 -0.015600949 0.023608748
0.41207039 -0.014608729 0.0236027
0.41210055 -0.013616504 0.023596654
0.41213071 -0.012624277 0.023590608
0.41216087 -0.011632053 0.023584561
0.41219103 -0.01063983 0.023578515
0.41222119 -0.0096476059 0.023572469
0.41225135 -0.008655386 0.023566423
0.41228151 -0.007663162 0.023560377
0.41231167 -0.0066709379 0.023554331
0.41234183 -0.0056787143 0.023548285
0.41237199 -0.0046864864 0.023542237
0.41240215 -0.0036942628 0.02353619
0.41243231 -0.002702039 0.023530144
0.41246247 -0.001709819 0.023524098
0.41249263 -0.00071759516 0.023518052
0.41252279 0.00027462863 0.023512006
0.41166827 0.001234796 0.023006521
0.41169849 0.0022286135 0.023000466
0.41172868 0.0032224273 0.022994408
0.4117589 0.0042162449 0.022988353
0.41178912 0.005210062 0.022982297
0.41181931 0.0062038777 0.02297624
0.41184953 0.0071976935 0.022970185
0.41187972 0.0081915092 0.022964129
0.41190994 0.0091853263 0.022958072
0.41194016 0.010179142 0.022952016
0.41197035 0.011172958 0.022945961
0.41200057 0.012166777 0.022939904
0.41203076 0.013160593 0.022933848
0.41206098 0.014154408 0.022927793
0.4120912 0.015148223 0.022921737
0.41212139 0.01614204 0.02291568
0.4121516 0.017135857 0.022909625
0.41218179 0.018129673 0.022903569
0.41221201 0.019123489 0.022897512
0.41224223 0.020117305 0.022891456
0.41138873 0.021110918 0.022385769
0.411419 0.022106327 0.022379702
0.41144925 0.023101736 0.022373637
0.4114795 0.024097145 0.022367571
0.41150975 0.025092555 0.022361504
0.41154 0.026087962 0.022355439
0.41157028 0.027083371 0.022349373
0.41071713 0.028089724 0.021843569
0.41074744 0.029086726 0.021837493
0.41077775 0.030083729 0.021831419
0.41080803 0.03108073 0.021825343
0.41083834 0.032077733 0.021819267
0.41086864 0.033074733 0.021813191
0.41089895 0.034071736 0.021807117
0.41092926 0.035068735 0.021801041
0.41095957 0.036065739 0.021794965
0.41098988 0.037062738 0.021788891
0.41102016 0.038059741 0.021782815
0.41105047 0.039056744 0.02177674
0.41108078 0.040053744 0.021770664
0.41111109 0.041050747 0.021764589
0.4111414 0.042047746 0.021758514
0.4111717 0.04304475 0.021752438
0.41120198 0.044041753 0.021746362
0.41123229 0.045038752 0.021740288
0.40684441 -0.03301001 0.019941581
0.40687487 -0.032008231 0.019935478
0.40779051 -0.030923394 0.020429734
0.40782091 -0.02992321 0.02042364
0.40785131 -0.028923018 0.020417545
0.40788171 -0.027922833 0.020411449
0.40879712 -0.026845958 0.020905754
0.40882745 -0.025847362 0.020899668
0.40974271 -0.024775265 0.021394009
0.40977302 -0.023778263 0.021387933
0.40980333 -0.022781262 0.021381859
0.41071844 -0.021715533 0.021876257
0.41074872 -0.020720119 0.021870192
0.41166362 -0.019659171 0.0223646
0.41169384 -0.018665355 0.022358542
0.41172403 -0.01767154 0.022352487
0.41263878 -0.016616961 0.022846928
0.41266894 -0.015624737 0.022840882
0.4126991 -0.014632517 0.022834836
0.41272923 -0.013640293 0.022828789
0.41275939 -0.012648066 0.022822743
0.41278955 -0.011655842 0.022816695
0.41281971 -0.010663618 0.022810649
0.41284987 -0.0096713938 0.022804603
0.41288003 -0.0086791739 0.022798557
0.41291019 -0.0076869503 0.022792511
0.41205633 -0.0067395628 0.022285871
0.41208652 -0.0057457453 0.022279814
0.41211674 -0.0047519282 0.022273758
0.41214696 -0.0037581106 0.022267703
0.41217715 -0.002764293 0.022261646
0.41132358 -0.0018073514 0.021754943
0.41135383 -0.00081194396 0.021748876
0.41138408 0.00018346343 0.021742811
0.41141433 0.0011788745 0.021736745
0.4114446 0.002174282 0.02173068
0.41147485 0.0031696931 0.021724613
0.4115051 0.0041651004 0.021718547
0.41153535 0.0051605115 0.021712482
0.41156563 0.0061559188 0.021706415
0.41159588 0.0071513262 0.021700351
0.41162613 0.0081467358 0.021694284
0.41165638 0.0091421464 0.021688219
0.41168663 0.010137554 0.021682153
0.41171691 0.011132963 0.021676088
0.41174716 0.012128375 0.021670021
0.41177741 0.013123782 0.021663956
0.41180766 0.014119189 0.02165789
0.41183791 0.015114599 0.021651825
0.41186818 0.01611001 0.021645758
0.41189843 0.017105417 0.021639694
0.41192868 0.018100826 0.021633627
0.41195893 0.019096235 0.021627562
0.41198921 0.020091644 0.021621495
0.41201946 0.021087052 0.021615431
0.41116703 0.022083811 0.021108463
0.41119733 0.023080815 0.021102387
0.41122764 0.024077816 0.021096312
0.41125792 0.025074817 0.021090236
0.41128823 0.026071819 0.021084161
0.41131854 0.02706882 0.021078086
0.41134885 0.028065821 0.02107201
0.41137916 0.029062824 0.021065934
0.41052723 0.030073917 0.020558899
0.41055757 0.03107251 0.020552816
0.41058791 0.032071106 0.020546731
0.41061828 0.0330697 0.020540645
0.41064861 0.034068294 0.02053456
0.41067898 0.035066888 0.020528475
0.41070932 0.036065482 0.02052239
0.41073969 0.037064075 0.020516304
0.41077003 0.038062669 0.020510219
0.4108004 0.039061263 0.020504134
0.41083074 0.040059861 0.020498049
0.4108611 0.041058455 0.020491963
0.41089144 0.042057049 0.020485878
0.41092181 0.043055642 0.020479793
0.41095215 0.044054236 0.020473707
0.41098249 0.04505283 0.020467622
0.40747917 -0.033034027 0.019166311
0.40839386 -0.031947561 0.019661792
0.40842426 -0.030947374 0.019655695
0.40845466 -0.02994719 0.019649601
0.40848505 -0.028946998 0.019643506
0.40939951 -0.027868491 0.020139035
0.40942985 -0.026869899 0.02013295
0.40946022 -0.025871305 0.020126864
0.41037446 -0.024799168 0.020622432
0.41040477 -0.023802167 0.020616356
0.41043505 -0.022805165 0.02061028
0.41134918 -0.021739397 0.021105919
0.41137943 -0.020743983 0.021099854
0.41140968 -0.019748576 0.021093788
0.41232353 -0.018689182 0.021589432
0.41235375 -0.017695367 0.021583376
0.41238397 -0.016701549 0.021577321
0.41241416 -0.015707737 0.021571264
0.41244438 -0.014713919 0.021565208
0.41247457 -0.013720104 0.021559153
0.41250479 -0.012726284 0.021553097
0.41253501 -0.011732467 0.02154704
0.4125652 -0.010738652 0.021540985
0.41259542 -0.0097448351 0.021534929
0.41262561 -0.0087510217 0.021528872
0.41265583 -0.0077572037 0.021522816
0.41180301 -0.0068082646 0.021014933
0.41183326 -0.0058128536 0.021008868
0.41186354 -0.0048174425 0.021002801
0.41189378 -0.0038220349 0.020996736
0.41192403 -0.0028266276 0.02099067
0.41195428 -0.0018312165 0.020984605
0.41198453 -0.0008358091 0.020978538
0.41201481 0.00015959829 0.020972474
0.41116238 0.0011228742 0.020464471
0.41119266 0.0021198753 0.020458395
0.41122296 0.0031168764 0.020452319
0.41125327 0.0041138772 0.020446245
0.41128358 0.0051108804 0.020440169
0.41131389 0.0061078812 0.020434093
0.4113442 0.0071048825 0.020428017
0.41137451 0.0081018833 0.020421943
0.41140479 0.0090988884 0.020415867
0.4114351 0.01009589 0.020409791
0.41146541 0.01109289 0.020403715
0.41149572 0.012089893 0.020397641
0.41152602 0.013086895 0.020391565
0.41155633 0.014083896 0.020385489
0.41158661 0.015080896 0.020379413
0.41161692 0.0160779 0.020373339
0.41164723 0.0170749 0.020367263
0.41167754 0.018071901 0.020361187
0.41170785 0.019068904 0.020355111
0.41173816 0.020065906 0.020349037
0.41176844 0.021062907 0.020342961
0.41179875 0.022059908 0.020336885
0.41182905 0.023056911 0.020330811
0.41185936 0.024053911 0.020324735
0.41100818 0.025057005 0.019816522
0.41103855 0.026055597 0.019810436
0.41106889 0.027054192 0.019804351
0.41109926 0.028052786 0.019798266
0.41112959 0.02905138 0.019792181
0.41115996 0.030049974 0.019786095
0.4111903 0.03104857 0.01978001
0.41122067 0.032047164 0.019773925
0.41125101 0.033045758 0.019767839
0.41128138 0.034044351 0.019761754
0.41131172 0.035042945 0.019755669
0.41134205 0.036041539 0.019749586
0.41137242 0.037040133 0.0197435
0.41052192 0.038065523 0.019235151
0.41143313 0.039037324 0.01973133
0.41058272 0.040065896 0.01922296
0.41061312 0.041066084 0.019216865
0.41064352 0.042066269 0.019210771
0.41067392 0.043066457 0.019204676
0.41070434 0.044066645 0.019198582
0.4072001 -0.034147747 0.017894315
0.40723059 -0.033144373 0.0178882
0.40814438 -0.032056268 0.018384935
0.409058 -0.030971354 0.018881658
0.4090884 -0.029971169 0.018875564
0.4091188 -0.028970977 0.018869469
0.41003224 -0.027892431 0.019366231
0.41006258 -0.026893841 0.019360146
0.41009295 -0.025895245 0.01935406
0.41100618 -0.024823071 0.019850861
0.41103649 -0.02382607 0.019844785
0.4110668 -0.022829069 0.019838709
0.41197988 -0.021763263 0.020335581
0.41201013 -0.020767849 0.020329515
0.41204041 -0.01977244 0.02032345
0.41207066 -0.018777033 0.020317383
0.41210091 -0.017781626 0.020311318
0.41213116 -0.01678622 0.020305252
0.41216144 -0.015790807 0.020299187
0.41219169 -0.0147954 0.02029312
0.41222194 -0.013799992 0.020287056
0.41225219 -0.012804578 0.020280989
0.41228244 -0.01180917 0.020274924
0.41231272 -0.010813763 0.020268857
0.41234297 -0.0098183556 0.020262793
0.41237321 -0.0088229449 0.020256726
0.41240346 -0.0078275371 0.020250661
0.41243371 -0.0068321298 0.020244595
0.41158196 -0.0058800438 0.019735428
0.41161227 -0.0048830393 0.019729352
0.41164258 -0.0038860382 0.019723276
0.41167289 -0.0028890371 0.0197172
0.41170317 -0.0018920359 0.019711126
0.41173348 -0.00089503493 0.01970505
0.41176379 0.00010196613 0.019698974
0.4117941 0.0010989709 0.0196929
0.41182441 0.002095972 0.019686824
0.41185471 0.003092973 0.019680748
0.41188499 0.0040899739 0.019674672
0.4119153 0.005086977 0.019668598
0.41194561 0.0060839779 0.019662522
0.41197592 0.0070809792 0.019656446
0.41200623 0.00807798 0.01965037
0.41203654 0.009074985 0.019644296
0.41206682 0.010071986 0.01963822
0.41209713 0.011068987 0.019632144
0.41212744 0.01206599 0.019626068
0.41215774 0.013062991 0.019619994
0.41218805 0.014059993 0.019613918
0.41221836 0.015056993 0.019607842
0.41224867 0.016053995 0.019601768
0.41227895 0.017050996 0.019595692
0.41142845 0.018042903 0.019086313
0.41145882 0.019041497 0.019080227
0.41148916 0.020040089 0.019074142
0.41151953 0.021038685 0.019068057
0.41154987 0.022037279 0.019061971
0.41158023 0.023035873 0.019055888
0.41161057 0.024034467 0.019049803
0.41164091 0.025033062 0.019043718
0.41079086 0.0260393 0.018534251
0.41082126 0.027039487 0.018528156
0.41085166 0.028039673 0.018522061
0.41088206 0.029039862 0.018515967
0.41091245 0.030040048 0.018509872
0.41094285 0.031040234 0.018503776
0.41097328 0.032040421 0.018497681
0.41100368 0.033040609 0.018491587
0.41103408 0.034040798 0.018485492
0.41106448 0.035040982 0.018479398
0.41109487 0.03604117 0.018473303
0.41112527 0.037041355 0.018467207
0.41115567 0.038041543 0.018461112
0.41118607 0.039041732 0.018455017
0.41121647 0.040041916 0.018448923
0.41124687 0.041042104 0.018442828
0.41127726 0.042042289 0.018436734
0.41042808 0.043077197 0.017927092
0.40957892 0.04411529 0.017417401
0.406923 -0.035264719 0.016619913
0.40783584 -0.034171801 0.017117821
0.40874866 -0.033082064 0.01761578
0.40877911 -0.032080285 0.017609676
0.40880957 -0.031078506 0.017603571
0.40972215 -0.029995149 0.018101538
0.40975255 -0.028994957 0.018095441
0.41066498 -0.027916374 0.018593438
0.41069531 -0.026917782 0.018587353
0.41072568 -0.025919188 0.018581267
0.4116379 -0.024846975 0.019079296
0.41166821 -0.023849973 0.01907322
0.41169852 -0.022852972 0.019067144
0.41172883 -0.021855971 0.019061068
0.41264087 -0.020791713 0.019559184
0.41267112 -0.019796306 0.019553117
0.41270137 -0.018800898 0.019547051
0.41273162 -0.017805491 0.019540986
0.4127619 -0.016810084 0.019534919
0.41279215 -0.015814673 0.019528855
0.4128224 -0.014819265 0.019522788
0.41285264 -0.013823858 0.019516723
0.41288289 -0.012828443 0.019510657
0.41291317 -0.011833035 0.019504592
0.41294342 -0.010837629 0.019498525
0.41297367 -0.0098422207 0.01949246
0.41212279 -0.0088949502 0.018982088
0.41215307 -0.0078979488 0.018976012
0.41218337 -0.006900948 0.018969936
0.41221368 -0.0059039472 0.018963862
0.41224399 -0.0049069421 0.018957786
0.41139343 -0.0039501111 0.018447394
0.41142377 -0.0029515203 0.018441308
0.41145414 -0.0019529255 0.018435223
0.41148448 -0.00095433072 0.018429138
0.41151485 4.4263994e-05 0.018423053
0.41154519 0.0010428587 0.018416967
0.41157556 0.0020414535 0.018410882
0.41160589 0.0030400443 0.018404797
0.41163626 0.0040386389 0.018398711
0.4116666 0.0050372356 0.018392626
0.41169694 0.0060358285 0.018386541
0.41172731 0.0070344233 0.018380458
0.41175765 0.0080330158 0.018374372
0.41178802 0.0090316124 0.018368287
0.41181836 0.010030207 0.018362202
0.41184872 0.0110288 0.018356116
0.41187906 0.012027397 0.018350031
0.41190943 0.01302599 0.018343946
0.41193977 0.014024585 0.018337861
0.41197014 0.015023177 0.018331775
0.41200048 0.016021773 0.01832569
0.41203085 0.017020367 0.018319605
0.41206118 0.018018961 0.01831352
0.41209155 0.019017557 0.018307434
0.41212189 0.020016149 0.018301349
0.41127259 0.021014387 0.017790699
0.41130298 0.022014573 0.017784605
0.41133338 0.023014762 0.017778508
0.41136381 0.024014948 0.017772414
0.41139421 0.025015134 0.017766319
0.41142461 0.026015321 0.017760225
0.41145501 0.027015507 0.01775413
0.4114854 0.028015696 0.017748035
0.41063654 0.029028267 0.017237296
0.41066697 0.030030046 0.017231192
0.41069743 0.031031825 0.017225087
0.41072789 0.032033604 0.017218983
0.41075835 0.033035383 0.017212879
0.41078877 0.034037165 0.017206773
0.41081923 0.035038944 0.017200669
0.41084969 0.036040723 0.017194565
0.41088012 0.037042502 0.01718846
0.41091058 0.038044281 0.017182356
0.41094103 0.03904606 0.017176252
0.41097149 0.040047843 0.017170146
0.4101232 0.041081119 0.01665925
0.40927505 0.042117577 0.016148366
0.40754843 0.043191906 0.015132684
0.39783368 -0.03729672 0.010290556
0.40847161 -0.034195859 0.016341321
0.4085021 -0.033192486 0.016335208
0.40853262 -0.032189112 0.016329093
0.4103255 -0.031019313 0.017333593
0.4103559 -0.030019129 0.017327499
0.41038629 -0.029018937 0.017321404
0.41129771 -0.027940314 0.017820632
0.41132805 -0.026941724 0.017814547
0.41135842 -0.025943128 0.017808462
0.41138875 -0.024944535 0.017802376
0.41229993 -0.023873877 0.018301649
0.41233024 -0.022876875 0.018295573
0.41236055 -0.021879874 0.018289497
0.41239086 -0.020882869 0.018283421
0.41242117 -0.01988587 0.018277347
0.41245145 -0.018888868 0.018271271
0.41248176 -0.017891867 0.018265195
0.41251206 -0.016894866 0.018259121
0.41254237 -0.015897864 0.018253045
0.41257268 -0.014900864 0.018246969
0.41260299 -0.013903863 0.018240893
0.4126333 -0.012906858 0.018234819
0.41266358 -0.011909856 0.018228743
0.41269389 -0.010912856 0.018222667
0.4127242 -0.0099158548 0.018216591
0.41275451 -0.0089188535 0.018210517
0.41190475 -0.0079684313 0.017698929
0.41193512 -0.0069698407 0.017692843
0.41196546 -0.0059712459 0.01768676
0.41199583 -0.0049726474 0.017680675
0.41202617 -0.0039740526 0.01767459
0.41205651 -0.0029754618 0.017668504
0.41120711 -0.0020138917 0.017156843
0.41123751 -0.001013707 0.017150749
0.41126791 -1.3518633e-05 0.017144654
0.4112983 0.00098666979 0.017138558
0.41132873 0.0019868545 0.017132463
0.41135913 0.0029870428 0.017126368
0.41138953 0.0039872276 0.017120274
0.41141993 0.0049874177 0.017114179
0.41145033 0.0059876023 0.017108085
0.41148072 0.0069877887 0.017101988
0.41151112 0.0079879751 0.017095894
0.41154152 0.0089881634 0.017089799
0.41157192 0.0099883499 0.017083704
0.41160232 0.010988536 0.01707761
0.41163272 0.011988726 0.017071515
0.41166314 0.012988912 0.017065421
0.41169354 0.013989098 0.017059324
0.41172394 0.014989285 0.01705323
0.41175434 0.015989473 0.017047135
0.41178474 0.01698966 0.017041041
0.41181514 0.017989846 0.017034946
0.41184554 0.018990034 0.017028851
0.41187593 0.019990219 0.017022755
0.41190633 0.020990407 0.01701666
0.41193673 0.021990594 0.017010566
0.41108859 0.022993572 0.016498653
0.41111904 0.023995351 0.016492547
0.4111495 0.02499713 0.016486444
0.41117996 0.025998909 0.01648034
0.41121039 0.02700069 0.016474234
0.41124085 0.028002469 0.01646813
0.4112713 0.029004248 0.016462026
0.41130173 0.030006027 0.01645592
0.41133219 0.031007808 0.016449817
0.41136265 0.032009587 0.016443713
0.41051498 0.033030085 0.015931666
0.41054547 0.034033455 0.015925551
0.41057596 0.035036828 0.015919438
0.41060647 0.036040202 0.015913323
0.41063696 0.037043571 0.015907209
0.41066745 0.038046945 0.015901094
0.41069797 0.039050318 0.015894979
0.41072845 0.040053688 0.015888866
0.40900362 0.041119978 0.014870766
0.40815657 0.042159583 0.014358629
0.40822709 -0.034307942 0.01505833
0.40913787 -0.03321654 0.015558709
0.40916836 -0.03221317 0.015552594
0.41007906 -0.031126542 0.01605304
0.41010952 -0.030124763 0.016046936
0.41102004 -0.029042916 0.016547373
0.41105044 -0.028042732 0.016541278
0.41196078 -0.026965665 0.017041748
0.41199115 -0.025967071 0.017035663
0.41202149 -0.024968475 0.017029578
0.41205186 -0.023969885 0.017023493
0.4120822 -0.022971289 0.017017407
0.41299227 -0.021903777 0.017517932
0.41302258 -0.020906772 0.017511856
0.41305289 -0.019909771 0.017505782
0.4130832 -0.018912772 0.017499706
0.41311347 -0.01791577 0.01749363
0.41314378 -0.016918769 0.017487554
0.41317409 -0.015921768 0.01748148
0.4132044 -0.014924766 0.017475404
0.41323471 -0.013927766 0.017469328
0.41326502 -0.012930761 0.017463254
0.4132953 -0.01193376 0.017457178
0.41244644 -0.010988157 0.016944386
0.41247678 -0.0099895624 0.016938301
0.41250715 -0.0089909676 0.016932216
0.41253749 -0.0079923728 0.01692613
0.41168886 -0.0070388094 0.016413284
0.41171926 -0.0060386211 0.01640719
0.41174966 -0.0050384291 0.016401095
0.41178006 -0.0040382445 0.016395001
0.41181046 -0.0030380597 0.016388906
0.41184086 -0.0020378712 0.016382812
0.41187125 -0.0010376866 0.016376715
0.41190165 -3.7498212e-05 0.016370621
0.41193205 0.00096269016 0.016364526
0.41196245 0.0019628748 0.016358431
0.41199288 0.0029630631 0.016352337
0.41202328 0.0039632479 0.016346242
0.41205367 0.004963438 0.016340146
0.41208407 0.0059636226 0.016334051
0.41211447 0.006963809 0.016327957
0.41214487 0.0079639954 0.016321862
0.41217527 0.0089641837 0.016315768
0.41220567 0.0099643702 0.016309673
0.41223606 0.010964558 0.016303577
0.41226646 0.011964746 0.016297482
0.41229686 0.012964932 0.016291387
0.41232729 0.013965119 0.016285293
0.41147974 0.014955316 0.015772229
0.4115102 0.015957098 0.015766125
0.41154066 0.016958876 0.015760021
0.41157109 0.017960655 0.015753916
0.41160154 0.018962435 0.015747812
0.411632 0.019964214 0.015741708
0.41166246 0.020965993 0.015735602
0.41169289 0.021967774 0.015729498
0.41172335 0.022969553 0.015723392
0.41087624 0.023975678 0.015210195
0.41090676 0.024979051 0.015204081
0.41093725 0.025982421 0.015197967
0.41096774 0.026985794 0.015191852
0.41099826 0.027989166 0.015185738
0.41102874 0.028992539 0.015179624
0.41105923 0.029995911 0.01517351
0.41108975 0.030999282 0.015167396
0.41112024 0.032002654 0.015161281
0.41115072 0.033006027 0.015155166
0.41118124 0.034009401 0.015149052
0.41121173 0.035012774 0.015142938
0.41124222 0.036016144 0.015136824
0.41127273 0.037019517 0.01513071
0.41130322 0.038022891 0.015124596
0.41133371 0.03902626 0.015118482
0.41136423 0.040029634 0.015112367
0.40876472 0.041127264 0.013584579
0.40441224 0.042300474 0.011042235
0.40264702 -0.036980733 0.010738846
0.40707463 -0.035516318 0.013271279
0.40886387 -0.034332037 0.014280593
0.40977365 -0.033240598 0.01478221
0.40980414 -0.032237224 0.014776096
0.41071382 -0.031150561 0.015277768
0.41074428 -0.030148782 0.015271665
0.41165379 -0.029066896 0.015773334
0.41168419 -0.028066712 0.015767239
0.41171458 -0.027066527 0.015761144
0.41262388 -0.025991011 0.016262859
0.41265422 -0.024992418 0.016256774
0.41268459 -0.023993826 0.016250689
0.41271493 -0.022995232 0.016244603
0.4127453 -0.021996636 0.016238518
0.41277564 -0.020998038 0.016232433
0.412806 -0.019999444 0.016226348
0.41283634 -0.019000852 0.016220262
0.41286671 -0.018002259 0.016214177
0.41289705 -0.017003663 0.016208092
0.41292742 -0.016005069 0.016202006
0.41295776 -0.015006477 0.016195923
0.4129881 -0.014007883 0.016189838
0.41301847 -0.013009285 0.016183753
0.4130488 -0.01201069 0.016177667
0.41307917 -0.011012099 0.016171582
0.41223139 -0.010063346 0.015657531
0.41226181 -0.0090631619 0.015651437
0.41229221 -0.0080629736 0.015645342
0.41232261 -0.0070627891 0.015639247
0.41235301 -0.0060626008 0.015633153
0.41150552 -0.0051042903 0.01511905
0.41153598 -0.0041025123 0.015112946
0.41156641 -0.003100734 0.015106841
0.41159686 -0.002098952 0.015100736
0.41162732 -0.0010971735 0.015094631
0.41165775 -9.5395284e-05 0.015088527
0.41168821 0.00090638676 0.015082423
0.41171867 0.0019081651 0.015076318
0.41174912 0.0029099435 0.015070213
0.41177955 0.0039117215 0.015064109
0.41181001 0.0049135038 0.015058004
0.41184047 0.0059152818 0.015051899
0.4118709 0.0069170622 0.015045795
0.41190135 0.0079188403 0.015039691
0.41193181 0.0089206221 0.015033586
0.41196227 0.009922401 0.015027481
0.4119927 0.010924179 0.015021377
0.41202316 0.011925961 0.015015272
0.41205361 0.01292774 0.015009168
0.41208404 0.01392952 0.015003063
0.41123754 0.01492127 0.014488725
0.41126803 0.015924644 0.014482611
0.41129854 0.016928015 0.014476497
0.41132903 0.017931389 0.014470383
0.41135952 0.01893476 0.014464268
0.41139004 0.019938132 0.014458153
0.41142052 0.020941505 0.014452039
0.41145101 0.021944877 0.014445925
0.41148153 0.02294825 0.014439811
0.41151202 0.023951622 0.014433697
0.41154251 0.024954995 0.014427582
0.41157302 0.025958365 0.014421468
0.41160351 0.026961738 0.014415354
0.411634 0.02796511 0.014409239
0.41166452 0.028968483 0.014403125
0.41081882 0.029985717 0.013888658
0.41084936 0.030990683 0.013882534
0.41087991 0.031995647 0.01387641
0.41091046 0.033000611 0.013870286
0.410941 0.034005575 0.013864162
0.41097155 0.035010543 0.013858038
0.4110021 0.036015507 0.013851915
0.41103265 0.037020471 0.01384579
0.41106319 0.038025435 0.013839666
0.41109374 0.039030403 0.013833542
0.41024858 0.040065154 0.013318974
0.40677649 0.041197237 0.011278981
0.40771341 -0.035540491 0.012491086
0.40950063 -0.034356132 0.013502866
0.41040939 -0.033264652 0.014005711
0.41043991 -0.032261282 0.013999597
0.41134858 -0.031174578 0.014502503
0.41137904 -0.030172799 0.014496399
0.4114095 -0.029171014 0.014490294
0.41231793 -0.028090691 0.014993213
0.41234833 -0.027090507 0.014987118
0.41237873 -0.026090318 0.014981023
0.41240913 -0.02509013 0.014974928
0.41331732 -0.024017768 0.01547789
0.41334766 -0.023019172 0.015471805
0.41337803 -0.022020578 0.01546572
0.41340837 -0.021021979 0.015459634
0.41343874 -0.020023385 0.015453549
0.41346908 -0.019024793 0.015447464
0.41349944 -0.018026199 0.015441379
0.41352978 -0.017027605 0.015435293
0.41356015 -0.01602901 0.015429208
0.41271314 -0.01508826 0.01491398
0.41274354 -0.014088076 0.014907884
0.41277394 -0.013087884 0.01490179
0.41280434 -0.012087699 0.014895695
0.41283473 -0.011087511 0.0148896
0.41286513 -0.010087326 0.014883505
0.41289553 -0.0090871416 0.014877411
0.41204894 -0.0081336508 0.014362099
0.41207936 -0.0071318722 0.014355994
0.41210982 -0.0061300904 0.014349889
0.41214028 -0.0051283082 0.014343784
0.41129383 -0.0041668587 0.013828398
0.41132435 -0.003163487 0.013822284
0.41135484 -0.0021601149 0.013816169
0.41138533 -0.0011567429 0.013810054
0.41141585 -0.00015337097 0.01380394
0.41144633 0.00085000473 0.013797826
0.41147682 0.0018533766 0.013791712
0.41150734 0.0028567486 0.013785598
0.41153783 0.0038601169 0.013779484
0.41156831 0.0048634927 0.013773369
0.41159883 0.0058668647 0.013767255
0.41162932 0.0068702367 0.01376114
0.41165981 0.0078736087 0.013755026
0.41169032 0.0088769821 0.013748912
0.41172081 0.0098803546 0.013742798
0.4117513 0.010883724 0.013736683
0.41178182 0.011887101 0.013730569
0.41181231 0.01289047 0.013724455
0.41184279 0.013893842 0.013718341
0.41187331 0.014897214 0.013712226
0.4119038 0.015900588 0.013706112
0.41193429 0.016903959 0.013699998
0.4119648 0.017907333 0.013693883
0.41199529 0.018910704 0.013687769
0.41202578 0.019914076 0.013681655
0.41118068 0.020916939 0.013166048
0.41121122 0.021921903 0.013159923
0.41124177 0.022926869 0.0131538
0.41127232 0.023931833 0.013147675
0.41130286 0.024936799 0.013141552
0.41133341 0.025941763 0.013135428
0.41136396 0.026946729 0.013129303
0.41139451 0.027951693 0.01312318
0.41142505 0.028956657 0.013117055
0.41145557 0.029961623 0.013110932
0.41148612 0.030966587 0.013104808
0.41151667 0.031971551 0.013098684
0.41154721 0.032976519 0.01309256
0.41157776 0.033981483 0.013086435
0.41160831 0.034986448 0.013080312
0.41163886 0.035991412 0.013074188
0.4116694 0.036996376 0.013068064
0.41169995 0.038001344 0.01306194
0.40998101 0.039062623 0.012036474
0.40826222 0.040130276 0.011010944
0.39957759 0.042482305 0.0059015686
0.38278145 -0.042384375 -0.0030589707
0.40835223 -0.035564661 0.011710887
0.41013741 -0.034380227 0.012725129
0.41016796 -0.033375259 0.012719004
0.41019851 -0.032370295 0.012712881
0.41198334 -0.031198595 0.013727237
0.4120138 -0.030196818 0.013721134
0.41204423 -0.029195031 0.013715029
0.41295168 -0.028114671 0.014219175
0.41298208 -0.027114486 0.014213081
0.41301247 -0.026114298 0.014206985
0.41304287 -0.02511411 0.01420089
0.41307327 -0.024113925 0.014194796
0.41310367 -0.023113737 0.0141887
0.41313407 -0.022113552 0.014182606
0.41316447 -0.02111336 0.014176511
0.41319486 -0.020113174 0.014170416
0.41322526 -0.019112986 0.014164321
0.41325566 -0.018112801 0.014158227
0.41328609 -0.017112613 0.014152131
0.41331649 -0.016112428 0.014146036
0.41334689 -0.015112241 0.014139942
0.41337729 -0.014112055 0.014133847
0.41340768 -0.013111863 0.014127752
0.41343808 -0.012111679 0.014121657
0.41259232 -0.011163004 0.013605147
0.41262278 -0.010161225 0.013599042
0.41265324 -0.0091594467 0.013592937
0.41180763 -0.0082044024 0.013076356
0.41183811 -0.0072010346 0.013070242
0.4118686 -0.0061976626 0.013064127
0.41189912 -0.0051942831 0.013058013
0.41192961 -0.0041909148 0.013051899
0.4119601 -0.0031875428 0.013045784
0.41199061 -0.002184171 0.01303967
0.4120211 -0.001180799 0.013033556
0.41205159 -0.00017742696 0.013027442
0.41208211 0.00082594872 0.013021328
0.41211259 0.0018293207 0.013015213
0.41214308 0.0028326926 0.013009098
0.4121736 0.0038360609 0.013002984
0.41220409 0.0048394366 0.01299687
0.41223457 0.0058428086 0.012990756
0.41226509 0.0068461807 0.012984642
0.41229558 0.0078495527 0.012978528
0.41232607 0.0088529261 0.012972414
0.41235659 0.0098562986 0.012966298
0.41238707 0.010859668 0.012960184
0.41241756 0.011863044 0.01295407
0.41244808 0.012866414 0.012947956
0.41247857 0.013869786 0.012941842
0.41163418 0.014863054 0.012425054
0.41166472 0.015868021 0.012418929
0.41169527 0.016872985 0.012412806
0.41172582 0.017877949 0.012406682
0.41175637 0.018882915 0.012400557
0.41178691 0.019887881 0.012394434
0.41181746 0.020892845 0.012388309
0.41184798 0.02189781 0.012382186
0.41187853 0.022902774 0.012376062
0.41190907 0.02390774 0.012369938
0.41193962 0.024912706 0.012363814
0.41197017 0.025917668 0.012357689
0.41200072 0.026922634 0.012351566
0.41203126 0.0279276 0.012345442
0.41206181 0.028932564 0.012339318
0.41209236 0.029937528 0.012333194
0.41212291 0.030942494 0.012327069
0.41215345 0.03194746 0.012320946
0.412184 0.032952424 0.012314822
0.41134056 0.033977546 0.011797845
0.41137117 0.034984101 0.011791712
0.41140175 0.035990659 0.011785578
0.41143236 0.036997218 0.011779444
0.41058916 0.0380303 0.01126242
0.40799856 0.039122812 0.0097235404
0.40628198 0.040195163 0.0086955409
0.40194461 0.041367803 0.0061347084
0.40720761 -0.036779717 0.0099139865
0.40899101 -0.035588831 0.010930688
0.40989792 -0.034492504 0.011435971
0.41080472 -0.033399355 0.011941273
0.41083527 -0.032394391 0.011935148
0.41174194 -0.031306021 0.012440479
0.41177243 -0.030302649 0.012434365
0.41267899 -0.02921905 0.012939758
0.41270944 -0.028217271 0.012933653
0.4127399 -0.027215494 0.012927548
0.41364622 -0.026138278 0.013432947
0.41367662 -0.025138089 0.013426852
0.41370702 -0.024137905 0.013420758
0.41373742 -0.023137717 0.013414662
0.41376781 -0.022137532 0.013408568
0.41379821 -0.02113734 0.013402473
0.41382861 -0.020137155 0.013396379
0.41385901 -0.019136965 0.013390283
0.41388944 -0.018136781 0.013384189
0.41391984 -0.017136592 0.013378094
0.41395023 -0.016136408 0.013371998
0.41310528 -0.015194142 0.012854294
0.41313574 -0.014192364 0.012848189
0.4131662 -0.013190581 0.012842084
0.41319662 -0.0121888 0.012835979
0.41322708 -0.011187022 0.012829876
0.41238239 -0.010235202 0.01231208
0.41241288 -0.0092318309 0.012305966
0.41244337 -0.0082284585 0.012299852
0.41247389 -0.0072250906 0.012293737
0.41250437 -0.0062217186 0.012287622
0.41253486 -0.0052183392 0.012281508
0.41169056 -0.0042553702 0.011763677
0.41172111 -0.0032504082 0.011757554
0.41175166 -0.0022454427 0.011751429
0.41178221 -0.001240477 0.011745305
0.41181275 -0.00023551508 0.011739181
0.4118433 0.00076945429 0.011733057
0.41187385 0.0017744162 0.011726934
0.41190439 0.0027793818 0.011720809
0.41193494 0.0037843473 0.011714686
0.41196549 0.0047893128 0.011708561
0.41199604 0.0057942769 0.011702437
0.41202658 0.0067992406 0.011696314
0.41205713 0.0078042061 0.011690189
0.41208765 0.0088091716 0.011684066
0.4121182 0.0098141357 0.011677941
0.41214874 0.010819101 0.011671818
0.41217929 0.011824067 0.011665693
0.41220984 0.012829033 0.011659569
0.41224039 0.013833996 0.011653446
0.41227093 0.01483896 0.011647321
0.41230148 0.015843928 0.011641198
0.41233203 0.016848892 0.011635073
0.41236258 0.017853854 0.011628949
0.41239312 0.01885882 0.011622826
0.41155002 0.019861607 0.011104751
0.41158062 0.020868164 0.011098618
0.41161123 0.021874722 0.011092484
0.41164181 0.022881281 0.01108635
0.41167241 0.023887837 0.011080217
0.41170299 0.024894396 0.011074083
0.4117336 0.025900951 0.011067949
0.41176417 0.026907509 0.011061816
0.41179478 0.027914068 0.011055682
0.41182539 0.028920624 0.011049548
0.41185597 0.029927183 0.011043414
0.41188657 0.03093374 0.011037281
0.41191715 0.031940296 0.011031147
0.41194776 0.032946855 0.011025013
0.41197836 0.033953413 0.01101888
0.41113603 0.034981679 0.010500651
0.41116667 0.035989832 0.010494507
0.41032448 0.037022877 0.0099762492
0.40860957 0.038085598 0.0089458143
0.40602213 0.039182771 0.0074032065
0.40343502 0.040289503 0.0058605727
0.39823028 0.041499585 0.0027813816
0.39903238 -0.039772544 0.0040173903
0.40431604 -0.038187295 0.0070869429
0.40784842 -0.036803965 0.0091313273
0.40962979 -0.035613 0.010150495
0.41053569 -0.034516636 0.010657011
0.41144148 -0.03342345 0.011163546
0.41147202 -0.032418482 0.011157422
0.41150257 -0.031413518 0.011151298
0.41240817 -0.030326705 0.011657872
0.41243869 -0.029323334 0.011651758
0.4133442 -0.02824129 0.012158387
0.41337463 -0.027239511 0.012152283
0.41340509 -0.026237732 0.012146179
0.41343555 -0.025235955 0.012140074
0.41346601 -0.024234176 0.012133969
0.41437116 -0.023161696 0.012640631
0.41440156 -0.022161512 0.012634535
0.41443196 -0.02116132 0.012628441
0.41446236 -0.020161133 0.012622346
0.41361824 -0.019225277 0.012103447
0.41364869 -0.018223498 0.012097342
0.41367915 -0.017221721 0.012091237
0.41370958 -0.016219938 0.012085132
0.41374004 -0.01521816 0.012079028
0.41289616 -0.01427275 0.011560044
0.41292664 -0.013269374 0.011553929
0.41295713 -0.012266003 0.011547815
0.41298765 -0.011262631 0.011541701
0.41301814 -0.010259259 0.011535587
0.41304862 -0.009255887 0.011529473
0.41307914 -0.0082525145 0.011523359
0.41223568 -0.007294361 0.011004323
0.41226622 -0.0062893992 0.010998199
0.41229677 -0.00528443 0.010992074
0.41232732 -0.004279464 0.010985951
0.41235787 -0.0032745022 0.010979827
0.41238841 -0.0022695367 0.010973703
0.41241896 -0.001264571 0.010967579
0.41244951 -0.00025960911 0.010961455
0.41248006 0.00074536022 0.010955331
0.4125106 0.0017503222 0.010949207
0.41254115 0.0027552878 0.010943083
0.4125717 0.0037602533 0.010936959
0.41260225 0.0047652191 0.010930835
0.41263279 0.0057701827 0.010924711
0.41266334 0.0067751464 0.010918587
0.41269389 0.0077801123 0.010912463
0.41272444 0.0087850774 0.010906339
0.41275498 0.0097900415 0.010900215
0.41278553 0.010795007 0.010894091
0.41281608 0.011799973 0.010887967
0.41197366 0.012791573 0.010368728
0.41200423 0.013798129 0.010362594
0.41203484 0.014804685 0.010356461
0.41206542 0.015811246 0.010350327
0.41209602 0.016817803 0.010344193
0.4121266 0.017824359 0.01033806
0.41215721 0.018830918 0.010331926
0.41218781 0.019837474 0.010325792
0.41221839 0.020844033 0.010319659
0.412249 0.02185059 0.010313525
0.41227958 0.022857148 0.010307391
0.41231018 0.023863705 0.010301257
0.41234079 0.024870263 0.010295124
0.41237137 0.02587682 0.01028899
0.41152966 0.026892308 0.0097696045
0.4115603 0.027900459 0.0097634615
0.41159096 0.028908608 0.0097573185
0.4116216 0.02991676 0.0097511746
0.41165224 0.030924909 0.0097450316
0.41168287 0.031933062 0.0097388877
0.41171354 0.032941211 0.0097327447
0.41174418 0.03394936 0.0097266007
0.41090292 0.034979183 0.0092071285
0.41006169 0.036012191 0.0086876052
0.40922061 0.037048385 0.0081680939
0.40663606 0.038140666 0.0066218213
0.40405184 0.039242502 0.0050755166
0.40059617 0.040383533 0.003015744
0.40055773 -0.039702546 0.003736251
0.40496087 -0.038211696 0.0062993444
0.40848923 -0.036828209 0.0083486615
0.41026857 -0.035637174 0.0093702963
0.41117346 -0.034540769 0.0098780459
0.41120407 -0.03353421 0.0098719122
0.41210881 -0.032442577 0.010379684
0.41213936 -0.031437613 0.010373561
0.4121699 -0.030432655 0.010367436
0.41307446 -0.02934739 0.010875254
0.41310495 -0.028344018 0.010869139
0.41313544 -0.027340645 0.010863025
0.41316596 -0.026337273 0.010856911
0.41319644 -0.025333902 0.010850796
0.41322693 -0.02433053 0.010844682
0.41413119 -0.023256416 0.0113526
0.41416165 -0.022254637 0.011346495
0.41419208 -0.021252852 0.01134039
0.41334894 -0.020317039 0.010820225
0.41337943 -0.019313667 0.010814111
0.41340992 -0.018310294 0.010807997
0.41344044 -0.017306922 0.010801882
0.41347092 -0.01630355 0.010795768
0.41350141 -0.015300178 0.010789653
0.41353193 -0.014296806 0.010783539
0.41356242 -0.013293431 0.010777425
0.4135929 -0.012290059 0.010771311
0.41275027 -0.011338314 0.010251081
0.41278082 -0.010333349 0.010244957
0.41281137 -0.0093283867 0.010238833
0.41284192 -0.0083234208 0.010232708
0.41287246 -0.0073184553 0.010226585
0.41290301 -0.0063134935 0.010220461
0.41293356 -0.0053085242 0.010214337
0.41296411 -0.0043035587 0.010208213
0.41299465 -0.0032985967 0.010202089
0.4130252 -0.002293631 0.010195965
0.41305575 -0.0012886653 0.010189841
0.4130863 -0.0002837035 0.010183717
0.41311684 0.00072126585 0.010177593
0.41314739 0.0017262278 0.010171469
0.41317794 0.0027311933 0.010165345
0.41233608 0.0037084217 0.0096449656
0.41236666 0.0047149812 0.009638832
0.41239727 0.0057215365 0.0096326983
0.41242784 0.0067280941 0.0096265646
0.41245845 0.0077346493 0.0096204309
0.41248906 0.0087412093 0.0096142972
0.41251963 0.009747766 0.0096081635
0.41255024 0.010754324 0.0096020298
0.41258082 0.011760883 0.0095958961
0.41261142 0.012767441 0.0095897624
0.41264203 0.013773996 0.0095836287
0.41267261 0.014780553 0.009577495
0.41270322 0.015787113 0.0095713614
0.41186202 0.016786637 0.0090508405
0.41189268 0.017794786 0.0090446966
0.41192332 0.018802937 0.0090385536
0.41195396 0.019811086 0.0090324096
0.41198459 0.020819237 0.0090262666
0.41201526 0.021827387 0.0090201227
0.4120459 0.022835538 0.0090139797
0.41207653 0.023843687 0.0090078367
0.41210717 0.024851838 0.0090016928
0.41213781 0.025859987 0.0089955498
0.41216847 0.026868138 0.0089894058
0.41219911 0.027876288 0.0089832628
0.41135857 0.028896516 0.0084626153
0.41138926 0.02990626 0.0084564621
0.41141993 0.030916004 0.0084503088
0.41145062 0.031925745 0.0084441565
0.41061026 0.03295394 0.007923428
0.41064101 0.033965275 0.0079172654
0.41067174 0.034976609 0.0079111028
0.40896079 0.036034398 0.0068758018
0.40724996 0.03709856 0.0058404244
0.40466863 0.038195506 0.0042904546
0.40208754 0.039302006 0.0027403943
0.3977654 0.040477257 0.00016105468
0.39768252 -0.041137841 0.00088844972
0.40295452 -0.039537802 0.0039727036
0.40647915 -0.038143016 0.0060268859
0.40913001 -0.036852457 0.0075660078
0.41003409 -0.035751235 0.0080749877
0.41093802 -0.034653191 0.0085839601
0.41096866 -0.033645045 0.0085778171
0.41187245 -0.03255178 0.0090868128
0.41190305 -0.031545229 0.0090806792
0.41280666 -0.030456748 0.0095897103
0.41283721 -0.029451774 0.0095835859
0.41286775 -0.028446808 0.0095774624
0.41377121 -0.027364701 0.010086532
0.4138017 -0.026361329 0.010080418
0.41383219 -0.025357958 0.010074303
0.41386271 -0.024354586 0.010068189
0.41389319 -0.023351213 0.010062075
0.41392368 -0.022347841 0.01005596
0.4139542 -0.021344466 0.010049846
0.41398469 -0.020341095 0.010043732
0.41401517 -0.019337721 0.010037618
0.41404569 -0.01833435 0.010031504
0.41407618 -0.017330978 0.010025389
0.41410667 -0.016327607 0.010019275
0.41326487 -0.01538227 0.0094978502
0.41329542 -0.014377305 0.0094917268
0.41332597 -0.013372336 0.0094856024
0.41335651 -0.012367374 0.009479478
0.41338706 -0.011362408 0.0094733546
0.41341761 -0.010357442 0.0094672302
0.41344815 -0.009352481 0.0094611067
0.4134787 -0.008347515 0.0094549824
0.41350925 -0.0073425495 0.0094488589
0.41353977 -0.0063375877 0.0094427345
0.41269851 -0.0053747254 0.0089212032
0.41272908 -0.0043681702 0.0089150695
0.41275969 -0.0033616144 0.0089089358
0.4127903 -0.0023550552 0.0089028021
0.41282088 -0.0013484997 0.0088966684
0.41285148 -0.00034194408 0.0088905348
0.41288206 0.00066461519 0.0088844011
0.41291267 0.0016711745 0.0088782674
0.41294324 0.0026777301 0.0088721337
0.41297385 0.0036842893 0.008866
0.41300446 0.0046908488 0.0088598663
0.41303504 0.005697404 0.0088537326
0.41306564 0.0067039616 0.0088475989
0.41309622 0.0077105174 0.0088414652
0.41312683 0.0087170769 0.0088353315
0.41315743 0.0097236335 0.0088291978
0.41231695 0.010713564 0.0083075073
0.41234761 0.011721717 0.0083013643
0.41237825 0.012729866 0.0082952203
0.41240889 0.013738016 0.0082890773
0.41243953 0.014746165 0.0082829343
0.41247016 0.015754318 0.0082767904
0.41250083 0.016762467 0.0082706474
0.41253147 0.017770616 0.0082645034
0.4125621 0.018778767 0.0082583604
0.41259274 0.019786917 0.0082522165
0.41262338 0.020795068 0.0082460735
0.41178352 0.021804109 0.0077242609
0.41181421 0.022813851 0.0077181077
0.41184491 0.023823595 0.0077119544
0.41187558 0.024833338 0.0077058016
0.41190627 0.02584308 0.0076996484
0.41106662 0.026861679 0.007177751
0.41109738 0.027873013 0.0071715885
0.4111281 0.028884349 0.0071654255
0.41115886 0.029895686 0.0071592629
0.41118959 0.03090702 0.0071530999
0.41122034 0.031918358 0.0071469373
0.41038108 0.032948103 0.0066249985
0.41041186 0.033961032 0.0066188257
0.40957278 0.034995556 0.0060968576
0.40786386 0.036056455 0.0050590388
0.4061552 0.037123725 0.0040212129
0.40270719 0.038250115 0.0019516674
0.40012932 0.039361276 0.00039791019
0.39581233 0.040541116 -0.0021876516
0.4000814 -0.04096999 0.0011223784
0.40447479 -0.039467614 0.0036977311
0.40799534 -0.038074262 0.0057568508
0.40977085 -0.036876705 0.0067833425
0.40980157 -0.03586537 0.0067771794
0.41157681 -0.03467736 0.0078037614
0.41160744 -0.033669215 0.0077976179
0.41163811 -0.032661062 0.0077914745
0.41254082 -0.031569362 0.0083017135
0.41257143 -0.030562803 0.0082955798
0.41260201 -0.029556243 0.0082894461
0.41350454 -0.028470904 0.0087997299
0.41353509 -0.027465938 0.0087936064
0.41356564 -0.026460975 0.008787482
0.41359618 -0.025456013 0.0087813586
0.41362673 -0.024451047 0.0087752342
0.41365728 -0.023446083 0.0087691098
0.41368783 -0.022441121 0.0087629864
0.41371837 -0.021436151 0.008756862
0.41374892 -0.020431185 0.0087507386
0.41377944 -0.019426223 0.0087446142
0.41380998 -0.018421259 0.0087384898
0.41384053 -0.017416293 0.0087323664
0.41387108 -0.016411331 0.008726242
0.41390163 -0.015406365 0.0087201186
0.41393217 -0.0144014 0.0087139942
0.41396272 -0.01339643 0.0087078707
0.41399327 -0.012391469 0.0087017464
0.41402382 -0.011386503 0.008695622
0.4131833 -0.010431651 0.008172906
0.41321391 -0.0094250916 0.0081667723
0.41324449 -0.0084185358 0.0081606386
0.41327509 -0.0074119768 0.0081545049
0.4133057 -0.0064054211 0.0081483712
0.41333628 -0.0053988579 0.0081422376
0.41336688 -0.0043923026 0.0081361039
0.41339746 -0.0033857469 0.0081299702
0.41342807 -0.0023791876 0.0081238365
0.41345868 -0.0013726321 0.0081177028
0.41348925 -0.00036607648 0.0081115691
0.41351986 0.00064048282 0.0081054354
0.41355044 0.0016470421 0.0080993017
0.41358104 0.0026535976 0.008093168
0.41361162 0.0036601569 0.0080870343
0.41364223 0.0046667163 0.0080809006
0.41280255 0.0056486437 0.0075580259
0.41283318 0.0066567929 0.0075518824
0.41286382 0.0076649422 0.0075457389
0.41289446 0.0086730951 0.0075395955
0.41292509 0.0096812444 0.007533452
0.41295576 0.010689394 0.0075273085
0.4129864 0.011697547 0.0075211655
0.41301703 0.012705696 0.0075150221
